#!ascii - generated by CreateLabelFiles project 
4315 8329
-35.3882 96.7784 -3.06235 0
-35.1871 95.1369 -3.86978 0
-33.4211 96.1783 -4.10943 0
-30.5623 97.7287 -4.23623 0
-32.3133 96.1454 0.205447 0
-31.5025 95.8675 0.653076 0
-34.7219 97.1589 -1.47654 0
-33.498 96.5154 -0.502475 0
-33.8977 97.3117 0.150771 0
-34.7422 98.8671 0.191532 0
-34.4843 98.5243 0.94789 0
-32.1568 96.9351 -2.59672 0
-34.7493 97.5828 -2.42489 0
-33.054 98.9193 -0.618563 0
-33.9084 98.1556 -1.65146 0
-33.4189 98.8644 -8.38333 0
-33.2094 98.658 -7.1815 0
-33.6941 98.6796 -7.92511 0
-33.5749 98.6185 -7.58469 0
-33.8488 98.8005 -8.31314 0
-36.4954 93.6955 12.3076 0
-35.6347 92.6303 10.8403 0
-36.129 93.1188 11.628 0
-35.5763 92.1284 8.86548 0
-35.5094 92.4255 9.86487 0
-35.1611 93.0559 10.3332 0
-34.6647 93.6757 9.95995 0
-35.8587 92.5039 7.23978 0
-35.9034 91.8157 7.84091 0
-33.9803 92.9864 5.7609 0
-35.1177 92.9094 6.52454 0
-36.0786 93.1782 6.79019 0
-36.4197 93.633 6.32751 0
-36.1484 93.3178 6.98046 0
-31.2891 93.3294 4.77794 0
-32.6624 93.0474 5.12138 0
-28.5668 92.7704 3.96528 0
-29.985 93.0819 4.33979 0
-31.5541 93.904 4.50484 0
-31.734 94.5011 4.40315 0
-33.1893 94.2317 4.7059 0
-35.7351 93.7401 5.57723 0
-36.6824 94.0878 5.81355 0
-34.3071 93.3865 5.33978 0
-34.5599 93.9803 5.17439 0
-34.6365 94.6907 5.10061 0
-36.6721 94.8828 5.78437 0
-36.3497 94.7722 6.33724 0
-34.7329 95.5141 5.21456 0
-35.9865 95.2039 5.51458 0
-36.531 95.9361 5.89594 0
-26.0585 92.3487 2.88202 0
-27.2186 92.566 3.43473 0
-24.928 91.9593 1.22942 0
-25.2586 92.1163 2.30441 0
-26.2845 92.8966 2.54927 0
-26.4399 93.4982 2.17711 0
-27.5546 93.597 2.71629 0
-24.5869 91.6859 -0.534481 0
-24.7205 91.7777 0.27442 0
-24.7198 91.8762 -1.41305 0
-25.0221 92.3472 -0.91674 0
-25.5801 92.7689 -0.399785 0
-25.5982 93.4834 1.48123 0
-26.5883 94.1611 1.83525 0
-25.1185 92.6955 0.846897 0
-25.6133 92.9855 0.501735 0
-26.2641 93.261 0.0894365 0
-27.1085 94.55 1.43203 0
-27.9308 94.7595 2.17005 0
-26.8877 94.0837 0.540094 0
-27.8272 94.7544 0.926672 0
-29.2875 95.0343 1.02646 0
-36.1052 97.1392 5.42774 0
-33.42 95.7307 4.78688 0
-34.8676 96.4397 5.38072 0
-35.0472 97.4255 4.92716 0
-33.6308 97.6401 4.02393 0
-35.3017 98.4519 4.30132 0
-30.2814 94.2705 3.98332 0
-31.9149 95.0863 4.31296 0
-28.6825 93.4841 3.73478 0
-28.8254 93.9722 3.41397 0
-28.9677 94.4813 3.16581 0
-32.032 96.5636 3.70726 0
-32.3715 97.015 3.30319 0
-31.9955 95.7271 4.03877 0
-30.4847 95.4206 3.55606 0
-29.1295 95.0266 2.88612 0
-31.2813 95.9541 2.6815 0
-32.7659 97.3034 2.86758 0
-29.4889 95.4003 2.48693 0
-30.1499 95.4275 1.85474 0
-30.8095 95.5736 1.16516 0
-35.5387 99.1717 3.76375 0
-36.3702 98.9602 4.69477 0
-33.2702 97.6615 2.23684 0
-34.3561 98.6671 3.12727 0
-32.3116 96.6945 1.30261 0
-33.6951 98.1325 1.56908 0
-35.0622 99.8813 1.91317 0
-35.7833 99.7715 3.24209 0
-34.9265 93.391 9.00353 0
-35.5864 92.6352 8.37889 0
-35.567 93.2937 7.9893 0
-35.3536 93.8986 7.63606 0
-35.3513 94.7231 7.38111 0
-33.943 68.2323 32.014 0
-32.5986 66.8168 32.5535 0
-32.601 67.6897 32.218 0
-34.5832 71.3551 30.8026 0
-34.0797 71.5788 30.5177 0
-34.5249 72.3424 30.1476 0
-35.2663 74.1839 29.503 0
-34.9615 74.937 29.0483 0
-34.9313 73.2212 29.7276 0
-34.2055 73.101 29.6552 0
-34.1649 74.6925 28.809 0
-34.1498 75.367 28.7345 0
-33.3669 73.0976 29.4224 0
-33.7603 73.7834 29.1587 0
-33.0623 74.3687 28.5466 0
-31.9698 74.5123 28.3025 0
-31.9739 75.0656 28.236 0
-33.2796 68.8295 31.7841 0
-33.8166 69.2296 31.7428 0
-31.9859 68.1202 31.7735 0
-32.6326 68.4996 31.8534 0
-32.562 69.3261 31.5422 0
-31.7718 69.7264 31.0924 0
-32.3279 70.1573 31.3054 0
-30.7682 67.3466 31.5017 0
-31.3662 67.7098 31.6082 0
-29.3139 68.2709 30.994 0
-29.9644 68.5887 31.0209 0
-31.253 69.2591 30.7327 0
-30.9902 70.0519 30.4829 0
-31.3479 68.4691 31.135 0
-30.6228 68.8951 30.7885 0
-29.7389 69.3259 30.6239 0
-30.0459 70.4515 30.297 0
-30.6098 70.8532 30.376 0
-28.8924 69.7258 30.1216 0
-29.4636 70.066 30.2313 0
-29.1727 70.7247 29.5925 0
-28.3691 71.0001 28.8765 0
-28.8573 71.3668 28.9792 0
-31.6362 73.9406 28.6053 0
-30.8543 74.7296 28.0404 0
-32.866 72.4384 29.6313 0
-32.4108 73.1451 29.1121 0
-31.3068 73.4695 28.8299 0
-30.7964 73.1416 29.1961 0
-30.2169 73.7379 28.4 0
-33.5142 70.9799 30.8663 0
-33.273 71.7104 30.1726 0
-33.6624 70.119 31.465 0
-32.908 70.5336 31.2249 0
-32.0355 70.9528 30.9509 0
-31.3375 72.5054 29.9177 0
-30.3755 72.6443 29.1844 0
-32.3594 72.047 30.0022 0
-31.7244 71.7379 30.4472 0
-31.137 71.3153 30.5366 0
-29.9338 72.163 29.123 0
-29.433 72.7574 28.4189 0
-30.2666 71.5389 29.836 0
-29.3918 71.7653 29.0562 0
-28.5352 71.9372 28.2987 0
-29.7831 74.7816 27.4019 0
-29.7882 75.2606 27.4138 0
-29.2016 73.8054 27.6218 0
-29.5279 74.2973 27.518 0
-28.5972 74.9905 27.1445 0
-27.3664 75.2289 26.9308 0
-27.553 75.8093 26.8574 0
-28.4965 72.9186 27.6939 0
-28.8689 73.341 27.6942 0
-27.6369 72.1178 27.5537 0
-28.115 72.5074 27.6491 0
-27.5408 73.0725 27.0192 0
-26.6614 73.1672 26.206 0
-26.8968 73.6266 26.4063 0
-27.118 74.6763 26.8928 0
-26.4283 75.3691 26.1455 0
-28.0135 74.0089 27.3225 0
-27.0056 74.1476 26.6762 0
-26.0959 74.2655 25.8936 0
-25.8486 75.4297 25.2861 0
-26.0331 76.0061 25.3236 0
-25.5025 74.3151 24.9567 0
-25.6647 74.8738 25.1362 0
-25.3093 75.5223 24.3821 0
-24.8377 75.6042 23.5108 0
-25.0116 76.0645 23.7059 0
-31.6667 89.0293 24.8423 0
-30.8308 89.7378 24.5513 0
-32.0245 88.1332 24.9872 0
-32.4646 87.1873 24.8584 0
-31.4178 87.9705 25.2759 0
-33.3427 86.3607 24.7927 0
-32.8631 86.2725 24.778 0
-33.219 85.3709 24.9742 0
-32.2924 86.1601 25.1609 0
-36.32 82.7927 26.5526 0
-35.9758 83.1358 25.9966 0
-34.0417 84.5409 25.157 0
-33.6388 84.5304 24.9873 0
-35.0875 83.7548 25.5291 0
-35.6867 83.0195 25.4861 0
-34.2999 83.8526 24.7114 0
-33.3407 84.5745 24.7447 0
-35.8355 82.5901 25.2461 0
-35.3106 83.1599 24.8555 0
-34.8745 83.2947 24.3214 0
-35.2381 82.8973 23.6578 0
-34.3986 83.4129 23.6045 0
-35.7506 82.3439 24.1073 0
-35.1561 82.4239 23.3379 0
-36.0692 82.2197 25.7507 0
-35.984 82.2075 24.9411 0
-35.79 81.9854 24.6531 0
-35.0595 81.9408 25.4683 0
-35.2315 81.6608 24.6059 0
-35.9892 82.4671 26.5225 0
-34.3654 82.7347 27.8436 0
-34.8853 82.0291 26.4335 0
-33.7085 82.0683 26.4758 0
-35.6059 82.1768 26.4534 0
-34.6263 82.3651 27.1649 0
-33.3132 82.5853 27.8861 0
-32.1487 82.3274 27.4714 0
-32.4355 82.1275 26.6198 0
-32.1364 82.5738 28.7751 0
-32.1759 82.3789 28.1335 0
-31.047 82.1232 28.4171 0
-30.4238 81.3638 29.2648 0
-30.2416 81.4645 28.6592 0
-30.5498 81.4484 29.8682 0
-30.272 80.1951 30.0745 0
-30.7502 81.5982 30.3497 0
-30.4148 79.161 30.6855 0
-30.1286 79.138 30.1771 0
-30.8965 77.289 31.2118 0
-34.9425 81.767 23.1672 0
-34.5192 82.1115 22.8621 0
-34.228 81.393 24.7971 0
-35.0735 81.3821 23.8158 0
-34.7535 80.9993 23.0026 0
-34.4847 80.1985 22.8921 0
-34.5735 80.4754 22.2549 0
-31.2071 82.0997 26.832 0
-32.6689 81.8167 25.8227 0
-29.9127 80.5527 28.8728 0
-30.0308 81.7498 27.9992 0
-30.1429 81.6215 27.2039 0
-29.5543 80.8529 27.3822 0
-30.2629 81.4923 26.3471 0
-33.3566 80.5576 24.034 0
-33.6575 79.8713 22.8552 0
-32.9938 81.283 24.9879 0
-31.7036 81.4275 25.0862 0
-30.4229 81.5795 25.2758 0
-32.5786 79.7096 23.0489 0
-33.8321 79.3203 21.6864 0
-29.309 81.4734 25.5326 0
-30.8829 80.8114 24.2194 0
-31.4664 79.5187 23.4469 0
-30.3458 79.4708 23.6496 0
-31.7768 78.9019 22.2228 0
-30.1831 78.2104 30.1714 0
-29.9327 79.471 29.5717 0
-31.622 76.9327 30.6297 0
-30.5656 77.2783 30.6657 0
-30.2552 77.3871 30.0956 0
-30.7569 77.012 29.6183 0
-30.1483 77.9252 29.3674 0
-32.7943 76.8596 30.4916 0
-34.306 75.8096 29.484 0
-31.7309 76.51 29.6417 0
-31.0063 76.55 29.2562 0
-32.3607 76.5758 30.0457 0
-33.1828 76.2031 29.3653 0
-33.8257 75.7766 28.8391 0
-31.473 76.1331 28.7934 0
-30.2127 76.8339 28.8631 0
-32.8371 75.6292 28.6604 0
-31.7754 75.6144 28.3913 0
-30.7231 75.7476 28.0559 0
-28.8616 80.4642 24.6553 0
-29.2016 79.4573 23.718 0
-28.7415 80.7351 26.5845 0
-28.4988 80.853 25.8889 0
-27.8765 80.1675 26.127 0
-27.893 79.276 26.8639 0
-27.4052 79.3678 26.2647 0
-29.3597 80.1322 28.1261 0
-29.0239 80.4562 27.338 0
-29.7028 79.784 28.926 0
-29.8292 79.0619 28.7504 0
-29.735 78.3323 28.6609 0
-28.4345 79.0791 27.3826 0
-28.1426 78.4385 27.348 0
-28.9174 79.7045 27.2827 0
-29.1573 78.6487 27.9696 0
-29.668 77.734 28.4361 0
-28.6634 77.3572 27.8019 0
-27.8974 77.7893 27.2268 0
-29.4186 77.0516 28.3456 0
-29.5838 76.4437 27.9866 0
-29.7298 75.7786 27.4709 0
-28.1402 79.0839 23.8335 0
-29.5367 78.4573 22.5984 0
-26.879 78.6679 26.188 0
-27.2425 79.2437 25.0277 0
-27.1217 78.7203 23.8606 0
-26.3574 78.3112 23.8508 0
-27.1453 78.5476 22.833 0
-27.7694 77.1108 27.0603 0
-27.2228 77.9236 26.6882 0
-28.7624 76.0154 27.0761 0
-27.6931 76.4426 26.909 0
-26.8208 76.6079 26.3193 0
-26.165 77.8594 24.7907 0
-25.8721 77.6917 23.8942 0
-26.5395 78.0217 25.897 0
-26.3063 77.3069 25.6054 0
-26.2474 76.6184 25.399 0
-25.473 77.0849 23.9205 0
-25.8747 77.7509 22.877 0
-25.6677 76.5912 24.6141 0
-25.1943 76.5302 23.8713 0
-24.7875 76.8445 22.9121 0
-29.3558 92.4434 21.7871 0
-29.5783 91.0331 24.3992 0
-29.4395 91.6551 24.0559 0
-30.3279 89.4731 24.4743 0
-29.99 90.2746 24.3981 0
-29.2407 90.6832 24.2106 0
-28.8656 90.3082 24.0321 0
-28.9137 90.9286 23.432 0
-28.9772 91.9842 22.4604 0
-29.124 92.2373 21.3018 0
-28.9534 91.9034 23.559 0
-28.723 91.5627 23.0887 0
-28.5082 91.2128 22.6216 0
-28.8851 92.0093 20.8454 0
-28.1237 90.8804 22.3413 0
-28.3211 91.4284 21.5826 0
-28.7344 91.7114 20.3059 0
-28.6042 91.4239 19.8492 0
-30.8827 87.7494 25.2806 0
-30.5984 88.608 24.9225 0
-31.7706 85.9974 25.1935 0
-31.3288 86.8674 25.2912 0
-30.4438 87.4886 24.979 0
-29.8775 87.1637 24.8602 0
-29.5031 87.9671 24.6872 0
-32.9287 84.4513 24.3766 0
-32.341 85.2174 24.8207 0
-33.8666 83.1223 23.2491 0
-33.5031 83.7493 23.8754 0
-32.529 84.2374 24.0182 0
-31.9719 83.8019 23.8626 0
-31.4644 84.6068 24.2758 0
-30.319 86.3438 24.831 0
-29.2996 86.7875 24.8039 0
-31.3909 85.8365 24.7444 0
-30.8553 85.4843 24.5981 0
-30.4365 85.0338 24.4541 0
-29.0199 86.2963 24.7749 0
-28.5962 87.1217 24.734 0
-30.1209 84.671 24.1619 0
-29.484 85.5106 24.5007 0
-28.7978 85.8554 24.5043 0
-28.6224 85.5181 23.8663 0
-28.1113 86.1349 24.182 0
-27.982 90.8318 20.5865 0
-28.2705 91.2615 19.4434 0
-28.0779 90.2218 23.1022 0
-27.8658 90.5602 21.9146 0
-27.791 90.1296 21.4044 0
-27.6297 89.494 22.2595 0
-27.6437 89.9891 20.8532 0
-29.0189 89.5888 24.3001 0
-28.4453 89.9396 23.9028 0
-29.7712 89.1343 24.4881 0
-29.2257 88.7861 24.4767 0
-28.6315 88.423 24.4978 0
-28.1102 89.1574 23.2616 0
-27.9013 88.7844 22.8746 0
-28.2301 89.5498 23.6093 0
-28.3815 88.8245 24.0035 0
-28.4747 87.9985 24.3129 0
-28.0018 87.9803 23.4899 0
-27.5798 88.4044 22.4629 0
-28.2818 87.5296 24.3639 0
-28.0226 87.0077 24.0701 0
-27.6577 86.504 23.5226 0
-27.9933 91.077 19.0311 0
-27.4579 89.8703 20.2658 0
-27.6896 90.5026 19.6389 0
-27.5585 90.8534 18.669 0
-27.1574 90.5935 18.3285 0
-27.3347 88.1021 21.8406 0
-27.3636 89.0923 21.0111 0
-27.3987 86.1389 22.9088 0
-27.3684 87.0937 22.5224 0
-26.8797 87.786 21.117 0
-26.4269 87.3658 20.4307 0
-26.461 88.4515 19.8439 0
-26.8762 90.0205 18.8278 0
-26.8556 90.2365 17.9818 0
-26.9797 89.7049 19.7796 0
-26.5562 89.388 19.3369 0
-26.3512 88.789 18.8965 0
-26.4734 89.7835 17.6952 0
-26.2517 87.7391 18.6305 0
-26.2414 88.8845 18.1782 0
-26.047 88.8423 17.4652 0
-25.8042 87.5132 17.302 0
-34.0904 81.5802 22.4634 0
-34.0861 82.4489 22.6559 0
-34.0862 80.132 21.5971 0
-34.0873 80.7407 22.2051 0
-33.4887 80.9848 22.3119 0
-33.0224 80.8083 21.7611 0
-32.8095 81.2994 22.4519 0
-33.5611 79.3817 20.6958 0
-33.8448 79.6803 21.1316 0
-31.6758 79.0018 20.9909 0
-32.6472 79.2165 20.7957 0
-33.2005 79.4226 19.9714 0
-32.783 79.4687 19.3491 0
-33.1095 79.689 19.726 0
-33.2142 80.317 20.9827 0
-32.6107 80.761 21.1632 0
-33.6906 79.9705 20.9057 0
-33.3888 79.9308 20.1577 0
-32.8473 79.951 19.6198 0
-31.9896 80.6497 20.7277 0
-31.9712 81.2017 21.4021 0
-32.0089 80.0347 19.3168 0
-32.0608 80.2638 19.9885 0
-31.3202 80.7041 20.3692 0
-30.6395 81.1715 20.0442 0
-30.8298 81.4048 20.4868 0
-29.546 78.1726 21.489 0
-30.6599 78.4872 21.2973 0
-27.373 78.125 21.7836 0
-28.3915 78.028 21.6631 0
-29.3578 78.3371 20.5496 0
-29.0096 78.6058 19.759 0
-30.0188 78.5958 19.6987 0
-25.9334 77.6684 21.9083 0
-26.5771 77.9969 21.8407 0
-24.6689 76.8405 21.9558 0
-25.2724 77.2842 21.9675 0
-25.9209 77.4183 20.8753 0
-25.5952 77.152 19.5741 0
-26.2542 77.7659 19.7042 0
-27.9727 78.4338 19.9114 0
-28.3096 78.9633 19.106 0
-27.3922 78.0393 20.8252 0
-27.1249 78.1532 19.9329 0
-26.8843 78.4343 18.9998 0
-27.6839 79.4074 18.5061 0
-28.6877 79.5126 18.7345 0
-26.6574 78.2369 18.0278 0
-26.9386 79.1739 18.3911 0
-27.2872 79.7531 17.8554 0
-27.2728 79.4955 16.9135 0
-28.0201 80.1885 17.2432 0
-30.521 81.108 19.5294 0
-30.4121 81.9766 19.7883 0
-31.6015 79.8354 19.0962 0
-31.3027 80.551 19.1492 0
-30.7094 81.3609 18.9843 0
-30.4433 81.5031 18.6316 0
-30.2652 82.489 18.8115 0
-31.9079 78.9827 19.4219 0
-31.9284 79.4552 19.1995 0
-31.4095 78.6702 20.1262 0
-30.9883 78.5283 19.5457 0
-30.3034 79.0102 19.3025 0
-30.4686 80.6165 18.7817 0
-29.8041 81.6118 18.5398 0
-31.1308 79.6674 19.0343 0
-30.4591 79.7176 19.0069 0
-29.6239 79.7165 18.9924 0
-29.3247 81.2142 18.0806 0
-29.3841 82.2175 17.971 0
-28.9216 80.3484 18.4095 0
-28.5584 80.7891 17.721 0
-28.3567 81.0501 16.9315 0
-30.4477 83.1597 19.5348 0
-30.4306 82.8933 20.0294 0
-30.521 83.3083 18.3514 0
-30.6286 83.2464 18.91 0
-30.9726 83.863 19.1167 0
-31.3257 84.5575 18.6211 0
-31.307 84.4939 19.3254 0
-29.2297 82.7763 17.4355 0
-29.9114 83.1447 17.9047 0
-28.2389 80.9006 16.2744 0
-28.6612 81.9637 16.7644 0
-29.3941 82.7592 16.7745 0
-29.7546 82.531 16.0651 0
-30.1442 83.6143 16.7183 0
-31.2426 84.5917 17.9301 0
-31.6224 85.2661 18.0371 0
-30.6734 83.8799 17.8613 0
-30.6828 84.3243 17.2775 0
-30.7904 84.4672 16.645 0
-31.8499 85.5318 17.4769 0
-32.06 85.8584 18.176 0
-31.0295 84.0788 16.0551 0
-31.4917 85.0277 16.7915 0
-32.1595 85.4631 16.9255 0
-32.5713 84.8419 16.4 0
-32.8717 85.5551 17.0559 0
-26.3159 86.6815 17.754 0
-25.9999 86.6373 17.0842 0
-26.4815 87.0584 19.0433 0
-26.4523 86.9106 18.3909 0
-26.994 86.6438 18.0841 0
-27.8207 86.8273 18.3819 0
-27.8241 86.5057 17.7551 0
-26.5806 86.3718 20.8821 0
-26.56 86.991 19.8198 0
-27.9918 85.6817 22.8392 0
-27.4003 86.075 22.0765 0
-27.1585 85.8879 21.2247 0
-27.7872 85.5984 21.3647 0
-27.4423 85.9574 20.5033 0
-27.68 86.8303 18.9968 0
-28.6301 86.9777 18.6719 0
-27.0485 86.8287 19.3618 0
-27.443 86.3614 19.6885 0
-28.2604 86.4767 19.9585 0
-29.3708 87.0802 18.919 0
-29.5297 86.9305 18.3031 0
-29.0782 86.6491 20.1518 0
-29.2273 87.0054 19.5235 0
-30.0443 87.0781 19.0716 0
-30.6408 86.9313 19.168 0
-30.8828 87.0571 18.6107 0
-29.4175 85.1291 23.4842 0
-28.7809 85.4864 23.1963 0
-30.671 83.9042 23.8003 0
-29.9497 84.4609 23.7368 0
-29.8799 84.4029 23.0985 0
-30.158 83.6191 22.7581 0
-29.696 84.2639 22.4441 0
-32.3723 82.979 23.4166 0
-31.4917 83.4362 23.6283 0
-33.2336 82.7036 23.0209 0
-32.6032 82.1227 22.9607 0
-31.9993 81.6388 22.6495 0
-30.6885 82.8851 22.776 0
-30.5042 82.9666 22.2049 0
-30.9812 83.0385 23.3076 0
-31.2305 82.0878 22.8019 0
-31.6365 81.6293 22.0993 0
-30.8894 82.3334 21.6313 0
-30.4166 83.0809 21.603 0
-31.425 81.699 21.5592 0
-30.8922 81.8362 21.0759 0
-30.3482 82.0979 20.6206 0
-30.4514 86.7081 19.7199 0
-31.2475 87.0984 19.2555 0
-28.7479 85.759 20.6283 0
-29.7173 86.4766 20.2182 0
-30.2794 86.1281 20.1964 0
-29.9905 85.2574 20.5433 0
-30.8789 85.91 20.1571 0
-28.5093 85.1772 21.7416 0
-28.2595 85.1776 21.1528 0
-28.7505 85.362 22.4755 0
-29.2212 84.8429 22.0893 0
-29.5599 84.237 21.7809 0
-29.0696 84.5068 20.8587 0
-29.8352 84.4716 20.8498 0
-28.5958 84.7892 20.9638 0
-29.3048 84.2695 21.2651 0
-29.9104 83.7377 21.5088 0
-30.2592 83.8268 21.025 0
-30.5723 84.4656 20.7897 0
-30.0854 83.2924 21.148 0
-30.2263 82.944 20.8013 0
-30.3427 82.842 20.4158 0
-31.7939 86.9867 19.2208 0
-32.0171 87.462 18.7791 0
-31.4033 85.8045 20.0509 0
-31.594 86.4082 19.6559 0
-32.2442 86.8579 19.0691 0
-32.5797 86.7474 18.7536 0
-32.7633 87.2185 18.3695 0
-30.9346 84.4494 20.4815 0
-31.1535 85.1633 20.3723 0
-30.4926 83.7354 20.2914 0
-31.1822 84.4446 19.9944 0
-31.7418 85.2514 19.4951 0
-32.3063 86.423 19.1571 0
-32.7958 86.7227 18.421 0
-31.8616 85.7673 19.8592 0
-32.0983 85.9646 19.4855 0
-32.172 86.0502 18.8973 0
-32.9575 86.2364 18.1796 0
-33.4521 86.4041 18.013 0
-32.598 86.0025 18.3263 0
-33.0082 85.8176 17.7592 0
-33.5889 85.4834 17.1507 0
-26.8048 86.2753 16.7706 0
-28.8302 86.4985 17.4441 0
-27.9027 86.2169 17.0914 0
-27.815 86.1608 16.4468 0
-28.6569 85.8991 16.1789 0
-30.4182 87.0735 17.9092 0
-29.7094 86.932 17.7151 0
-31.7636 87.4059 18.243 0
-31.1188 87.2063 18.0871 0
-31.3175 87.345 17.5611 0
-32.1679 87.3394 17.2139 0
-31.4825 87.1602 16.9733 0
-29.8995 86.8032 16.3844 0
-29.6331 86.3696 15.8019 0
-29.7905 86.7142 17.0739 0
-30.6938 87.1801 16.6894 0
-31.5916 87.1283 16.341 0
-30.5543 86.5688 15.438 0
-32.4706 87.0725 15.8931 0
-31.7548 87.1576 15.5557 0
-31.5339 86.6199 15.0436 0
-32.4585 86.6396 14.7927 0
-32.8162 87.488 18.3353 0
-32.2844 87.5676 18.3239 0
-33.614 86.9886 17.9825 0
-33.2488 87.278 18.1925 0
-33.6149 87.3042 17.8707 0
-34.3241 86.9828 17.4934 0
-33.8766 87.2014 17.5097 0
-34.2866 85.9721 17.7376 0
-33.9972 86.4814 17.9069 0
-34.0333 85.0837 16.5337 0
-34.2266 85.5618 17.1679 0
-34.7647 85.5628 17.2164 0
-35.146 85.1934 16.6691 0
-35.2014 85.6582 17.1537 0
-34.7364 86.7386 17.4554 0
-34.9714 86.694 17.1399 0
-34.3968 86.5814 17.722 0
-35.0883 86.2935 17.3695 0
-35.534 85.8417 16.9568 0
-35.5425 86.469 16.8027 0
-35.1428 86.7125 16.8004 0
-36.1013 85.3123 16.661 0
-35.9926 85.9193 16.872 0
-36.0842 85.9946 16.5535 0
-36.3994 85.5719 16.1933 0
-36.0128 86.0894 16.1632 0
-33.3583 86.963 14.8578 0
-33.237 86.5119 14.532 0
-33.0797 86.8987 16.2536 0
-33.2143 86.9604 15.5353 0
-33.906 86.7899 15.2302 0
-34.3641 86.6247 15.525 0
-34.4825 86.7121 14.8582 0
-32.7931 87.4674 17.3899 0
-32.9749 87.1408 16.8566 0
-32.5761 87.6541 17.876 0
-33.3727 87.4113 17.5029 0
-34.1456 87.0803 17.1494 0
-34.305 86.743 16.1445 0
-34.8395 86.6358 15.7478 0
-33.6812 86.9177 16.5083 0
-34.2625 86.9123 16.6873 0
-34.7457 86.8756 16.7875 0
-35.3296 86.6723 15.933 0
-35.3552 86.5575 15.3386 0
-35.3031 86.757 16.4417 0
-35.6793 86.5318 16.0819 0
-35.8658 86.1354 15.6427 0
-34.0207 86.1861 14.3428 0
-35.1079 86.6093 14.4718 0
-34.699 86.6898 14.2165 0
-34.694 86.1073 13.9937 0
-35.3085 86.0188 13.5746 0
-35.662 86.3216 14.8166 0
-35.434 86.4878 14.6751 0
-36.1855 85.783 14.9878 0
-35.9146 86.1103 14.9491 0
-36.0808 86.2472 14.2191 0
-36.4915 85.7457 13.6538 0
-36.2049 86.0637 13.6338 0
-35.6855 86.2409 13.4665 0
-35.6629 85.7191 13.1809 0
-35.5882 86.5074 13.9981 0
-35.9437 86.2073 13.5532 0
-36.2991 85.7728 13.1071 0
-36.1096 85.8005 12.6759 0
-36.5606 85.3844 12.6907 0
-36.3056 85.6723 12.6576 0
-36.3708 85.5987 12.3064 0
-36.5975 85.3932 11.8971 0
-36.7448 85.1051 11.7891 0
-36.8259 85.3312 11.3865 0
-36.7893 85.0558 12.6903 0
-36.6915 84.959 12.2464 0
-36.8167 84.774 11.7292 0
-36.5229 84.2716 11.7269 0
-36.3636 84.3655 11.3486 0
-36.7663 85.2036 13.644 0
-36.8491 85.1348 13.1477 0
-36.3767 85.2732 14.8211 0
-36.6027 85.2655 14.1741 0
-36.6757 84.6964 13.5627 0
-36.3523 84.0943 13.3903 0
-36.5906 84.1544 12.9395 0
-36.6715 84.2403 12.0809 0
-36.2081 83.7149 11.6386 0
-36.786 84.6801 12.6161 0
-36.6393 84.2051 12.5079 0
-36.2869 83.5537 12.4175 0
-35.9393 82.9259 11.4981 0
-35.8079 82.8966 11.1149 0
-35.8621 82.6866 12.2634 0
-35.9982 82.9197 11.8831 0
-35.6603 81.8863 11.269 0
-35.2926 80.7344 10.9748 0
-35.2523 80.6889 10.588 0
-36.2553 85.1563 15.8223 0
-36.0989 85.3046 15.3486 0
-35.828 84.7389 16.2708 0
-36.126 84.9342 16.1104 0
-35.8585 84.5421 15.3305 0
-35.4269 83.8138 14.8398 0
-35.6644 83.9329 14.6013 0
-34.8381 84.8575 15.9264 0
-35.3475 84.7499 16.1495 0
-33.6679 84.497 15.8769 0
-34.28 84.7776 15.8344 0
-34.1875 84.235 15.2989 0
-33.393 83.1747 14.9513 0
-34.0181 83.5168 14.8805 0
-35.0422 83.8214 14.8497 0
-34.8008 82.8092 14.515 0
-35.338 84.2706 15.6104 0
-34.6147 83.7977 14.8257 0
-33.9597 82.4283 14.804 0
-34.252 81.5269 14.3825 0
-34.5535 81.7481 14.099 0
-33.4552 81.0806 14.8039 0
-33.8689 81.3072 14.5693 0
-34.0373 80.272 14.1925 0
-33.5523 79.2834 13.6812 0
-33.7747 79.5184 13.4246 0
-35.2679 80.8376 11.3687 0
-34.6254 79.684 10.5952 0
-35.725 82.443 12.6492 0
-35.5082 81.65 12.0162 0
-34.8311 80.673 11.6939 0
-34.411 80.4929 12.0277 0
-34.0738 79.703 11.2939 0
-36.0975 84.0043 13.8638 0
-35.9173 83.2636 13.2473 0
-36.2368 84.7038 14.5569 0
-35.876 83.9784 14.2628 0
-35.4452 83.0385 13.9914 0
-34.7999 81.2984 12.7235 0
-34.1917 80.2711 12.3873 0
-35.4712 82.2791 13.0235 0
-35.1918 82.0878 13.4104 0
-34.885 81.9193 13.7632 0
-33.9552 80.0551 12.7639 0
-33.5878 79.3252 11.903 0
-34.289 80.8606 13.4903 0
-33.82 79.8046 13.0813 0
-33.2217 78.899 12.4064 0
-33.8544 78.6952 10.1974 0
-34.0797 78.5415 9.84176 0
-33.5623 78.7124 10.835 0
-33.7595 78.8477 10.5577 0
-33.3167 77.6989 9.7513 0
-33.0173 76.5626 9.7145 0
-33.0064 76.4097 9.46885 0
-33.3022 78.3394 11.2901 0
-33.3811 78.5256 11.0824 0
-33.3387 78.0002 11.6462 0
-33.1246 78.1416 11.5006 0
-33.3056 77.3578 10.7194 0
-33.7093 76.4364 10.5411 0
-33.4108 76.5683 10.3748 0
-33.174 76.7855 9.93741 0
-32.8851 75.5859 9.76786 0
-33.2618 77.7163 10.3532 0
-33.2634 76.7167 10.1716 0
-33.4558 75.7582 10.1155 0
-32.1495 74.9143 10.1175 0
-31.7949 74.783 9.98287 0
-33.0604 74.9318 10.2726 0
-32.6934 74.9784 10.1348 0
-31.6805 74.3099 10.4361 0
-31.1295 73.9736 11.0004 0
-30.5311 74.004 11.0471 0
-32.0319 83.8726 15.7037 0
-32.9341 84.1448 15.8984 0
-30.404 82.6922 15.5228 0
-31.1188 83.4421 15.5234 0
-31.1669 82.6216 15.1012 0
-30.4942 80.9987 14.8947 0
-31.2689 81.6485 14.9746 0
-28.8901 81.093 15.5048 0
-29.6887 81.8828 15.5223 0
-27.9371 79.5556 15.9916 0
-28.4026 80.2605 15.7494 0
-28.5315 79.606 15.074 0
-27.9759 78.5187 14.5136 0
-28.6563 79.0158 14.4762 0
-29.7892 80.3546 14.7445 0
-30.0152 79.6233 14.5235 0
-29.6655 81.1708 15.0432 0
-29.1908 79.657 14.6395 0
-28.8446 78.5388 14.0297 0
-29.6349 78.5863 13.8908 0
-30.2811 79.0014 14.265 0
-28.5198 77.7537 13.863 0
-29.0182 78.1578 13.6484 0
-29.5972 77.8486 13.6426 0
-29.6742 77.1546 13.7957 0
-30.2172 77.5296 13.6727 0
-26.7377 78.4926 16.4606 0
-27.2473 79.0536 16.1253 0
-26.0603 77.2629 17.5708 0
-26.4629 77.8534 16.986 0
-26.2384 77.5099 16.0228 0
-26.124 76.3658 15.7455 0
-26.3261 77.0004 15.2276 0
-25.1373 76.4899 19.6 0
-25.6089 76.8016 18.385 0
-24.5138 76.0326 22.0597 0
-24.8807 76.3007 20.9963 0
-24.8987 75.8617 19.7229 0
-24.824 75.1978 19.9556 0
-25.082 75.3681 18.4836 0
-25.9503 75.85 16.4598 0
-26.0409 75.4656 15.7133 0
-25.7055 76.439 17.3973 0
-25.5582 75.4921 17.2976 0
-25.4019 74.6203 17.3823 0
-26.0539 74.8249 15.9707 0
-26.2502 75.2945 15.271 0
-25.2522 74.0377 17.6706 0
-25.7009 74.4057 16.7519 0
-25.9643 74.2754 16.2703 0
-26.0163 73.7557 16.6759 0
-26.3571 74.1429 15.9732 0
-29.134 76.7336 13.8845 0
-29.8264 76.4556 14.0876 0
-28.0104 77.342 14.0648 0
-28.5646 77.0397 13.9486 0
-28.5937 76.292 13.9754 0
-28.0443 75.9378 14.2062 0
-28.7134 75.5101 13.8393 0
-27.2645 78.0507 14.627 0
-27.6235 77.6762 14.3339 0
-27.1457 78.5234 15.2117 0
-26.8379 77.5517 14.9629 0
-26.6222 76.638 14.8007 0
-27.4772 76.276 14.5032 0
-27.4947 75.6626 14.6614 0
-27.5267 76.8926 14.3229 0
-26.9835 76.4744 14.639 0
-26.4728 75.9166 14.8205 0
-27.07 75.0435 14.8689 0
-27.7642 74.8933 14.8825 0
-26.5038 75.1466 14.9055 0
-26.6449 74.5199 15.2112 0
-26.9713 74.1092 15.8795 0
-29.9583 75.7476 14.303 0
-30.5274 76.1343 14.3079 0
-28.8763 74.8172 13.9311 0
-29.4159 75.2583 14.0208 0
-30.2371 75.1692 14.4091 0
-30.5214 74.6441 14.6932 0
-31.056 74.9703 14.5783 0
-28.0536 74.2682 15.2587 0
-28.4665 74.5351 14.6029 0
-27.2912 73.6344 16.4923 0
-27.6545 74.0024 15.8582 0
-28.3951 73.8329 15.8629 0
-28.7671 73.3019 16.4469 0
-29.1319 73.6566 15.8635 0
-29.947 74.2484 14.7309 0
-30.745 74.0978 15.0064 0
-29.1823 74.3731 14.5374 0
-29.523 73.9299 15.1786 0
-29.9249 73.45 15.8934 0
-31.1656 73.6034 15.5782 0
-31.592 73.9185 15.2269 0
-30.3654 72.9664 16.4603 0
-30.7705 73.2661 15.9338 0
-31.6826 73.103 15.9787 0
-32.2142 72.7046 16.541 0
-32.6572 72.9171 15.9935 0
-31.7733 73.8951 10.8536 0
-30.707 73.4672 11.3427 0
-33.3703 74.8015 10.425 0
-32.6783 74.1896 10.4576 0
-32.1722 73.8057 10.9683 0
-32.6726 73.5203 10.8389 0
-31.8242 73.2337 11.1811 0
-33.9869 76.2449 10.738 0
-33.9763 75.5228 10.5075 0
-33.2812 77.7755 11.8203 0
-33.8541 76.9977 11.0137 0
-34.2944 76.0592 10.9501 0
-34.3217 75.8639 11.2762 0
-34.3107 75.2794 11.121 0
-33.355 74.0399 10.8912 0
-33.015 73.4556 11.0847 0
-33.6329 74.6681 10.6389 0
-33.9252 74.6683 11.0275 0
-34.0332 74.631 11.4179 0
-33.2938 73.238 11.1307 0
-32.6555 72.7221 11.0814 0
-34.3219 74.5553 11.7718 0
-33.9115 73.932 11.4778 0
-33.6368 73.1513 11.4613 0
-34.1494 73.1544 11.9825 0
-33.4853 72.5138 11.6923 0
-32.969 79.1516 13.8647 0
-32.764 78.4584 12.8514 0
-32.8725 80.7329 15.057 0
-33.1299 79.8941 14.7199 0
-32.6941 78.9695 13.8032 0
-31.9998 78.7102 13.5558 0
-32.5046 78.1565 12.9602 0
-32.7285 82.7228 15.1265 0
-32.7292 81.6777 15.2611 0
-32.7905 83.5409 15.3107 0
-31.9824 82.2108 15.1671 0
-31.3543 80.7131 14.9723 0
-31.7207 79.2833 14.2964 0
-31.6491 78.4677 13.4187 0
-32.226 80.3698 15.0179 0
-31.5213 79.9502 14.6847 0
-30.9073 79.4779 14.4638 0
-31.1402 78.144 13.354 0
-31.8628 77.7386 13.0537 0
-30.6653 78.5361 13.8906 0
-30.7516 77.8769 13.6429 0
-30.9458 77.2025 13.8637 0
-34.3724 73.7771 12.2696 0
-34.3437 73.1307 12.4703 0
-34.4017 75.0667 11.8827 0
-34.5323 74.4782 12.1583 0
-34.47 74.3938 12.5251 0
-34.0546 75.1882 12.9671 0
-34.3397 74.4034 12.9831 0
-33.9789 76.6151 11.725 0
-34.2541 75.7308 11.6602 0
-33.3865 77.5596 12.1499 0
-33.3423 77.457 12.3554 0
-33.2872 77.4692 12.824 0
-33.8892 76.0372 13.0083 0
-33.2869 75.8752 13.4058 0
-34.1085 75.8695 12.299 0
-33.7288 76.761 12.8575 0
-32.8748 77.2687 13.0099 0
-32.5801 76.3779 13.6001 0
-32.67 75.6922 13.8015 0
-32.4148 77.0703 13.3461 0
-31.768 76.8015 13.8159 0
-31.1154 76.5134 14.277 0
-34.5153 73.1542 12.976 0
-34.0989 72.4923 12.6461 0
-34.0444 74.4335 13.5131 0
-34.365 73.7721 13.2268 0
-34.5141 73.2098 13.5378 0
-34.4625 73.3009 14.1439 0
-34.3509 72.4624 13.5843 0
-32.128 75.4776 14.1523 0
-33.0973 75.0191 13.8723 0
-31.3253 75.8445 14.3282 0
-31.5922 75.2294 14.3957 0
-31.9713 74.6071 14.4894 0
-33.788 73.7941 14.2718 0
-33.9527 73.1884 14.5214 0
-33.5546 74.3505 13.9555 0
-32.9692 74.1985 14.3406 0
-32.281 74.0597 14.7703 0
-33.2997 73.006 14.8419 0
-33.8016 72.4122 14.4986 0
-32.391 73.4852 15.0432 0
-32.9885 72.9904 15.425 0
-33.3189 72.386 15.7096 0
-30.3664 72.8196 11.5246 0
-29.8565 72.7507 11.477 0
-31.4014 72.6222 11.4356 0
-30.8682 72.8849 11.5752 0
-29.9603 72.2644 11.8775 0
-29.5875 71.812 12.3511 0
-29.1621 71.6585 12.2484 0
-32.3386 72.0946 11.2843 0
-31.9918 72.291 11.1807 0
-33.2575 71.8734 11.8896 0
-32.7883 71.9142 11.4446 0
-32.1066 71.5558 11.6266 0
-31.905 71.0408 12.0056 0
-31.3476 71.3131 12.0037 0
-30.0081 71.9132 12.3755 0
-29.2701 71.3719 12.7686 0
-31.0662 72.0131 11.636 0
-30.6934 71.6074 12.1265 0
-30.4605 71.1446 12.5661 0
-29.256 70.8017 13.0291 0
-28.9252 70.4918 12.8146 0
-30.386 70.5756 12.9632 0
-29.8041 70.8541 13.0784 0
-29.3909 70.2046 13.3041 0
-29.4677 69.5094 13.2829 0
-29.6708 69.2213 12.872 0
-33.9941 71.7691 12.6912 0
-33.6788 71.8205 12.2968 0
-34.2043 71.7507 13.6214 0
-34.2717 71.6955 13.0718 0
-33.8839 71.1217 12.8561 0
-33.7083 70.663 13.1781 0
-33.4522 70.5592 12.6557 0
-34.0951 71.7953 14.7462 0
-34.172 71.8117 14.1707 0
-34.0634 71.7835 15.369 0
-33.8908 70.7135 13.6909 0
-33.3401 70.2519 13.6341 0
-34.013 71.2366 13.9266 0
-34.0492 70.6912 14.1665 0
-32.5936 69.823 13.7563 0
-29.4811 69.4703 13.448 0
-29.1089 68.7069 13.2208 0
-30.8806 70.3074 12.9652 0
-30.0826 70.0689 13.527 0
-29.84 69.3083 13.8204 0
-30.2947 69.076 13.9736 0
-29.6503 68.5812 14.2109 0
-32.4605 70.8141 12.1198 0
-31.7551 70.4782 12.3551 0
-33.0764 71.2849 12.1663 0
-33.0107 70.6618 12.3471 0
-32.7785 70.1593 12.8018 0
-30.9594 69.5777 13.7167 0
-30.5401 68.8417 13.9224 0
-31.3545 70.063 13.0652 0
-31.8494 69.9125 13.2984 0
-32.2459 69.8117 13.4313 0
-30.9872 68.7165 13.9542 0
-30.2109 68.1342 14.0915 0
-28.8894 67.9136 13.4466 0
-29.2845 67.5833 12.9934 0
-29.2182 67.7562 14.4335 0
-29.1615 67.9529 14.0518 0
-28.765 67.1108 13.8143 0
-29.489 67.5502 14.3948 0
-28.722 66.9111 14.646 0
-24.597 74.9292 23.5117 0
-24.619 75.4338 22.8404 0
-25.2993 73.7116 24.9226 0
-24.9255 74.2975 24.1961 0
-24.3451 74.251 23.5009 0
-24.1807 73.5637 23.551 0
-24.2295 74.1305 22.824 0
-26.4768 72.6762 26.1096 0
-25.9303 73.1548 25.4682 0
-27.3119 71.6605 27.4201 0
-26.9026 72.2136 26.7813 0
-26.5015 72.0954 25.9642 0
-26.4118 71.471 25.8548 0
-25.9547 71.9479 25.2386 0
-24.5166 72.9758 24.2693 0
-24.0743 72.8554 23.5007 0
-25.1017 73.0734 24.9423 0
-25.2795 72.4481 24.7576 0
-25.3067 71.781 24.5917 0
-24.4095 72.1626 23.2886 0
-24.3405 72.6775 22.6455 0
-25.1864 71.0781 24.5129 0
-24.811 71.6008 23.8902 0
-24.5965 71.4798 23.0831 0
-27.9244 70.6297 28.771 0
-27.6509 71.1335 28.0836 0
-28.3007 69.3805 30.0025 0
-28.132 70.0866 29.4447 0
-27.6914 70.1348 28.6277 0
-27.3486 70.1357 27.7737 0
-25.7359 70.6645 25.009 0
-26.8561 71.0102 26.4362 0
-26.1944 70.8244 25.769 0
-27.2835 71.1135 27.2349 0
-27.1094 70.5701 27.1035 0
-26.8986 69.967 26.9599 0
-26.1998 70.259 25.5494 0
-29.9595 72.7152 16.9939 0
-28.4102 72.9822 17.0229 0
-29.1689 72.8378 17.006 0
-26.9312 73.257 17.129 0
-27.6689 73.1186 17.0743 0
-28.1149 72.837 17.6057 0
-25.6216 73.3269 17.4233 0
-26.2751 73.31 17.2547 0
-24.7426 73.957 18.8851 0
-25.1628 73.5426 17.9716 0
-25.5011 73.2412 18.3997 0
-25.3088 73.1045 19.3558 0
-25.8802 72.9102 18.8774 0
-24.6453 74.9038 21.2837 0
-24.7898 74.4092 20.1144 0
-24.4201 75.2277 22.1682 0
-24.3078 74.6149 22.1694 0
-24.2222 73.9446 22.0851 0
-25.0001 73.2199 20.121 0
-24.9143 72.6184 19.9937 0
-24.8357 73.7095 20.1052 0
-24.7335 73.4893 21.0567 0
-24.5466 73.1977 21.8932 0
-24.6873 72.1363 20.6014 0
-25.2767 72.175 20.2776 0
-24.6502 72.4435 21.6085 0
-24.5821 71.6075 21.2417 0
-27.1523 72.823 18.3884 0
-26.6979 73.0318 17.7807 0
-26.4588 72.8579 18.5482 0
-31.2163 74.6758 4.42472 0
-31.7333 74.3249 4.23908 0
-30.184 75.2452 4.67093 0
-30.6593 74.9779 4.54075 0
-31.4229 73.7084 4.8775 0
-31.6811 72.9959 5.3835 0
-29.8692 76.1436 5.23432 0
-30.04 75.6923 4.96245 0
-30.1129 76.9352 5.8559 0
-30.0853 76.5138 5.54235 0
-30.0203 75.2824 5.6572 0
-30.1172 74.6002 6.21093 0
-30.2921 74.0009 5.9076 0
-31.1209 73.1749 5.50239 0
-30.4763 74.2781 5.18244 0
-30.716 73.4786 5.65305 0
-30.907 72.8735 6.2184 0
-32.6789 71.6031 6.17062 0
-30.9457 72.3483 6.71012 0
-32.2018 71.3393 6.83944 0
-32.2792 71.0474 7.38229 0
-33.0815 71.2124 5.83287 0
-30.3777 77.4293 6.28726 0
-30.2196 77.1373 6.04726 0
-31.4669 77.5814 6.56948 0
-30.7366 77.6644 6.52861 0
-29.6943 77.2106 6.87517 0
-29.5574 76.9636 7.54135 0
-29.3963 76.5571 7.25834 0
-33.0636 77.8846 6.74875 0
-32.1941 77.6947 6.65767 0
-34.3455 78.8459 7.51696 0
-33.596 78.3077 7.08289 0
-32.8777 77.3994 6.98975 0
-32.7713 77.0512 7.26056 0
-31.8272 76.8055 7.31459 0
-29.9765 77.1626 7.70248 0
-29.4594 76.7022 8.19818 0
-31.031 77.1734 6.94808 0
-30.8629 76.9206 7.50359 0
-30.764 76.5683 7.92098 0
-29.53 76.276 8.61509 0
-29.3102 75.8372 8.35284 0
-30.9272 76.1415 8.30778 0
-30.0263 76.4679 8.73248 0
-29.7109 75.746 8.95537 0
-29.6684 75.0467 8.90993 0
-29.2655 74.5611 8.62191 0
-34.8269 80.7558 8.60064 0
-34.7306 79.6693 8.04486 0
-35.6201 82.7568 9.81756 0
-35.2648 81.6502 9.21246 0
-34.8341 80.5584 8.85067 0
-34.9016 80.4923 9.17479 0
-34.6066 79.3857 8.53638 0
-36.0905 84.6015 10.7632 0
-35.7562 83.8807 10.3269 0
-36.6373 85.0779 11.03 0
-36.2224 84.4829 11.0136 0
-35.8687 83.8036 10.9521 0
-35.3869 81.6517 9.83616 0
-34.9952 80.465 9.52734 0
-35.6351 82.7985 10.0996 0
-35.6861 82.7764 10.4179 0
-35.728 82.8478 10.7468 0
-35.0825 80.4914 9.88917 0
-34.6484 79.3041 9.21584 0
-35.5513 81.779 10.5401 0
-35.1766 80.5894 10.2317 0
-34.7192 79.4655 9.88809 0
-30.1099 75.3635 9.09861 0
-29.5995 74.3601 8.86445 0
-31.7892 76.1215 7.95008 0
-30.9961 75.8091 8.63431 0
-30.9542 75.2464 8.67937 0
-31.8018 75.6454 8.43737 0
-30.9887 75.0196 8.93708 0
-33.7025 77.536 7.5175 0
-32.6855 76.7283 7.47685 0
-34.5702 78.4282 7.73072 0
-34.511 78.3077 7.97141 0
-34.4004 78.2663 8.22893 0
-32.5803 76.3166 7.86855 0
-32.5578 76.1755 8.06508 0
-32.6629 76.4799 7.7045 0
-33.5724 77.2874 7.99801 0
-34.285 78.2583 8.53166 0
-33.2361 77.3293 8.58236 0
-32.6609 76.1424 8.44567 0
-34.0735 78.3359 8.86378 0
-33.9723 78.4163 9.21555 0
-34.0533 78.4664 9.5391 0
-29.1008 74.1594 9.22493 0
-28.691 73.73 8.9882 0
-30.9331 74.8651 9.22678 0
-29.9276 74.5428 9.33545 0
-28.8354 74.0772 9.6073 0
-28.8636 74.0156 10.0188 0
-28.0705 73.5833 9.85775 0
-32.7667 76.161 8.84503 0
-31.94 75.3909 8.97507 0
-33.2917 77.4592 9.20976 0
-32.8554 76.2724 9.14824 0
-32.24 75.3835 9.41922 0
-29.9027 74.3752 9.90887 0
-29.1804 73.9942 10.3586 0
-31.0625 74.75 9.43583 0
-31.2217 74.6442 9.62732 0
-31.486 74.7029 9.81137 0
-29.5097 73.9806 10.6698 0
-28.7298 73.4947 10.6078 0
-30.6323 74.3291 10.3246 0
-30.001 73.9949 10.8821 0
-29.7683 73.4001 11.0533 0
-32.7531 69.9053 7.89017 0
-32.266 68.4716 9.16306 0
-31.8072 67.9398 9.75002 0
-31.4715 71.2529 7.45183 0
-32.2121 70.7018 7.81358 0
-30.376 72.72 6.8551 0
-30.8486 71.8503 7.09723 0
-30.7413 71.4642 7.47928 0
-30.068 71.7819 7.50919 0
-30.5776 71.1073 7.82824 0
-29.718 75.3596 6.62382 0
-30.0357 74.1017 6.90028 0
-29.6317 76.3737 6.30028 0
-29.4479 75.9935 6.95756 0
-29.3746 75.6614 7.62605 0
-29.6613 72.6941 7.35136 0
-29.4279 72.2302 7.59301 0
-29.8912 73.3185 7.13902 0
-29.3973 74.1921 7.5125 0
-29.1914 75.0431 7.87746 0
-29.0798 73.0249 7.96077 0
-29.3432 71.9419 7.96342 0
-29.1473 74.4981 8.21702 0
-28.9556 73.9785 8.43813 0
-28.8345 73.3635 8.49063 0
-31.209 68.4939 9.48214 0
-30.8488 68.2199 9.69314 0
-31.6537 69.18 9.06143 0
-31.4792 68.8689 9.33683 0
-30.5828 69.1656 9.31253 0
-30.0924 69.9158 9.17311 0
-29.7848 69.4381 9.1472 0
-31.9208 69.886 8.45645 0
-32.0569 70.2645 8.11686 0
-31.2232 70.513 8.17265 0
-30.4726 70.8047 8.22195 0
-30.2608 70.2691 8.96981 0
-29.6838 70.6854 8.9114 0
-30.9785 69.8569 8.85933 0
-30.3904 70.5402 8.62754 0
-29.8584 71.2144 8.27041 0
-29.2184 71.5628 8.75301 0
-29.0735 71.2265 8.89281 0
-29.3569 71.7833 8.42893 0
-28.8235 72.5104 8.65724 0
-28.6394 73.1108 8.80352 0
-29.9438 68.524 9.58927 0
-30.5349 68.0464 9.99279 0
-29.2951 69.9818 9.20669 0
-29.5581 69.1289 9.3332 0
-29.3684 69.0752 9.73612 0
-28.9072 69.8439 10.0596 0
-29.1059 69.0987 10.1905 0
-28.5423 72.0784 9.18338 0
-29.0148 70.9872 9.13659 0
-28.192 72.9692 9.18641 0
-28.1807 72.8556 9.49864 0
-28.2358 72.8519 9.93748 0
-28.8731 70.7421 9.87977 0
-28.7253 70.7741 10.2791 0
-28.8695 70.8699 9.54338 0
-28.5154 71.9461 9.84476 0
-28.3621 72.8213 10.3319 0
-28.8968 71.7884 10.4941 0
-28.5758 70.8352 10.7198 0
-28.7629 72.728 10.5914 0
-29.2387 72.6292 10.8414 0
-29.5014 72.6755 11.1719 0
-30.1453 67.9034 10.229 0
-31.0383 67.5057 10.2421 0
-28.7653 69.2377 10.7238 0
-29.3344 68.4434 10.3821 0
-29.7644 67.9054 10.6373 0
-29.3468 67.946 11.0551 0
-28.5658 70.9303 11.1275 0
-28.3417 70.0353 11.0017 0
-29.1268 71.8728 11.3011 0
-28.784 71.2872 11.6753 0
-28.5785 70.5277 11.9495 0
-28.7334 68.6706 11.3816 0
-29.0994 68.0117 11.4217 0
-28.5341 69.3415 11.1974 0
-28.4058 69.4306 11.6206 0
-28.5196 69.8656 12.1717 0
-28.9367 68.1546 11.8265 0
-29.4582 67.3708 11.4181 0
-28.7653 69.2288 12.3169 0
-29.1963 68.5826 12.3046 0
-29.5975 67.9549 12.2587 0
-30.6568 66.7252 10.8766 0
-30.1533 66.6952 11.1727 0
-29.8406 66.7828 11.4697 0
-29.5501 66.9117 11.7662 0
-29.395 67.1948 12.3638 0
-29.5721 66.4424 12.4898 0
-31.0608 99.435 -7.61441 0
-30.013 100.181 -7.11313 0
-31.721 99.7954 -7.73967 0
-28.3775 100.077 -7.7551 0
-27.762 99.6747 -8.26064 0
-28.8673 100.468 -7.20168 0
-29.4032 99.7069 -7.32872 0
-27.3595 99.2463 -8.95765 0
-27.6145 98.8422 -9.94195 0
-27.4234 97.7208 -10.3062 0
-26.8554 96.7812 -10.3498 0
-26.8622 95.7001 -10.5716 0
-27.0902 95.2545 -11.6049 0
-27.4184 94.014 -11.8595 0
-27.7455 93.1132 -10.8005 0
-27.7178 92.7979 -11.4089 0
-27.3996 91.1106 -11.9723 0
-27.2839 89.9385 -12.0449 0
-27.4299 89.2906 -11.5625 0
-27.6031 91.5842 -11.1811 0
-27.7579 89.0346 -12.406 0
-27.9364 87.844 -12.3592 0
-27.8245 87.1923 -12.6307 0
-28.2148 86.1708 -12.906 0
-28.3575 85.9456 -13.9885 0
-28.6457 84.8757 -13.6707 0
-29.0956 84.4932 -13.7875 0
-29.4855 83.1974 -14.366 0
-29.3205 82.633 -14.3245 0
-29.1073 84.1056 -14.2267 0
-29.9831 81.7446 -14.4271 0
-30.7359 80.8982 -14.5884 0
-31.5606 80.1237 -14.8543 0
-31.1761 79.7251 -14.9173 0
-31.8729 79.0867 -15.71 0
-32.6384 78.3846 -16.4492 0
-33.4479 77.6156 -16.9568 0
-34.2288 76.8577 -17.5867 0
-30.1216 79.0638 -0.343435 0
-30.3896 78.5358 0.71722 0
-29.8845 78.9227 -0.685017 0
-29.8271 78.7546 -1.03046 0
-32.1656 76.2792 2.2152 0
-31.9698 75.5825 3.02589 0
-32.6714 74.6117 3.49928 0
-32.5744 75.4678 2.98225 0
-31.1984 77.5319 1.40855 0
-31.6663 76.7271 -5.65187 0
-31.5546 77.3472 -5.51135 0
-30.4527 76.9714 -4.94374 0
-29.6798 76.7541 -4.41273 0
-29.6225 77.2314 -4.06349 0
-29.7187 77.7486 -3.6851 0
-30.0241 78.2816 -3.43637 0
-29.6033 78.1714 -2.78904 0
-29.5006 78.1471 -2.1041 0
-29.8143 78.6606 -1.76824 0
-34.4496 76.1306 -17.3614 0
-32.1024 76.313 -6.25371 0
-31.5593 76.2168 -5.75358 0
-30.7616 74.7556 -6.47301 0
-31.257 75.2463 -6.43731 0
-31.2092 75.6791 -5.86833 0
-30.9035 75.2397 -5.90821 0
-30.988 74.2279 -6.46186 0
-31.4463 66.6161 -7.45329 0
-31.6785 67.4629 -6.87128 0
-31.5475 67.0234 -7.11727 0
-31.7576 68.5155 -6.79047 0
-31.4836 69.1697 -6.58114 0
-31.7216 69.2937 -6.28189 0
-31.7838 67.9506 -6.83777 0
-31.1176 72.2296 -6.3692 0
-30.6738 73.1548 -6.68693 0
-30.8565 73.2925 -6.4087 0
-30.767 73.8238 -6.42593 0
-31.2718 70.0975 -6.04784 0
-31.6106 70.3428 -6.00604 0
-31.4396 71.2579 -6.23029 0
-31.3798 66.2766 -7.73509 0
-31.2401 65.9523 -7.98633 0
-34.2046 75.6145 -17.2293 0
-34.5229 74.663 -16.923 0
-34.7118 74.3298 -16.9867 0
-34.8423 73.4319 -17.0626 0
-34.0043 72.469 -16.7993 0
-34.7487 73.6799 -16.8336 0
-33.267 71.464 -16.0123 0
-32.4583 69.4725 -15.9156 0
-31.3638 69.3529 -15.2415 0
-32.2871 69.382 -15.4131 0
-33.3534 69.8543 -15.9844 0
-33.0008 69.9461 -15.5948 0
-33.6125 71.1176 -16.0428 0
-31.6731 69.37 -15.8809 0
-31.0087 69.2197 -15.1216 0
-29.6177 67.8313 -14.0719 0
-29.5319 66.7613 -12.7611 0
-29.868 68.3487 -15.4814 0
-30.2227 68.5807 -15.344 0
-30.2057 68.639 -16.1346 0
-30.583 68.8546 -16.0235 0
-31.0271 69.1311 -16.7141 0
-31.0339 69.2492 -15.9058 0
-29.5177 66.1053 -11.6506 0
-29.6078 65.7802 -10.7146 0
-29.839 65.4806 -9.96569 0
-30.2814 65.1644 -9.45608 0
-30.914 65.4611 -8.756 0
-31.1166 65.703 -8.37923 0
-30.5934 65.3084 -9.07816 0
-35.1125 95.9942 15.0426 0
-33.0284 94.998 17.4741 0
-32.9885 94.2198 18.5981 0
-32.0855 93.9555 18.9707 0
-30.8327 93.3049 20.5443 0
-30.1968 93.2062 21.6163 0
-31.5285 93.7032 19.9267 0
-30.9713 99.0934 -4.13187 0
-31.1656 97.3774 -1.81162 0
-29.5236 98.1216 -3.75981 0
-29.998 99.6376 -3.47748 0
-29.1182 98.9217 -2.88202 0
-32.6455 99.5817 0.413123 0
-29.6155 98.8269 -0.074275 0
-30.178 97.8634 -1.01163 0
-32.1834 99.8861 1.6176 0
-32.4369 100.064 -7.84707 0
-32.3806 101.275 -7.29059 0
-32.8923 101.24 -7.11448 0
-32.2089 100.132 -4.58891 0
-32.3138 99.5817 -5.56027 0
-32.5976 99.1116 -6.3774 0
-33.9908 100.241 -6.3038 0
-33.716 100.034 -7.34717 0
-33.3518 99.9965 -7.62628 0
-33.7527 100.051 -6.99357 0
-33.4832 95.7932 17.042 0
-33.925 96.6189 16.0944 0
-35.1477 96.4698 15.3172 0
-36.0864 95.9743 14.4742 0
-36.6477 95.2506 13.5622 0
-36.5985 94.4905 12.891 0
-36.1198 94.6844 12.3924 0
-34.8812 93.8965 10.7535 0
-34.0182 94.4358 10.47 0
-35.905 94.0129 11.8671 0
-35.2152 94.4267 11.4161 0
-36.4784 95.7577 6.29077 0
-36.6553 96.9273 6.41799 0
-36.685 96.9775 5.78484 0
-36.9685 97.9565 5.9245 0
-37.1385 98.7615 5.84221 0
-36.6065 99.7057 4.2331 0
-37.1426 99.6116 5.67857 0
-36.1926 100.212 3.7255 0
-35.8766 100.617 2.64317 0
-35.0122 101.442 2.01362 0
-34.164 94.3214 9.59348 0
-34.6452 94.0861 8.72932 0
-34.3346 94.7847 8.47213 0
-34.0869 95.5952 8.23309 0
-35.4166 95.7082 7.09297 0
-34.4776 67.6597 32.279 0
-34.5055 68.5962 31.9401 0
-33.8313 67.4307 32.4155 0
-33.1164 67.2119 32.5657 0
-33.0997 66.2473 32.8693 0
-31.9992 67.3543 32.2612 0
-32.0224 66.4627 32.5888 0
-32.5997 65.8828 32.8765 0
-35.5001 73.2723 30.8305 0
-35.6354 74.201 30.7903 0
-35.6709 75.0452 30.1628 0
-35.5403 75.16 29.4324 0
-35.2037 75.5612 29.7713 0
-34.3338 69.695 31.6742 0
-34.6566 70.3316 31.4347 0
-34.9301 71.1387 31.0902 0
-34.9207 72.2306 30.3725 0
-35.268 73.271 30.1753 0
-31.345 67.0141 32.2829 0
-30.7236 66.6589 32.2011 0
-30.0956 67.7853 31.1647 0
-30.1995 66.9866 31.3423 0
-29.4711 67.4864 31.1597 0
-31.2865 89.9074 24.7253 0
-30.406 90.5458 24.5426 0
-32.1699 89.2284 24.9332 0
-32.5567 88.2916 24.935 0
-32.9605 87.3075 24.8108 0
-33.819 86.4485 24.9331 0
-34.1253 85.4887 25.2476 0
-36.2824 83.3841 26.5118 0
-35.7726 83.8664 25.873 0
-36.2194 83.2317 27.1378 0
-34.5331 84.5797 25.4401 0
-35.8638 82.8828 27.1549 0
-35.164 82.9415 27.796 0
-33.9773 83.1207 28.4511 0
-33.1201 82.8878 28.5605 0
-31.2536 82.276 29.5529 0
-32.0721 82.7764 29.3124 0
-31.3335 82.4361 30.0483 0
-30.7667 80.5829 31.0081 0
-30.9547 81.7606 30.7916 0
-30.6835 79.3759 31.1301 0
-30.7676 78.248 31.2266 0
-31.2968 77.6185 31.6306 0
-32.029 77.2463 31.0596 0
-33.1081 77.1149 30.9712 0
-33.8894 76.4231 30.5774 0
-33.5521 76.1974 30.0918 0
-34.614 75.7737 30.2177 0
-29.2763 92.2056 23.8298 0
-29.3689 92.6831 23.3815 0
-29.3697 92.8321 22.3144 0
-29.9418 91.3263 24.6108 0
-29.7354 91.9357 24.365 0
-32.8988 72.2434 16.3047 0
-33.6368 71.6865 16.0059 0
-34.4826 71.0258 15.5679 0
-34.252 71.116 14.9504 0
-34.2624 70.6345 14.6522 0
-33.9264 70.2038 14.4472 0
-33.1074 69.7255 13.8499 0
-32.3304 69.1993 13.8813 0
-33.5172 69.7315 14.2524 0
-30.803 67.9808 13.9612 0
-31.8144 69.2851 13.7982 0
-31.5655 68.5572 13.8249 0
-29.4858 65.885 13.1821 0
-28.8286 66.4382 14.0799 0
-30.1051 67.5585 14.4767 0
-29.4006 67.0515 14.8669 0
-28.4833 66.4246 14.6742 0
-29.0532 66.4502 15.0328 0
-24.7157 71.2219 22.0148 0
-24.9671 70.8884 22.8701 0
-27.3557 69.5712 28.478 0
-27.1488 69.5387 27.6068 0
-28.4709 68.664 30.534 0
-28.6721 67.9549 30.894 0
-27.3542 68.9901 29.2056 0
-27.8305 68.8453 29.9477 0
-25.0554 70.2999 23.4733 0
-25.2046 70.4459 24.2975 0
-25.7889 70.1012 24.7482 0
-26.1592 69.7237 25.3071 0
-26.5227 69.8436 26.1356 0
-26.7629 69.4222 26.7647 0
-32.4118 72.0762 16.8631 0
-31.7908 72.5332 17.0664 0
-30.8636 72.6339 17.0361 0
-30.5017 72.5037 17.5428 0
-28.5643 72.5932 18.1928 0
-27.826 72.7286 18.2357 0
-29.6325 72.5791 17.559 0
-29.315 72.4913 18.166 0
-25.0409 71.2138 21.354 0
-27.6519 72.9072 19.1543 0
-26.2003 72.5561 19.2631 0
-27.4254 72.7461 19.8615 0
-26.6909 72.4772 19.8688 0
-25.9222 72.1924 19.9219 0
-25.6703 71.8855 20.6685 0
-25.5366 71.3832 21.0961 0
-32.728 73.8563 3.96122 0
-32.2029 73.9922 4.05072 0
-32.0475 73.4487 4.70191 0
-32.2831 72.7428 5.20195 0
-31.9404 72.3426 5.85838 0
-32.1266 71.8037 6.34392 0
-32.7721 71.0316 6.59214 0
-31.4645 72.0174 6.48397 0
-32.859 70.6512 7.06748 0
-32.877 70.3339 7.56456 0
-32.5368 73.1624 4.50017 0
-33.0024 71.8334 5.44212 0
-33.5646 70.9052 5.57382 0
-33.5179 70.2717 5.90028 0
-33.1433 70.6321 6.22122 0
-33.2952 69.4224 7.50176 0
-33.1956 69.0098 7.84118 0
-32.6081 69.4853 8.20683 0
-32.3951 68.7681 8.84055 0
-32.9866 68.0372 8.90276 0
-32.8496 67.7629 9.24629 0
-32.6672 67.5591 9.61542 0
-32.3761 67.3353 9.9316 0
-32.5169 69.1241 8.52629 0
-31.7965 69.5102 8.74569 0
-31.1036 70.1773 8.53714 0
-32.0221 67.1339 10.2104 0
-30.1403 67.2818 10.7254 0
-31.5961 66.9709 10.4651 0
-31.1387 66.7993 10.6297 0
-31.7109 66.2081 10.7596 0
-31.1828 66.1414 11.0287 0
-30.6514 66.0921 11.3229 0
-30.2625 66.162 11.6141 0
-29.708 66.1699 11.8561 0
-29.9389 65.4367 12.0005 0
-29.769 65.5989 12.5459 0
250 4011 4012 0
1004 1002 4013 0
1003 3 1002 0
1003 1002 1004 0
249 1003 1004 0
1005 4011 250 0
1004 4013 4011 0
1004 4011 1005 0
249 1004 1005 0
1007 1005 250 0
1006 249 1005 0
1006 1005 1007 0
61 1006 1007 0
1009 4014 4015 0
1008 4016 4014 0
1008 4014 1009 0
251 1008 1009 0
250 4012 4017 0
1010 1008 251 0
4017 4016 1008 0
4017 1008 1010 0
250 4017 1010 0
1011 1010 251 0
1007 250 1010 0
1007 1010 1011 0
61 1007 1011 0
1013 1009 4015 0
1012 251 1009 0
1012 1009 1013 0
253 1012 1013 0
1015 1011 251 0
1014 61 1011 0
1014 1011 1015 0
252 1014 1015 0
1016 1012 253 0
1015 251 1012 0
1015 1012 1016 0
252 1015 1016 0
1018 1016 253 0
1017 252 1016 0
1017 1016 1018 0
15 1017 1018 0
1019 4018 4019 0
1013 4015 4018 0
1013 4018 1019 0
253 1013 1019 0
1020 4020 4021 0
1019 4019 4020 0
1019 4020 1020 0
253 1019 1020 0
1021 1020 4021 0
1018 253 1020 0
1018 1020 1021 0
15 1018 1021 0
4022 1021 4021 0
1022 15 1021 0
1022 1021 4022 0
254 1022 4022 0
254 4022 4023 0
4024 254 4023 0
1025 1023 3 0
1024 255 1023 0
1024 1023 1025 0
257 1024 1025 0
1028 1026 255 0
1027 62 1026 0
1027 1026 1028 0
256 1027 1028 0
1029 1024 257 0
1028 255 1024 0
1028 1024 1029 0
256 1028 1029 0
1031 1029 257 0
1030 256 1029 0
1030 1029 1031 0
64 1030 1031 0
1034 1032 62 0
1033 258 1032 0
1033 1032 1034 0
260 1033 1034 0
1037 1035 258 0
1036 16 1035 0
1036 1035 1037 0
259 1036 1037 0
1038 1033 260 0
1037 258 1033 0
1037 1033 1038 0
259 1037 1038 0
1040 1038 260 0
1039 259 1038 0
1039 1038 1040 0
63 1039 1040 0
1042 1030 64 0
1041 256 1030 0
1041 1030 1042 0
261 1041 1042 0
1043 1027 256 0
1034 62 1027 0
1034 1027 1043 0
260 1034 1043 0
1044 1041 261 0
1043 256 1041 0
1043 1041 1044 0
260 1043 1044 0
1045 1044 261 0
1040 260 1044 0
1040 1044 1045 0
63 1040 1045 0
1047 1042 64 0
1046 261 1042 0
1046 1042 1047 0
263 1046 1047 0
1049 1045 261 0
1048 63 1045 0
1048 1045 1049 0
262 1048 1049 0
1050 1046 263 0
1049 261 1046 0
1049 1046 1050 0
262 1049 1050 0
1052 1050 263 0
1051 262 1050 0
1051 1050 1052 0
18 1051 1052 0
1055 1053 16 0
1054 264 1053 0
1054 1053 1055 0
266 1054 1055 0
1058 1056 264 0
1057 65 1056 0
1057 1056 1058 0
265 1057 1058 0
1059 1054 266 0
1058 264 1054 0
1058 1054 1059 0
265 1058 1059 0
1061 1059 266 0
1060 265 1059 0
1060 1059 1061 0
67 1060 1061 0
1064 1062 65 0
1063 267 1062 0
1063 1062 1064 0
269 1063 1064 0
1067 1065 267 0
1066 1 1065 0
1066 1065 1067 0
268 1066 1067 0
1068 1063 269 0
1067 267 1063 0
1067 1063 1068 0
268 1067 1068 0
1070 1068 269 0
1069 268 1068 0
1069 1068 1070 0
66 1069 1070 0
1072 1060 67 0
1071 265 1060 0
1071 1060 1072 0
270 1071 1072 0
1073 1057 265 0
1064 65 1057 0
1064 1057 1073 0
269 1064 1073 0
1074 1071 270 0
1073 265 1071 0
1073 1071 1074 0
269 1073 1074 0
1075 1074 270 0
1070 269 1074 0
1070 1074 1075 0
66 1070 1075 0
1077 1072 67 0
1076 270 1072 0
1076 1072 1077 0
272 1076 1077 0
1079 1075 270 0
1078 66 1075 0
1078 1075 1079 0
271 1078 1079 0
1080 1076 272 0
1079 270 1076 0
1079 1076 1080 0
271 1079 1080 0
1082 1080 272 0
1081 271 1080 0
1081 1080 1082 0
17 1081 1082 0
1084 1051 18 0
1083 262 1051 0
1083 1051 1084 0
274 1083 1084 0
1086 1048 262 0
1085 63 1048 0
1085 1048 1086 0
273 1085 1086 0
1087 1083 274 0
1086 262 1083 0
1086 1083 1087 0
273 1086 1087 0
1089 1087 274 0
1088 273 1087 0
1088 1087 1089 0
68 1088 1089 0
1091 1039 63 0
1090 259 1039 0
1090 1039 1091 0
275 1090 1091 0
1092 1036 259 0
1055 16 1036 0
1055 1036 1092 0
266 1055 1092 0
1093 1090 275 0
1092 259 1090 0
1092 1090 1093 0
266 1092 1093 0
1094 1093 275 0
1061 266 1093 0
1061 1093 1094 0
67 1061 1094 0
1096 1088 68 0
1095 273 1088 0
1095 1088 1096 0
276 1095 1096 0
1097 1085 273 0
1091 63 1085 0
1091 1085 1097 0
275 1091 1097 0
1098 1095 276 0
1097 273 1095 0
1097 1095 1098 0
275 1097 1098 0
1099 1098 276 0
1094 275 1098 0
1094 1098 1099 0
67 1094 1099 0
1101 1096 68 0
1100 276 1096 0
1100 1096 1101 0
277 1100 1101 0
1102 1099 276 0
1077 67 1099 0
1077 1099 1102 0
272 1077 1102 0
1103 1100 277 0
