#!ascii - generated by CreateLabelFiles project 
4315 8329
-34.5579 85.1908 16.6254 0
-34.731 86.1133 17.6663 0
-35.3843 86.4898 17.174 0
-36.5515 85.4428 16.6534 0
-35.6595 86.5108 16.5351 0
-33.7214 86.785 15.9436 0
-34.0505 86.8369 14.6105 0
-33.5195 87.2139 17.0944 0
-34.7773 86.8091 16.3582 0
-35.6071 86.3796 15.5649 0
-35.3336 86.5767 13.9296 0
-36.3256 85.8314 14.3028 0
-35.8309 86.4022 14.1948 0
-36.0341 85.9215 13.1412 0
-36.5442 85.3072 12.3514 0
-36.7828 84.6424 12.2478 0
-36.7511 84.9116 11.4007 0
-36.4625 84.6598 14.1304 0
-36.7197 84.641 13.1371 0
-36.3324 83.6159 12.0725 0
-35.6552 81.8105 11.7221 0
-35.5962 81.7472 10.986 0
-35.6805 84.2626 15.6936 0
-35.993 84.7157 15.0657 0
-33.463 83.9093 15.3684 0
-34.7313 84.3458 15.4267 0
-34.3381 82.6153 14.6773 0
-33.5481 79.9963 14.4737 0
-34.1307 80.4796 13.8994 0
-35.0703 81.3969 12.4195 0
-34.4519 79.743 11.0489 0
-35.6244 83.0617 13.7123 0
-34.5363 80.9601 13.1772 0
-33.3693 79.0314 12.1776 0
-33.3535 77.7364 10.1724 0
-33.3107 77.4795 9.56167 0
-33.5968 77.1021 10.9145 0
-33.3047 77.4518 10.618 0
-33.2364 75.6487 10.0105 0
-32.2943 74.1491 10.4557 0
-31.1096 74.2027 10.5671 0
-30.2643 81.9478 15.044 0
-31.9217 83.1353 15.2343 0
-27.8162 78.8954 15.1851 0
-28.9379 80.3327 15.0399 0
-29.2976 79.0684 14.1963 0
-29.02 77.3767 13.8365 0
-30.1096 78.1388 13.8104 0
-26.0057 76.8133 16.7528 0
-26.5365 77.956 15.5938 0
-24.6014 75.5308 21.2835 0
-25.207 76.0279 18.5216 0
-25.7434 74.8874 16.5937 0
-25.5311 73.7544 17.1835 0
-26.2106 74.5275 15.6525 0
-27.9572 76.4829 14.1392 0
-29.1944 75.9143 14.1914 0
-27.0018 77.0994 14.619 0
-26.841 75.7131 14.8355 0
-27.2577 74.2839 15.3238 0
-29.6218 74.6015 14.3438 0
-30.7022 75.3941 14.4152 0
-27.9568 73.3599 16.5705 0
-28.7131 73.9701 15.3047 0
-30.2678 73.6244 15.382 0
-31.2285 72.783 16.619 0
-32.0523 73.3203 15.674 0
-33.0298 73.9733 10.7355 0
-31.3261 73.3343 11.3945 0
-33.9864 76.6631 11.3912 0
-34.1865 75.234 10.8454 0
-33.6958 73.9257 11.3385 0
-34.2331 73.7187 11.9128 0
-32.9972 72.3787 11.2684 0
-32.3747 79.4836 14.589 0
-32.5252 78.2051 12.85 0
-31.9826 81.1528 15.2939 0
-31.1452 78.8385 14.0501 0
-31.4458 77.3985 13.4257 0
-34.2965 75.0766 12.6098 0
-34.4428 73.6053 12.7723 0
-33.8929 76.5324 12.2646 0
-33.1779 76.475 13.227 0
-31.8265 76.0136 14.1109 0
-34.239 73.7321 13.8604 0
-34.3908 72.3241 13.0939 0
-32.5086 74.7156 14.2786 0
-33.1135 73.497 14.6515 0
-33.6353 72.316 15.1862 0
-30.4015 72.1605 12.0037 0
-29.466 72.0015 11.9386 0
-32.6018 71.2047 11.855 0
-31.6492 71.5694 11.5818 0
-29.6274 71.3157 12.9576 0
-29.728 70.0725 13.583 0
-29.1413 69.6958 13.0382 0
-34.0143 71.0904 13.4577 0
-33.5475 71.048 12.5318 0
-34.1788 71.0999 14.4701 0
-33.5739 70.0955 14.0824 0
-30.4519 69.6698 13.7494 0
-29.2179 68.5288 13.7911 0
-32.2383 70.1483 12.6449 0
-31.2849 69.2862 13.9226 0
-28.7385 66.927 14.4878 0
-29.2319 66.564 13.2643 0
-24.6668 73.5183 24.3263 0
-24.3392 74.6681 22.9282 0
-26.9532 71.455 26.6495 0
-26.0003 72.4202 25.4134 0
-24.7628 72.179 24.0891 0
-24.7889 70.7474 23.8253 0
-24.5381 71.8138 22.4002 0
-27.6716 69.3251 29.4441 0
-27.4861 70.4711 28.0499 0
-26.6229 70.2121 26.409 0
-27.3159 72.8957 17.7972 0
-28.7848 72.6327 17.7101 0
-25.0196 73.494 19.329 0
-25.9701 72.9655 18.1101 0
-24.5292 74.1367 21.3612 0
-24.7352 72.7725 20.9582 0
-25.0873 71.6918 21.0491 0
-26.9037 72.8651 19.4164 0
-30.8512 73.8468 5.18372 0
-29.943 75.6723 6.14834 0
-30.1695 74.6086 5.55952 0
-31.3258 72.3552 6.11929 0
-31.4755 71.44 7.13291 0
-30.1771 77.226 7.15097 0
-29.5672 76.6888 6.75872 0
-33.7565 77.746 7.42518 0
-31.9177 77.1074 7.09251 0
-29.8229 76.8391 8.44385 0
-30.2141 75.9193 9.2286 0
-29.3092 75.221 8.81834 0
-35.3212 81.5732 9.59007 0
-34.6897 79.3616 8.38885 0
-35.801 83.7901 10.6919 0
-35.4626 81.617 10.2627 0
-34.5861 79.2968 9.64622 0
-31.8317 75.7361 8.35855 0
-30.0549 74.5711 9.16138 0
-33.6277 77.2844 7.88487 0
-33.4584 77.1437 8.37164 0
-33.3274 77.2789 9.06397 0
-29.7381 74.3377 9.79065 0
-28.0863 73.4804 9.53859 0
-32.0144 75.2302 9.2862 0
-30.2989 74.1967 10.2793 0
-29.3004 73.2027 10.9042 0
-32.0698 68.0089 9.54417 0
-30.2404 72.0407 7.35427 0
-31.3161 70.7123 7.93568 0
-29.566 74.773 7.46967 0
-29.2083 73.3756 7.85063 0
-28.9887 72.5586 8.45313 0
-30.8224 69.4011 9.32286 0
-30.2081 68.5254 9.42841 0
-29.7888 70.8387 8.8371 0
-28.6009 72.1276 9.08675 0
-29.1385 69.662 9.76066 0
-29.6626 68.2619 10.0936 0
-28.4958 71.8327 9.66747 0
-28.6672 71.6668 10.2751 0
-28.852 71.618 11.0869 0
-28.9198 68.3833 11.0635 0
-30.5685 67.1748 10.574 0
-28.3387 69.9805 11.5322 0
-28.6026 68.6066 11.8864 0
-29.1943 67.3412 11.8976 0
-32.9782 98.9863 -8.44157 0
-33.7559 97.8758 -9.17904 0
-32.3807 98.7559 -8.35202 0
-31.5546 98.3552 -8.13756 0
-31.9615 97.1498 -8.57523 0
-30.5708 97.9134 -8.01011 0
-28.6026 99.3027 -7.55137 0
-27.8225 98.9061 -7.92606 0
-29.4901 98.62 -7.69971 0
-29.6617 97.4878 -8.0881 0
-27.8682 97.7247 -8.15776 0
-27.3704 98.5069 -8.51799 0
-30.0767 96.3634 -8.70998 0
-28.8256 97.0007 -8.22129 0
-27.9772 96.4634 -8.28626 0
-28.3262 95.3837 -8.76059 0
-27.4765 96.1539 -8.86889 0
-27.2468 98.0434 -9.34394 0
-27.1885 96.9708 -9.59257 0
-27.0439 96.0032 -9.66675 0
-27.2502 94.7554 -9.80281 0
-34.8606 96.4197 -9.20295 0
-35.5608 95.3795 -9.51216 0
-34.6809 96.6314 -9.40795 0
-36.3845 93.6761 -8.21357 0
-36.9738 92.8954 -7.86963 0
-36.4289 93.8496 -9.03137 0
-36.2853 94.5065 -9.76237 0
-36.6965 93.699 -9.63559 0
-35.8572 94.8736 -10.167 0
-35.5539 92.6149 -6.32587 0
-35.1961 92.1197 -6.48936 0
-36.1918 92.3787 -7.20284 0
-33.1951 92.9079 -5.34832 0
-32.8381 92.3296 -5.59614 0
-34.1042 91.9911 -5.93557 0
-34.7797 91.644 -6.76217 0
-34.4478 91.0406 -6.99236 0
-35.5642 91.3336 -7.57274 0
-37.149 92.3989 -8.73104 0
-36.7346 93.0844 -9.91398 0
-36.6234 92.3129 -7.899 0
-36.474 91.8473 -8.17098 0
-36.346 91.3521 -8.51194 0
-36.5335 92.7042 -10.3475 0
-36.1782 93.507 -10.7588 0
-36.0423 90.9465 -8.91479 0
-36.7807 91.6076 -9.57673 0
-36.6143 92.1687 -10.7685 0
-36.6888 91.6416 -11.1605 0
-36.422 92.3513 -11.4855 0
-30.8153 93.487 -4.60439 0
-30.3595 92.9961 -5.00401 0
-31.4794 92.8384 -5.37647 0
-28.7207 92.8142 -4.10165 0
-28.2666 92.3313 -4.78086 0
-29.3092 92.7142 -4.88845 0
-29.9134 92.3634 -5.47117 0
-29.5327 91.7484 -5.70545 0
-30.5824 91.8816 -6.04641 0
-26.7472 92.1817 -3.54385 0
-26.3926 91.9042 -3.9483 0
-27.3204 92.0657 -4.34882 0
-25.1397 91.8321 -2.89784 0
-24.8382 91.3714 -3.25336 0
-25.5791 91.6581 -3.62104 0
-26.1267 91.5109 -4.29212 0
-25.9043 91.0596 -4.60236 0
-26.5472 91.3465 -5.00217 0
-28.4905 91.5892 -5.56743 0
-29.1019 91.2148 -5.96672 0
-27.8445 91.9851 -5.15911 0
-27.4069 91.5653 -5.41733 0
-26.9726 91.1475 -5.66341 0
-28.5257 90.8538 -6.35197 0
-29.7097 90.9034 -6.63899 0
-26.552 90.6875 -5.956 0
-27.441 90.8241 -6.1897 0
-27.9172 90.5341 -6.74344 0
-27.4154 90.1269 -6.91397 0
-28.5806 90.1731 -7.17518 0
-36.1442 90.96 -10.4758 0
-36.7017 91.2205 -11.5614 0
-34.9138 90.4223 -8.21874 0
-35.7285 90.6735 -9.38823 0
-35.3042 90.2703 -9.71524 0
-33.9386 89.8973 -8.95018 0
-34.7727 89.7249 -9.87719 0
-33.1419 91.2149 -6.61688 0
-34.0375 90.5981 -7.30223 0
-32.3281 91.8955 -5.93623 0
-31.7709 91.6895 -6.36756 0
-31.275 91.3501 -6.73789 0
-33.1357 90.0794 -8.02117 0
-32.561 89.8578 -8.33559 0
-33.582 90.3386 -7.67908 0
-32.1223 90.7868 -7.41514 0
-30.8073 90.9584 -7.0356 0
-31.09 90.1206 -7.98242 0
-31.8715 89.6914 -8.64785 0
-30.3382 90.5759 -7.33889 0
-29.8076 90.2155 -7.53888 0
-29.2533 89.8284 -7.66961 0
-36.676 90.7599 -11.879 0
-37.0133 91.5679 -12.6751 0
-34.2197 89.1924 -9.98146 0
-35.5714 89.8903 -10.9188 0
-36.2681 90.1111 -11.8895 0
-35.6719 89.4581 -11.8375 0
-36.6113 90.2174 -12.7973 0
-31.2516 89.5135 -8.8888 0
-32.6825 89.2758 -9.37663 0
-28.732 89.437 -7.71827 0
-29.9425 89.4886 -8.25723 0
-30.7819 89.0998 -8.78576 0
-30.2918 88.6849 -8.69704 0
-31.6353 88.691 -9.40999 0
-34.427 88.9237 -10.9048 0
-35.2725 88.6405 -11.647 0
-33.6487 88.9503 -10.0544 0
-33.0292 88.7424 -10.1353 0
-32.5841 88.1218 -9.96367 0
-34.7639 87.9309 -11.3994 0
-35.9251 88.4344 -12.4943 0
-32.008 87.5449 -9.82633 0
-33.4937 87.6325 -10.5034 0
-34.3036 87.1996 -11.1359 0
-33.8168 86.5353 -10.8259 0
-35.0065 86.862 -11.9028 0
-28.1548 93.8702 -9.53268 0
-27.7637 93.4656 -9.98334 0
-28.1103 92.4447 -10.2857 0
-29.1331 92.0403 -10.6089 0
-28.4222 91.4492 -10.6197 0
-27.0209 90.3843 -11.1502 0
-27.7451 90.9385 -10.8452 0
-28.749 90.4579 -10.9393 0
-28.4005 88.9998 -11.5674 0
-27.8955 88.5423 -11.9787 0
-29.8968 90.1044 -11.2023 0
-29.1129 89.4953 -11.2903 0
-29.5457 88.63 -11.8951 0
-30.786 88.2705 -12.2622 0
-29.9672 87.7683 -12.5477 0
-29.576 94.8924 -9.41174 0
-28.6601 94.3106 -9.24238 0
-31.3364 95.7132 -9.14576 0
-30.4577 95.3455 -9.39536 0
-30.9172 94.6276 -10.2212 0
-32.1764 94.0903 -10.695 0
-31.3757 93.8403 -10.9205 0
-33.0765 96.3109 -9.25691 0
-32.1653 95.9764 -9.02549 0
-33.959 96.5602 -9.42884 0
-34.1834 95.3857 -9.7375 0
-35.0365 94.6342 -10.304 0
-33.1162 94.2595 -10.4349 0
-33.6181 93.4959 -11.15 0
-32.5243 95.0776 -9.74358 0
-34.1517 94.4234 -10.3783 0
-35.6618 93.9367 -10.7581 0
-34.9928 93.2044 -11.4799 0
-34.1287 92.7998 -11.6145 0
-35.8771 93.4474 -11.2188 0
-36.1375 93.0093 -11.7151 0
-36.5263 92.5126 -12.3144 0
-31.6594 88.7502 -12.0315 0
-32.0544 88.1168 -12.8846 0
-30.6754 90.711 -11.2099 0
-31.1745 89.6987 -11.5784 0
-32.5093 89.4223 -12.0731 0
-33.3265 90.1748 -12.2451 0
-33.6243 89.459 -12.6814 0
-29.8702 92.6269 -10.644 0
-30.2631 91.6737 -10.938 0
-29.2563 93.4844 -9.98685 0
-30.613 93.2499 -10.7909 0
-31.8883 92.6663 -11.0056 0
-32.9002 90.9142 -11.7385 0
-34.3196 90.8243 -12.3785 0
-31.5491 91.1825 -11.1772 0
-32.4405 91.6355 -11.1799 0
-33.3003 92.2081 -11.4013 0
-35.334 91.4355 -12.4331 0
-35.618 90.8843 -13.0204 0
-34.837 92.0574 -11.9596 0
-35.9658 91.977 -12.3823 0
-36.8473 91.9713 -12.8604 0
-33.2521 88.1067 -13.5238 0
-32.5357 87.5176 -13.7052 0
-34.8143 89.4785 -13.2842 0
-33.9731 88.7775 -13.283 0
-34.5953 87.9912 -13.7513 0
-35.7516 87.9055 -14.0201 0
-35.3481 87.3512 -14.2529 0
-36.3958 90.8415 -13.3562 0
-35.7775 90.2171 -13.442 0
-36.8799 91.3494 -13.1718 0
-36.662 90.6309 -13.2169 0
-36.5888 89.8221 -13.3277 0
-35.9854 88.5809 -13.8493 0
-36.4269 87.6921 -13.8304 0
-35.6496 89.3703 -13.5413 0
-36.2825 89.2362 -13.6579 0
-36.267 88.8978 -13.1975 0
-36.9621 87.4355 -13.5107 0
-37.109 87.0247 -14.0685 0
-36.5074 87.9811 -13.0808 0
-36.0943 87.1585 -12.76 0
-35.8537 86.5387 -12.6678 0
-28.2289 87.4711 -12.3368 0
-30.5227 87.1181 -13.1511 0
-29.1756 87.1129 -12.6481 0
-28.6106 86.4575 -12.7858 0
-29.4808 85.7394 -13.3796 0
-28.5239 85.8787 -12.9563 0
-28.477 85.3191 -13.1221 0
-33.3238 86.9931 -14.1939 0
-31.8644 87.0666 -13.7241 0
-36.1981 86.8229 -14.7368 0
-34.806 86.9345 -14.5551 0
-34.2014 86.3237 -14.6158 0
-34.9098 85.4597 -14.8078 0
-33.5926 85.4939 -14.4556 0
-37.2739 86.4996 -14.2267 0
-37.2947 86.7009 -14.7831 0
-35.3645 85.8632 -12.3931 0
-36.8031 86.2522 -13.4983 0
-37.1061 85.8241 -14.1825 0
-36.2631 84.982 -13.7707 0
-37.0875 85.1989 -14.7427 0
-36.1457 85.4223 -15.0941 0
-35.5732 84.6806 -15.1401 0
-36.8929 86.143 -15.063 0
-36.806 85.3109 -15.0197 0
-36.9469 84.4827 -14.9029 0
-36.1589 83.8565 -15.2003 0
-35.0592 83.9883 -15.3278 0
-36.7656 83.6483 -14.6468 0
-37.0931 83.7325 -14.9824 0
-36.7154 82.9886 -15.1905 0
-36.3986 82.1369 -15.235 0
-36.1784 82.2254 -15.4813 0
-29.8588 84.4301 -14.1501 0
-29.4715 83.8063 -14.2665 0
-30.2548 83.044 -14.7314 0
-31.4118 82.8964 -15.0301 0
-31.0708 82.2358 -15.0701 0
-30.7181 85.7329 -13.8868 0
-30.3126 85.0454 -13.9991 0
-31.2193 86.4992 -13.7913 0
-32.0706 85.6178 -14.1346 0
-32.9822 84.7767 -14.4924 0
-31.846 83.5462 -14.8795 0
-32.5449 82.7284 -15.1628 0
-31.0123 84.3077 -14.4333 0
-32.3359 84.1699 -14.692 0
-33.7278 84.055 -14.9865 0
-33.8329 82.5774 -15.4094 0
-33.4196 81.8861 -15.4302 0
-34.4622 83.2915 -15.4242 0
-35.065 82.3765 -15.4738 0
-35.7133 81.5093 -15.7129 0
-31.9862 81.3927 -15.2428 0
-30.8583 81.5821 -14.7804 0
-34.2698 81.0257 -15.7573 0
-33.1614 81.2088 -15.4914 0
-35.5941 80.5319 -15.3964 0
-35.2596 80.8356 -15.8815 0
-34.9457 80.2692 -16.2921 0
-35.1572 79.4854 -16.5715 0
-34.6583 79.7299 -16.7206 0
-32.6643 80.0364 -15.5641 0
-32.2487 79.4735 -15.4605 0
-32.9478 80.6083 -15.7062 0
-33.876 79.9275 -16.5742 0
-34.4506 79.1878 -17.008 0
-33.0029 78.8241 -16.4643 0
-34.7606 78.4056 -17.0747 0
-33.9623 78.6203 -16.8892 0
-33.6367 78.0775 -16.9205 0
-34.3525 77.3527 -17.3556 0
-24.3942 91.0021 -1.97393 0
-24.2911 90.4645 -2.27532 0
-24.4573 91.0602 -2.81498 0
-23.8658 89.407 -0.994778 0
-23.9124 88.9329 -1.2595 0
-23.9085 89.5456 -1.76465 0
-24.0656 89.7401 -2.58502 0
-24.2132 89.0209 -2.71561 0
-24.5103 89.7662 -3.30554 0
-23.8234 88.045 -0.0990956 0
-24.2633 87.7256 -0.317115 0
-23.8661 88.2057 -0.803046 0
-25.2871 86.7499 0.368906 0
-25.5878 86.3382 0.0903225 0
-24.9338 87.0654 -0.0740498 0
-24.6995 87.3919 -0.527207 0
-25.1793 87.0701 -0.741006 0
-24.6658 87.463 -1.19623 0
-24.103 88.4019 -2.16994 0
-24.4083 88.3844 -2.81573 0
-23.9132 88.4019 -1.52614 0
-24.2519 87.9189 -1.68433 0
-24.6834 87.48 -1.81948 0
-24.3378 87.7785 -2.88801 0
-24.5656 88.3701 -3.49293 0
-25.081 87.0286 -1.86209 0
-24.7561 87.3861 -2.32212 0
-24.7182 87.2786 -2.85885 0
-25.0385 86.7134 -2.77543 0
-24.5543 87.1036 -3.41004 0
-24.9097 85.1167 1.18143 0
-25.4725 84.8645 1.03239 0
-25.2963 85.4414 0.451554 0
-25.6692 84.1663 2.49424 0
-26.2274 83.9799 2.22962 0
-25.8662 84.4528 1.67987 0
-26.3079 84.8642 0.927712 0
-27.1083 84.8251 0.772067 0
-26.8044 85.3465 0.229378 0
-26.2325 83.7253 3.68696 0
-26.9622 83.787 3.51978 0
-26.5477 83.6908 2.79675 0
-27.0458 83.6119 5.14829 0
-27.7401 83.6559 4.92756 0
-27.387 83.7477 4.24279 0
-27.6894 83.8748 3.37853 0
-28.5086 83.9577 3.24928 0
-28.1093 83.9519 2.51926 0
-27.3425 84.2477 1.28983 0
-27.8764 84.9315 0.696279 0
-26.8717 83.8432 1.9984 0
-27.7017 83.9593 1.85575 0
-28.5721 84.2168 1.75005 0
-28.6728 85.1686 0.675683 0
-28.2771 85.7597 0.172436 0
-29.524 84.5743 1.75991 0
-29.1109 84.6899 1.15289 0
-29.6045 85.5255 0.642576 0
-30.564 85.8346 0.578777 0
-30.0435 86.1931 0.0583243 0
-25.683 86.603 -2.31722 0
-25.4709 86.2401 -2.73741 0
-25.7301 86.8852 -1.50771 0
-25.7243 86.8173 -1.88921 0
-26.3609 86.6012 -1.91263 0
-27.1661 86.7708 -1.57853 0
-27.0368 86.3548 -1.98503 0
-25.7664 86.4807 -0.543256 0
-25.7708 86.8618 -1.01267 0
-25.9139 85.9865 -0.140913 0
-26.3796 85.8479 -0.277115 0
-27.0759 86.0583 -0.299217 0
-27.2098 86.811 -1.23481 0
-28.0548 87.0377 -1.28345 0
-26.3934 86.6609 -1.18538 0
-27.1096 86.5548 -0.78585 0
-27.7989 86.3235 -0.334574 0
-28.7904 86.8909 -0.905729 0
-28.8759 86.9948 -1.40103 0
-28.6121 86.411 -0.40928 0
-29.4548 86.527 -0.479006 0
-30.267 86.6199 -0.533351 0
-26.0295 85.8717 -2.74799 0
-25.194 85.8748 -3.15532 0
-27.8559 86.2427 -2.09498 0
-26.8647 85.9494 -2.38987 0
-26.8189 85.6729 -2.77707 0
-27.6559 85.5922 -2.91469 0
-26.9166 85.5145 -3.13389 0
-29.6955 86.9031 -1.53944 0
-28.8046 86.5746 -1.80818 0
-30.9742 86.553 -0.581982 0
-30.3985 86.7661 -1.12266 0
-30.5272 86.83 -1.67293 0
-31.2179 86.6744 -1.82586 0
-30.5291 86.4565 -2.09151 0
-28.5757 85.836 -2.65315 0
-28.5198 85.5037 -3.03046 0
-28.7182 86.19 -2.2209 0
-29.6061 86.1401 -2.37201 0
-30.5177 86.1018 -2.51884 0
-29.421 85.4203 -3.16858 0
-28.5841 85.0398 -3.23542 0
-31.1488 85.8637 -2.69007 0
-30.4132 85.7605 -2.9512 0
-30.3605 85.4041 -3.33602 0
-31.1911 85.425 -3.60742 0
-30.5198 85.1997 -3.71721 0
-27.6434 83.3527 6.46974 0
-28.3767 83.5158 6.24665 0
-28.0384 83.4493 5.59497 0
-28.4081 83.6171 7.72037 0
-29.1796 83.8774 7.51637 0
-28.7179 83.8096 6.91017 0
-29.1231 83.7349 6.06354 0
-29.9164 83.842 5.87263 0
-29.5442 83.8465 5.25489 0
-29.5384 83.7759 8.88472 0
-30.3282 84.0163 8.63492 0
-29.6813 83.8905 8.10573 0
-30.9727 84.4248 9.86369 0
-31.7555 84.6859 9.59368 0
-31.0125 84.2397 9.13514 0
-31.0971 84.1933 8.39554 0
-31.7721 84.2956 8.18466 0
-31.1889 84.1192 7.66322 0
-30.3299 83.9042 6.48191 0
-30.7204 83.8944 5.75669 0
-29.9787 83.9014 7.2915 0
-30.7616 83.9747 7.07393 0
-31.5768 84.0219 6.9236 0
-31.5701 83.9618 5.66165 0
-31.1812 84.006 5.06248 0
-32.3476 83.9237 6.80883 0
-32.0163 83.9095 6.24397 0
-32.337 83.9492 5.58121 0
-32.984 83.8373 5.50723 0
-32.7684 84.0654 4.93489 0
-32.7458 84.8892 10.5451 0
-33.3606 85.0395 10.2818 0
-32.5809 84.989 9.97304 0
-34.3362 84.7606 11.1244 0
-34.7879 84.7349 10.846 0
-34.0891 84.9207 10.5763 0
-33.8698 85.02 10.0381 0
-34.3642 84.6292 9.73378 0
-33.7026 84.7377 9.44405 0
-35.6464 85.3243 11.3989 0
-36.0438 85.595 10.9522 0
-35.4331 85.1417 10.9188 0
-36.4806 85.6295 11.553 0
-36.7378 85.4839 11.2173 0
-36.4196 85.5687 11.0818 0
-35.9948 85.1975 10.7493 0
-35.9594 84.7688 10.5802 0
-35.6411 84.5294 10.4309 0
-34.9177 84.4081 9.98675 0
-34.8465 83.745 9.31945 0
-35.077 84.5448 10.558 0
-35.3951 84.2198 10.2574 0
-35.5207 83.463 9.90928 0
-35.1088 82.7667 8.97785 0
-34.6109 83.1056 8.73147 0
-35.6075 82.7517 9.62748 0
-35.3937 82.7029 9.31059 0
-35.0064 81.8223 8.71727 0
-34.8414 80.9367 8.4583 0
-34.6419 81.1378 8.17236 0
-32.9995 83.3955 6.02797 0
-33.2155 83.1394 5.39149 0
-32.5762 83.8377 7.32706 0
-32.9048 83.6144 6.68154 0
-33.1966 83.0291 6.53169 0
-33.3797 82.44 6.93159 0
-33.3802 82.1083 6.32186 0
-32.364 84.5545 8.68355 0
-32.4043 84.3076 8.00125 0
-32.5369 84.9645 9.33508 0
-33.067 84.8045 9.09341 0
-33.5432 84.2797 8.81922 0
-33.5333 83.0464 7.54536 0
-33.7493 82.0713 7.28623 0
-33.0109 83.8621 7.79792 0
-33.4462 83.629 8.17678 0
-34.0129 83.4335 8.4951 0
-34.1337 81.7447 7.59973 0
-33.9244 81.163 7.06039 0
-34.3307 82.436 8.14667 0
-34.4275 81.3956 7.88748 0
-34.2894 80.2736 7.65748 0
-33.3752 82.2228 5.2808 0
-33.2841 82.6976 4.75485 0
-33.513 81.1307 6.20027 0
-33.4505 81.7436 5.80291 0
-33.4767 81.3013 5.21301 0
-33.3321 80.5415 5.27121 0
-33.2487 81.0179 4.77884 0
-33.9379 80.2364 6.90813 0
-33.6438 80.643 6.56932 0
-34.1382 79.2224 7.42283 0
-34.0238 79.7141 7.16964 0
-33.6744 79.2375 6.75291 0
-33.2933 78.3022 6.64784 0
-33.2288 78.8269 6.39831 0
-33.2494 79.9356 5.67866 0
-32.9373 79.7031 5.28609 0
-33.5316 80.2105 6.08895 0
-33.2521 79.3573 6.06612 0
-32.6249 78.5974 6.17518 0
-32.4508 78.9328 5.3667 0
-32.5362 79.5511 4.95346 0
-31.9833 77.8676 6.33301 0
-32.1945 78.4167 5.86599 0
-31.7177 78.2774 5.60318 0
-30.9882 77.6392 5.90714 0
-31.3621 78.1359 5.34216 0
-31.6732 85.3437 -3.33447 0
-31.7629 85.2767 -3.89741 0
-31.7996 86.0344 -2.42157 0
-31.6513 85.5504 -2.86411 0
-32.1536 85.2425 -3.0291 0
-32.7242 85.0364 -2.55323 0
-32.6898 84.6589 -3.03799 0
-31.7709 86.4987 -1.31459 0
-31.8946 86.5012 -1.97461 0
-31.591 86.3148 -0.0279615 0
-31.6557 86.4565 -0.624854 0
-32.153 86.013 -0.674798 0
-32.7101 85.7054 -0.0225918 0
-32.6494 85.5698 -0.730262 0
-32.8921 85.434 -2.06544 0
-33.3567 84.8137 -2.06566 0
-32.4394 86.0575 -2.05417 0
-32.7546 85.5834 -1.4402 0
-33.161 85.0179 -0.758689 0
-33.6694 84.0913 -1.34611 0
-33.5672 84.0958 -1.94334 0
-33.8394 84.2983 -0.0226597 0
-33.6886 84.1809 -0.672547 0
-34.0877 83.319 -0.574834 0
-34.405 82.6822 0.191772 0
-34.0853 82.5875 -0.351246 0
-30.9341 85.4108 1.2207 0
-31.423 86.1082 0.608011 0
-29.9467 84.4649 2.4595 0
-30.5119 84.996 1.85689 0
-31.419 85.3359 1.95626 0
-31.6405 85.0708 2.61178 0
-32.078 85.4444 1.99954 0
-28.877 83.9399 3.93528 0
-29.3444 84.0321 3.12576 0
-28.4419 83.7773 4.74911 0
-29.2018 83.89 4.60971 0
-30.0055 83.9562 4.52375 0
-31.0582 84.5739 3.1915 0
-31.8127 84.8152 3.24752 0
-30.2441 84.2847 3.1323 0
-30.5176 84.1676 3.80609 0
-30.8401 84.0551 4.45248 0
-32.1923 84.505 3.80251 0
-32.3973 84.5281 3.16701 0
-31.7332 84.182 4.40987 0
-32.5988 84.2959 4.37926 0
-32.8869 83.8531 4.29612 0
-34.2479 82.8738 0.822555 0
-33.9849 82.0029 1.02497 0
-33.8603 84.4597 0.70769 0
-34.0481 83.6729 0.736532 0
-34.0834 83.045 1.43192 0
-33.9899 83.1391 2.01673 0
-33.9332 82.2294 2.12331 0
-32.6517 85.7016 0.671076 0
-33.2619 85.1964 0.699527 0
-32.0546 85.9754 0.637391 0
-32.4991 85.59 1.35773 0
-32.7052 85.3554 2.03712 0
-33.873 83.9767 1.98194 0
-33.8237 83.2836 2.55915 0
-33.7571 84.6473 1.41183 0
-33.3092 84.7507 2.02534 0
-32.8638 84.8679 2.60501 0
-33.3386 83.3986 3.10804 0
-33.5962 82.5661 3.15157 0
-33.0018 84.2261 3.08651 0
-33.0575 83.7549 3.64922 0
-33.1385 83.374 4.22711 0
-33.6483 81.247 1.76773 0
-33.5449 81.1744 1.27586 0
-33.7033 81.4429 2.73589 0
-33.6971 81.3495 2.26617 0
-33.0341 80.5868 2.4777 0
-32.6438 79.8322 3.03397 0
-32.3574 79.8447 2.66578 0
-33.4865 82.014 3.72494 0
-33.588 81.6256 3.21787 0
-33.2897 82.4014 4.21614 0
-33.4496 81.4111 4.24102 0
-33.2509 80.6436 4.32425 0
-32.9999 79.8788 3.41609 0
-32.025 79.511 3.66433 0
-33.412 80.6407 3.28806 0
-33.0567 80.2939 3.88968 0
-32.7226 80.0203 4.46719 0
-31.5819 79.2233 4.31205 0
-31.0731 79.0398 3.92874 0
-32.1952 79.3192 4.58648 0
-31.4333 78.6981 4.79918 0
-30.77 78.098 5.14447 0
-32.3155 85.1277 -4.17698 0
-32.0257 85.2726 -4.41675 0
-33.2274 84.0777 -3.04734 0
-32.7624 84.657 -3.64915 0
-32.7603 84.543 -4.15223 0
-33.1889 83.7968 -4.00731 0
-33.0561 84.2845 -4.49236 0
-33.693 83.2489 -1.73183 0
-33.5598 83.8013 -2.47796 0
-33.6466 81.8903 0.00147591 0
-33.547 82.5725 -0.782926 0
-33.3861 82.4862 -1.35157 0
-32.956 81.6878 -0.908783 0
-33.2832 82.3406 -1.8398 0
-33.5906 83.2775 -3.39579 0
-33.5673 83.0169 -3.80209 0
-33.6073 83.5034 -2.96858 0
-33.6938 83.0026 -2.71616 0
-33.4305 82.2802 -2.34806 0
-33.209 82.3733 -3.3736 0
-33.3296 82.6909 -4.07641 0
-32.4353 81.3536 -1.74047 0
-33.0852 82.0648 -2.64108 0
-32.5979 81.6379 -2.90571 0
-31.6614 80.8413 -2.31898 0
-32.0901 81.225 -3.12156 0
-32.4712 80.4474 1.608 0
-33.2994 81.1574 0.820127 0
-31.3014 79.2646 2.92744 0
-31.8707 79.7746 2.28465 0
-31.3555 79.6967 1.89449 0
-30.5425 78.8975 2.17937 0
-31.2302 79.6218 1.62024 0
-30.3819 78.4044 4.22135 0
-30.7242 78.8165 3.55001 0
-30.3035 77.404 5.52203 0
-30.1854 77.9615 4.89503 0
-29.9629 77.6475 4.53145 0
-29.8058 76.7535 4.86665 0
-29.8686 77.3297 4.1797 0
-30.0806 78.3674 2.80512 0
-29.8658 78.0298 2.44721 0
-30.3738 78.6253 3.17033 0
-30.0544 77.8829 3.51144 0
-29.999 77.0654 3.90082 0
-29.8394 77.2293 2.83254 0
-29.9167 77.7755 2.19175 0
-30.1006 76.0074 4.25469 0
-30.1148 76.7828 3.60782 0
-30.3316 76.3545 3.34066 0
-30.8739 75.2764 3.87951 0
-30.5997 75.864 3.10071 0
-31.2071 80.4043 -1.45748 0
-30.8759 80.1268 -1.73813 0
-31.8727 80.7041 -0.801751 0
-31.5201 80.5513 -1.14534 0
-30.7472 79.804 -0.568106 0
-30.4681 79.2308 0.449245 0
-30.4342 79.1601 0.141157 0
-32.4538 81.0652 0.0100006 0
-32.2055 80.8922 -0.455124 0
-32.8887 81.1262 0.382643 0
-32.0701 80.3433 0.853068 0
-31.1039 79.5421 1.3741 0
-30.7542 79.4008 0.802256 0
-30.2699 78.6223 1.44006 0
-31.3728 80.1286 0.0888902 0
-30.8969 79.4704 1.06125 0
-30.5987 78.6147 1.77197 0
-30.6538 77.2611 1.88875 0
-31.0069 77.426 1.86577 0
-30.5725 77.4135 2.04275 0
-30.7195 76.2771 2.41489 0
-31.3116 75.6685 3.12914 0
-30.2589 79.481 -1.11827 0
-30.5146 79.7901 -2.00819 0
-31.6911 76.2409 2.42302 0
-31.0841 77.4573 1.73893 0
-32.0833 74.7128 3.71773 0
-34.6584 77.1223 -17.0967 0
-34.4852 76.6054 -17.1865 0
-35.0281 78.1613 -16.6828 0
-34.8595 77.6347 -16.9464 0
-34.82 76.8308 -16.6463 0
-34.2344 76.6783 -15.9555 0
-34.047 76.1714 -16.165 0
-35.438 79.2846 -16.1564 0
-35.2781 78.7055 -16.5272 0
-35.7461 80.3406 -14.9476 0
-35.59 79.7577 -15.4317 0
-35.1685 79.1485 -15.2621 0
-34.6831 79.1272 -14.4839 0
-34.6211 78.5047 -14.9402 0
-34.4895 77.0856 -15.5332 0
-33.3886 76.6347 -15.2861 0
-35.0638 77.7965 -15.9223 0
-34.5267 77.7764 -15.2194 0
-33.3741 78.1044 -14.7505 0
-32.1337 76.8853 -14.6105 0
-32.1351 76.1019 -14.8169 0
-32.1996 78.3041 -13.9661 0
-32.1232 77.6662 -14.4363 0
-30.8667 77.0953 -13.8504 0
-29.8975 77.1681 -13.04 0
-29.8217 76.5568 -13.4219 0
-36.2283 82.0622 -14.9183 0
-36.046 81.2153 -15.0532 0
-35.9546 83.5524 -14.0617 0
-36.1754 82.8272 -14.4869 0
-35.1776 82.0557 -13.9306 0
-33.9584 82.1116 -12.9616 0
-34.1853 81.3004 -13.2721 0
-34.9919 84.7444 -12.6966 0
-35.4091 84.1863 -13.3408 0
-33.8737 85.5521 -11.2967 0
-34.5094 85.1722 -12.0224 0
-33.7417 84.4877 -11.6094 0
-32.7591 84.2714 -10.589 0
-33.1205 83.8558 -11.2454 0
-33.7698 82.9081 -12.6356 0
-32.7267 82.3068 -12.2224 0
-34.6568 83.5347 -13.0366 0
-33.3917 83.4991 -12.0226 0
-32.2076 83.4733 -11.1476 0
-31.527 82.5317 -11.5772 0
-31.7966 81.7592 -11.9092 0
-30.9956 83.5635 -10.458 0
-31.1432 83.2212 -11.1859 0
-30.3018 82.7136 -10.9391 0
-29.1744 82.8144 -10.3603 0
-29.4432 82.1828 -10.7221 0
-30.0481 77.7153 -12.5998 0
-29.0494 77.3286 -12.4612 0
-32.2537 78.9531 -13.4521 0
-31.128 78.3446 -12.9946 0
-30.067 78.5405 -12.3868 0
-30.08 79.3846 -12.2062 0
-29.3063 78.7343 -11.8434 0
-34.7229 79.7059 -13.9603 0
-33.4852 79.3336 -13.6883 0
-35.2952 80.3933 -14.3338 0
-34.5571 80.4377 -13.5611 0
-33.2636 80.7205 -12.8333 0
-31.1743 79.8576 -12.3462 0
-30.1669 80.0958 -11.8 0
-32.286 79.6067 -12.9679 0
-32.3006 80.2608 -12.5096 0
-32.0637 81.0171 -12.2149 0
-30.1825 80.8132 -11.4193 0
-29.3145 80.2838 -11.301 0
-30.9927 81.2841 -11.6332 0
-29.8687 81.5246 -11.1017 0
-28.6847 81.6572 -10.5588 0
-28.3882 77.4663 -11.9043 0
-28.2109 76.8846 -12.3486 0
-28.7322 78.7387 -11.2036 0
-28.7102 78.0032 -11.4375 0
-28.2353 77.3362 -11.1495 0
-27.9831 77.0931 -10.2253 0
-27.9246 76.6132 -10.6658 0
-28.6326 80.2658 -10.5863 0
-28.7527 79.4475 -10.8865 0
-27.8848 81.6497 -9.99276 0
-28.2603 80.9854 -10.2978 0
-27.6733 80.2093 -9.92837 0
-27.6054 79.9644 -8.89721 0
-27.8018 79.3646 -9.0921 0
-28.0074 77.6683 -9.73024 0
-28.4783 76.8943 -9.26297 0
-28.175 78.6546 -10.4216 0
-28.0333 78.5598 -9.33226 0
-28.2381 78.4979 -8.43747 0
-29.006 76.8964 -8.59756 0
-29.1424 76.3037 -8.98054 0
-28.8363 78.4598 -7.90158 0
-28.9101 77.6454 -8.18884 0
-29.7424 77.0519 -8.1943 0
-30.5543 77.3353 -7.98178 0
-30.809 76.5277 -8.37673 0
-32.5821 86.3801 -9.97095 0
-33.3015 85.927 -10.5581 0
-30.656 87.5332 -9.19803 0
-31.574 86.9625 -9.62683 0
-31.1251 86.4447 -9.48196 0
-29.8325 86.4611 -8.95427 0
-30.7003 85.8803 -9.28616 0
-29.1525 88.5437 -8.04959 0
-29.8737 88.0888 -8.60763 0
-27.6718 89.2557 -7.27997 0
-28.449 88.8648 -7.59306 0
-28.1767 88.2746 -7.46241 0
-27.2658 88.0498 -7.0097 0
-27.8541 87.6935 -7.41864 0
-29.1229 86.9268 -8.4349 0
-28.7543 86.3752 -8.36717 0
-29.4951 87.4862 -8.54124 0
-28.4549 87.3436 -7.90891 0
-27.5637 87.1979 -7.45227 0
-27.7759 86.2599 -7.84032 0
-28.3949 85.8345 -8.27027 0
-26.7328 87.0607 -7.03714 0
-27.2571 86.6746 -7.44605 0
-26.9126 86.0781 -7.36962 0
-26.0066 85.8304 -6.90524 0
-26.4966 85.4426 -7.25159 0
-26.4639 89.9738 -6.64214 0
-26.9592 89.6647 -7.00641 0
-25.8333 90.4692 -5.64612 0
-26.116 90.2195 -6.22684 0
-25.6646 89.786 -6.37957 0
-25.0615 89.5998 -6.17833 0
-25.3397 89.3367 -6.53185 0
-25.2381 90.7753 -4.25013 0
-25.6636 90.6149 -4.93047 0
-24.6453 90.9253 -3.61342 0
-24.7453 90.397 -3.85002 0
-24.9419 89.7624 -4.02194 0
-25.1109 89.7245 -5.55671 0
-24.7943 89.2952 -5.81286 0
-25.2607 90.1921 -5.26037 0
-25.0192 89.8753 -4.81935 0
-24.7985 89.257 -4.25761 0
-24.6002 88.8817 -5.24697 0
-24.3857 88.8456 -5.9956 0
-24.6183 88.6734 -4.38058 0
-24.6057 87.9827 -4.2435 0
-24.7768 87.2532 -4.00949 0
-25.7482 86.17 -6.56382 0
-25.3173 85.4883 -6.41975 0
-26.1443 87.482 -6.86403 0
-25.9925 86.8638 -6.73933 0
-25.3024 86.5686 -6.32421 0
-25.0654 86.9023 -6.04125 0
-25.0049 86.1637 -5.72548 0
-26.4639 88.5512 -6.89994 0
-26.395 87.9695 -6.84311 0
-26.6022 89.1465 -7.00541 0
-25.7184 89.0491 -6.81166 0
-25.1166 88.8479 -6.61307 0
-25.1815 87.6148 -6.30126 0
-24.8179 87.1921 -5.72026 0
-25.5638 87.9115 -6.71196 0
-25.0233 88.2898 -6.56829 0
-24.5194 88.6607 -6.43162 0
-24.7615 87.4085 -5.29346 0
-25.2143 86.6766 -4.87872 0
-24.5768 88.221 -5.75566 0
-25.0607 87.5402 -4.6701 0
-25.0134 86.5113 -3.80636 0
-25.5979 85.2816 -5.84535 0
-25.7655 84.996 -6.21253 0
-25.5893 85.839 -5.02494 0
-25.6108 85.5442 -5.40796 0
-26.2129 84.9373 -5.15244 0
-27.006 84.471 -4.42464 0
-26.9781 84.2618 -4.83179 0
-25.8473 86.0935 -4.07485 0
-25.7957 86.0244 -4.55433 0
-25.4232 85.889 -3.59544 0
-26.2844 85.6839 -3.55832 0
-27.0239 85.3093 -3.46327 0
-27.0662 84.6738 -4.03317 0
-27.79 84.2074 -3.95805 0
-26.431 85.3518 -4.28325 0
-27.0994 84.9576 -3.70858 0
-27.8018 84.913 -3.43284 0
-28.5975 84.249 -3.73948 0
-28.5367 83.9342 -4.06746 0
-28.6528 84.5996 -3.43055 0
-29.5964 84.6854 -3.70459 0
-30.6717 85.0959 -4.18685 0
-30.3621 77.9962 -7.54351 0
-31.3287 77.5244 -7.74788 0
-28.5769 79.0476 -7.6115 0
-29.3966 78.4559 -7.45228 0
-30.0844 78.5225 -7.07961 0
-29.9404 79.085 -6.75878 0
-30.8623 78.6447 -6.78485 0
-27.3612 80.6298 -8.68893 0
-27.739 79.6629 -7.93024 0
-27.7032 82.2353 -9.65519 0
-27.1922 81.5858 -9.43762 0
-27.2613 81.0894 -8.30227 0
-27.3898 81.4381 -7.68541 0
-27.539 80.4286 -7.02832 0
-29.0136 79.5253 -6.74845 0
-29.9721 79.6277 -6.43207 0
-28.3897 79.5855 -7.29546 0
-28.311 79.9697 -6.85405 0
-28.3923 80.3898 -6.42234 0
-29.9954 80.065 -6.00217 0
-30.9397 79.769 -6.18415 0
-28.445 80.8197 -6.03727 0
-29.097 80.3579 -5.89383 0
-29.9622 80.473 -5.61564 0
-29.9079 80.82 -5.20558 0
-30.9035 80.6547 -5.44025 0
-29.0032 83.2405 -9.85744 0
-28.1815 82.8081 -9.80717 0
-30.8886 83.8804 -9.74348 0
-29.9134 83.589 -9.80466 0
-28.9022 83.5787 -9.29656 0
-28.7342 83.997 -8.87162 0
-27.9468 83.6026 -8.94573 0
-32.3412 84.6749 -9.96232 0
-31.6763 84.2248 -9.78797 0
-32.8021 85.2982 -10.2701 0
-31.7009 85.1866 -9.47587 0
-30.3149 85.3333 -9.08361 0
-29.2573 84.4447 -8.87049 0
-28.2244 84.4318 -8.48108 0
-30.46 84.3367 -9.26015 0
-29.9161 84.8251 -8.88804 0
-29.0947 85.4105 -8.64211 0
-27.6559 84.765 -8.03939 0
-27.1913 84.2996 -8.03183 0
-28.0416 85.3101 -8.12968 0
-27.0356 85.1624 -7.67297 0
-26.0213 84.9122 -7.15469 0
-29.0052 81.0683 -5.15112 0
-29.8494 81.2982 -5.03421 0
-27.7862 81.2816 -6.22763 0
-28.405 81.1584 -5.66311 0
-28.3203 81.6067 -5.53047 0
-27.6411 82.2023 -5.916 0
-28.3429 82.1884 -5.43353 0
-27.366 82.4221 -8.28098 0
-27.5396 81.8089 -7.17683 0
-27.7062 82.6923 -9.13039 0
-27.6776 83.0285 -8.63985 0
-27.6086 83.3656 -8.23043 0
-27.4002 82.4737 -6.51663 0
-26.9608 82.9035 -6.23009 0
-27.4935 82.0259 -6.7414 0
-27.1917 82.938 -7.39517 0
-27.2571 83.6849 -7.78854 0
-26.1768 83.6643 -6.60127 0
-26.8853 83.3538 -5.86336 0
-26.6637 84.0314 -7.34416 0
-26.1215 84.3552 -6.93081 0
-25.7826 84.6521 -6.53535 0
-29.9071 81.8859 -4.9563 0
-30.7641 81.6093 -5.03387 0
-28.3337 82.6392 -5.09337 0
-29.0758 82.2067 -4.95148 0
-29.936 82.5148 -4.94139 0
-29.9395 83.0319 -4.9164 0
-30.8458 82.8919 -5.01106 0
-26.8599 83.7791 -5.55798 0
-27.5731 83.1227 -5.24349 0
-26.109 84.4407 -5.95522 0
-26.9105 84.0479 -5.21576 0
-27.657 83.6999 -4.61305 0
-29.0461 83.1874 -4.83494 0
-30.0556 83.7181 -4.97733 0
-28.2997 83.1263 -5.00916 0
-28.3417 83.4474 -4.73783 0
-28.443 83.6822 -4.3967 0
-30.2127 84.0328 -4.67712 0
-31.0832 84.2314 -5.10015 0
-29.312 83.79 -4.24216 0
-30.5031 84.6021 -4.4491 0
-31.6588 85.3702 -4.61915 0
-31.7921 77.4822 -7.26966 0
-31.8284 76.9194 -7.76314 0
-31.5565 78.7983 -6.57553 0
-31.5344 78.1498 -6.82609 0
-32.2678 77.5002 -6.89399 0
-32.6165 77.6175 -6.66108 0
-32.6452 76.831 -6.88104 0
-31.7669 79.8977 -6.01061 0
-31.6892 79.3797 -6.33558 0
-31.6243 80.8231 -5.36726 0
-31.7742 80.3744 -5.65627 0
-32.4659 79.9633 -5.82835 0
-32.8718 79.9321 -5.64769 0
-33.0989 79.5216 -6.03404 0
-32.5543 78.3786 -6.45524 0
-32.5106 77.6776 -6.28971 0
-32.1908 78.9123 -6.39605 0
-32.8815 78.9639 -6.27514 0
-32.7743 78.8934 -5.93428 0
-32.3607 77.5974 -5.96324 0
-32.4458 76.9393 -6.09071 0
-32.2601 78.5842 -5.43041 0
-32.3179 78.193 -5.76324 0
-31.5884 81.8927 -5.07053 0
-31.5279 81.2697 -5.11566 0
-31.7373 83.2188 -5.06573 0
-31.6319 82.54 -5.05222 0
-32.2751 82.0153 -5.05925 0
-33.0099 82.1805 -5.02467 0
-32.9035 81.4983 -5.09471 0
-32.0206 84.4718 -5.01088 0
-31.838 83.8714 -5.11665 0
-32.2887 84.9735 -4.73149 0
-32.8648 84.5572 -4.82937 0
-33.2009 84.0294 -4.82013 0
-33.0456 82.8387 -4.95074 0
-32.907 82.0903 -4.8171 0
-32.4958 83.3607 -5.03016 0
-33.1339 83.4501 -4.88858 0
-33.2124 83.2715 -4.63147 0
-32.982 81.8593 -4.56038 0
-32.752 81.2477 -4.67495 0
-33.1755 82.4036 -4.39115 0
-32.3634 81.5881 -3.86081 0
-31.4866 80.7679 -3.30667 0
-30.2788 77.4822 -4.58629 0
-32.1893 78.9798 -5.11338 0
-31.2988 78.2401 -4.83927 0
-30.3425 77.98 -4.21243 0
-30.4889 78.4716 -3.97679 0
-32.6882 80.334 -5.29554 0
-32.5288 79.7077 -5.23042 0
-32.1058 80.8051 -5.18774 0
-32.7862 80.9215 -5.18638 0
-32.7019 80.7973 -4.97038 0
-31.5232 79.2102 -4.42524 0
-30.8533 78.97 -3.79427 0
-32.2813 79.4687 -4.95038 0
-32.3799 79.9954 -4.81661 0
-32.583 80.6309 -4.75136 0
-31.0514 79.5585 -3.64142 0
-30.3124 78.7811 -3.08627 0
-31.9221 80.3997 -4.1855 0
-31.1329 80.2118 -3.48465 0
-30.6945 79.9893 -2.7317 0
-29.8862 78.6056 -2.31538 0
-30.1302 79.2221 -2.14741 0
-34.436 75.8714 -16.826 0
-33.1106 75.4371 -15.4408 0
-33.8965 75.5868 -16.1232 0
-33.8844 75.0001 -16.2106 0
-33.1781 74.071 -15.9038 0
-34.335 74.2947 -16.4776 0
-30.8576 75.5419 -14.2799 0
-32.0172 75.413 -14.8982 0
-29.0632 75.9801 -13.051 0
-29.9385 75.7574 -13.6242 0
-29.9828 74.9389 -13.8293 0
-29.2157 74.3255 -13.368 0
-29.9455 74.0771 -14.0483 0
-31.8139 73.9746 -15.3926 0
-31.9546 73.3595 -15.624 0
-31.8836 74.719 -15.0567 0
-30.8025 74.0149 -14.7433 0
-29.8795 73.3246 -14.3485 0
-30.875 72.5675 -15.2466 0
-32.1491 72.7716 -15.7457 0
-29.384 72.548 -13.6666 0
-29.8657 72.5285 -14.649 0
-30.0877 71.7896 -14.6521 0
-29.5951 70.9636 -13.8467 0
-30.4677 71.1727 -14.4801 0
-28.2138 76.0319 -11.4857 0
-28.4902 76.0791 -12.3158 0
-28.7183 75.7718 -9.99029 0
-28.2147 75.905 -10.7118 0
-28.5486 75.1475 -10.7113 0
-29.1014 74.2477 -10.2596 0
-28.7237 74.3405 -10.8351 0
-30.0749 75.7643 -8.95985 0
-29.2748 75.6798 -9.28556 0
-31.6573 75.9788 -8.53902 0
-31.0011 75.8435 -8.76855 0
-30.8564 75.2154 -8.94184 0
-31.111 74.7277 -8.78015 0
-30.7868 74.5516 -9.05375 0
-29.5456 74.2928 -9.65064 0
-29.7558 73.5156 -9.8031 0
-29.4414 75.0252 -9.56643 0
-30.1615 74.4112 -9.31793 0
-30.6937 73.7749 -8.94298 0
-30.2349 72.9073 -9.14405 0
-29.7824 72.8196 -9.63878 0
-30.9787 73.1767 -8.46623 0
-30.5995 73.0041 -8.72757 0
-30.5167 72.3081 -8.47668 0
-30.7483 71.7198 -7.76941 0
-30.4035 71.5772 -8.09829 0
-29.361 70.9223 -12.6531 0
-29.3201 70.5171 -12.3236 0
-28.9575 72.668 -12.7327 0
-29.1512 71.7228 -12.678 0
-29.2634 70.9341 -11.5191 0
-29.6165 71.0498 -10.6585 0
-29.5 70.4255 -10.3314 0
-28.8251 74.4788 -12.6535 0
-28.9099 73.5862 -12.7254 0
-28.7737 75.2585 -12.3722 0
-28.5019 74.4845 -11.676 0
-29.0329 73.4912 -11.1196 0
-29.1981 71.8017 -10.8814 0
-29.8541 71.1693 -9.95352 0
-28.9002 72.6837 -11.8095 0
-29.0186 72.622 -11.0461 0
-29.3716 72.7001 -10.2906 0
-30.096 71.3162 -9.26564 0
-30.1752 70.5992 -9.13161 0
-29.8663 72.0878 -9.44018 0
-30.1641 71.4536 -8.58043 0
-30.3286 70.8414 -7.71473 0
-29.3393 69.9261 -10.8893 0
-29.3829 70.0995 -12.1708 0
-29.5914 69.9344 -9.47979 0
-29.3016 69.8722 -10.01 0
-29.5524 69.3231 -9.97055 0
-29.9007 68.8189 -9.36007 0
-29.679 68.7668 -9.94304 0
-30.2965 70.0927 -8.37879 0
-29.9723 70.0034 -8.97115 0
-30.6557 70.3093 -7.20872 0
-30.4308 70.2056 -7.72766 0
-30.6005 69.5767 -7.83754 0
-31.0231 69.0376 -7.40795 0
-30.7263 68.9762 -7.90513 0
-30.0721 68.8707 -8.85149 0
-30.061 68.3664 -8.85102 0
-29.9616 69.4264 -8.87513 0
-30.354 68.9324 -8.37066 0
-30.6694 68.4215 -7.93838 0
-30.2788 67.9064 -8.48819 0
-30.0618 67.8668 -8.96912 0
-30.9168 67.9596 -7.48307 0
-30.536 67.9184 -7.9781 0
-30.6062 67.4863 -8.21844 0
-30.9224 67.0866 -8.0089 0
-30.6815 67.0905 -8.54348 0
-32.2136 76.3286 -7.743 0
-31.8745 76.1994 -8.15101 0
-32.2404 76.3083 -6.67369 0
-32.3238 76.2942 -7.21319 0
-31.9529 75.7703 -7.47042 0
-31.3496 75.2178 -6.91272 0
-31.5078 75.1757 -7.52313 0
-31.6027 75.7567 -6.36922 0
-31.1555 67.0404 -7.51278 0
-31.2253 66.6821 -7.88607 0
-31.3883 67.9528 -7.13239 0
-31.231 67.4748 -7.22186 0
-31.2292 69.1333 -6.90144 0
-31.4828 68.4928 -7.11745 0
-30.6664 70.5365 -6.69659 0
-30.9874 69.7923 -6.75168 0
-30.953 71.985 -7.5041 0
-30.6814 71.2573 -6.96855 0
-31.3577 73.3782 -8.19682 0
-31.2227 72.6631 -7.90641 0
-31.0889 72.3534 -7.28147 0
-31.0624 72.766 -6.99734 0
-30.9343 71.9839 -6.50474 0
-31.4347 74.9028 -8.4961 0
-31.3776 74.1634 -8.36761 0
-31.7163 75.5111 -8.36621 0
-31.7704 75.072 -8.1452 0
-31.1718 74.6371 -7.52069 0
-30.8433 73.5089 -7.24801 0
-31.3356 73.7403 -7.87768 0
-30.9089 74.1712 -7.403 0
-30.6489 74.2799 -6.82044 0
-30.622 70.8124 -6.16472 0
-30.9222 71.0726 -6.05894 0
-31.0902 66.337 -8.12083 0
-34.6265 73.8787 -16.6096 0
-33.4572 73.1288 -16.2383 0
-32.638 71.8959 -15.8978 0
-32.4027 72.2711 -15.7636 0
-31.3917 71.4823 -15.0748 0
-30.7083 70.6044 -14.5623 0
-31.0258 69.3875 -14.6327 0
-31.9992 69.266 -14.9682 0
-31.6754 69.4663 -14.7894 0
-30.6501 69.3978 -13.9065 0
-32.4689 70.4336 -15.2778 0
-31.1289 70.0162 -14.6862 0
-30.1217 70.0515 -13.5446 0
-30.6705 69.006 -14.3301 0
-30.0972 68.891 -13.0652 0
-30.3719 68.8951 -13.5874 0
-30.1163 68.041 -12.417 0
-29.6482 67.5086 -10.9386 0
-29.8637 67.4445 -11.6504 0
-29.8512 69.137 -12.471 0
-29.9496 69.0364 -12.7177 0
-29.6837 69.5971 -12.3485 0
-29.5014 68.8668 -10.8946 0
-29.7471 68.2965 -9.98153 0
-29.7016 67.6767 -10.4435 0
-29.5875 67.2797 -9.97693 0
-29.6786 68.2032 -11.2439 0
-29.7103 67.928 -10.1476 0
-29.8385 67.8691 -9.42334 0
-29.9242 67.173 -9.42363 0
-29.7433 66.9377 -9.8079 0
-30.0396 67.494 -9.1701 0
-30.3033 67.1489 -8.98706 0
-30.5984 66.7918 -8.83921 0
-29.8482 68.2161 -14.6421 0
-29.7026 67.2742 -13.1828 0
-30.2524 68.2169 -14.4994 0
-29.7568 66.8621 -12.3249 0
-29.562 66.4742 -11.8596 0
-29.6065 66.1124 -10.8457 0
-29.8579 66.1196 -10.3466 0
-29.8508 65.8196 -10.1147 0
-30.2871 67.8775 -13.5798 0
-29.998 67.3626 -12.9354 0
-30.6028 68.5405 -14.2939 0
-30.162 67.5096 -12.4971 0
-29.6551 67.0498 -11.1441 0
-29.7191 66.4146 -10.5428 0
-29.8443 66.1248 -9.86188 0
-29.7086 66.7712 -11.4433 0
-29.4869 66.7388 -10.74 0
-29.4666 66.7647 -10.2246 0
-30.2255 66.3123 -9.54414 0
-30.4276 65.9989 -9.36512 0
-30.0098 66.6256 -9.69798 0
-30.4879 66.5006 -9.19458 0
-30.8527 66.4383 -8.68768 0
-30.1909 65.5236 -9.52674 0
-30.8362 65.825 -8.87468 0
-30.5196 65.6637 -9.18146 0
-31.0091 66.0797 -8.51219 0
-36.2536 85.6833 11.94 0
-36.4562 85.5869 12.0015 0
-35.2587 85.0514 11.8629 0
-35.7882 85.3967 11.9142 0
-35.8105 85.4859 12.387 0
-35.2865 85.2619 12.8733 0
-35.7472 85.5629 12.8329 0
-33.8273 84.6877 11.4356 0
-34.5889 84.8395 11.6951 0
-32.039 84.5032 10.8241 0
-33.0051 84.7121 11.1467 0
-33.2181 84.5779 11.7385 0
-32.1758 84.482 11.8743 0
-33.1514 84.7373 12.2013 0
-34.6911 85.0996 12.6937 0
-34.6642 85.2569 13.2117 0
-34.7228 84.9472 12.2102 0
-34.0098 84.9346 12.4685 0
-33.1302 84.8977 12.6923 0
-33.9704 85.2813 13.5911 0
-34.645 85.5264 13.7226 0
-32.0981 84.9144 12.9235 0
-33.0986 85.1276 13.2746 0
-33.0855 85.3727 13.8919 0
-32.1625 85.6487 14.0133 0
-33.1455 85.8466 14.3328 0
-30.2324 83.9229 10.0577 0
-31.0963 84.3211 10.5043 0
-28.7505 83.4201 9.089 0
-29.4502 83.6113 9.61169 0
-29.485 83.3718 10.2394 0
-28.5048 83.0946 10.4286 0
-29.3729 83.3733 10.7938 0
-27.6817 83.4161 7.93628 0
-28.1288 83.334 8.51677 0
-26.9623 83.4824 6.77971 0
-27.2601 83.4593 7.35981 0
-26.9191 83.1066 8.19488 0
-26.089 82.9347 8.50856 0
-26.6019 82.6955 9.01513 0
-27.7161 82.8138 10.0325 0
-27.3674 83.1256 10.6124 0
-27.9318 82.972 9.32434 0
-27.1384 82.6931 9.54387 0
-26.239 82.7891 9.66089 0
-26.4323 83.0281 10.7961 0
-27.0366 83.289 11.2491 0
-25.4608 82.9023 9.91715 0
-25.9282 82.9109 10.3322 0
-25.5967 82.9899 11.0725 0
-25.0329 83.3642 11.3002 0
-25.3347 83.1258 11.7875 0
-31.0198 85.1393 13.6673 0
-31.1033 85.6299 14.1741 0
-31.0169 84.5119 12.5475 0
-30.9985 84.7592 13.1547 0
-29.8659 84.6218 13.2878 0
-28.8392 83.9104 13.0138 0
-28.8703 84.2601 13.551 0
-31.2257 84.1891 11.5735 0
-31.1015 84.3101 12.0093 0
-31.3207 84.1211 11.1164 0
-30.2681 83.7698 11.2109 0
-29.1223 83.591 11.3098 0
-28.85 83.7879 12.4498 0
-27.8201 83.3799 12.749 0
-29.9595 84.0854 12.1985 0
-28.9536 83.6504 11.889 0
-27.9833 83.4202 11.5573 0
-26.7042 83.1698 12.4857 0
-26.6066 83.3588 13.0538 0
-26.9013 83.1262 11.8722 0
-25.7797 82.9942 12.1899 0
-25.2296 83.4941 12.3733 0
-30.0398 85.4897 14.3649 0
-31.2748 86.1125 14.7168 0
-27.8614 83.94 13.868 0
-28.9065 84.8016 14.0954 0
-29.0494 85.2958 14.6682 0
-28.0574 85.0214 15.0177 0
-29.2799 85.7531 15.2762 0
-25.3743 83.6835 13.3265 0
-26.6983 83.741 13.5588 0
-24.9476 84.1982 12.4863 0
-25.1051 83.9462 12.886 0
-25.1933 84.6796 13.274 0
-24.8398 85.9035 13.3054 0
-25.3988 85.3945 13.7291 0
-26.8849 84.8898 14.638 0
-27.0964 85.3152 15.2521 0
-26.7876 84.3689 14.0644 0
-25.8961 84.9552 14.2328 0
-25.5601 86.0221 14.2448 0
-26.3586 85.7925 15.479 0
-27.4693 85.804 15.9124 0
-25 87.0815 14.4275 0
-25.7644 86.2766 14.9015 0
-26.0359 86.5444 15.5944 0
-25.7277 87.3573 15.8185 0
-25.9527 86.5919 16.4605 0
-26.3469 83.6177 5.47354 0
-26.6648 83.5638 6.15897 0
-25.8167 83.9942 4.04804 0
-25.9631 83.6832 4.74168 0
-25.6878 83.7444 5.86426 0
-25.3209 84.3878 6.44694 0
-25.496 84.102 7.05742 0
-25.1115 84.6466 2.82621 0
-25.498 84.1349 3.40918 0
-24.7465 85.7385 1.48567 0
-24.7529 85.0608 2.0827 0
-24.5361 85.4573 3.41216 0
-24.4228 86.061 3.89938 0
-24.4797 85.7305 4.5802 0
-25.1591 84.7482 5.78853 0
-24.9056 85.0837 6.80051 0
-25.3521 84.3373 4.49568 0
-24.8679 85.2464 5.11911 0
-24.5141 85.9274 5.56351 0
-24.6815 85.7756 6.98773 0
-24.6522 85.3125 7.58433 0
-24.5437 86.7181 5.79788 0
-24.5759 86.2074 6.37117 0
-24.7104 86.6572 7.14003 0
-24.9421 87.8273 7.26712 0
-24.7743 87.3122 7.85672 0
-25.0585 87.4726 0.803042 0
-24.8829 86.4965 1.01917 0
-24.0583 88.5626 0.108744 0
-24.3645 88.0781 0.551765 0
-24.7433 88.1103 1.2771 0
-24.6435 88.752 1.66194 0
-24.5683 88.0956 2.11294 0
-24.0486 89.8385 -0.739121 0
-24.0205 89.158 -0.328155 0
-24.4824 91.4145 -1.65659 0
-24.2136 90.6118 -1.14574 0
-24.2419 90.2029 -0.433446 0
-24.4612 90.7294 -0.0416766 0
-24.393 90.0383 0.273888 0
-24.6195 89.1976 1.12679 0
-24.5434 89.3117 2.03471 0
-24.2826 89.0272 0.342879 0
-24.4256 89.5229 0.646772 0
-24.5597 90.2798 1.08298 0
-25.0826 89.8327 2.47203 0
-24.9843 89.1321 2.98671 0
-24.8445 91.1732 1.7372 0
-24.9469 90.4674 2.04973 0
-25.6163 90.4942 2.90111 0
-26.1757 91.5052 3.23252 0
-25.9498 90.8909 3.68138 0
-24.9043 88.2778 6.70983 0
-25.3493 88.9736 7.36233 0
-24.4775 86.9964 5.23048 0
-24.5327 87.578 6.02829 0
-25.2085 88.4224 6.14979 0
-25.5102 88.6338 5.65707 0
-25.9661 89.2701 6.26153 0
-24.2391 86.4628 3.12137 0
-24.4068 86.5026 4.31647 0
-24.4906 86.4016 1.92146 0
-24.3606 87.2749 2.56841 0
-24.5192 87.8093 3.06448 0
-25.1757 87.9896 4.93772 0
-25.8489 88.9063 5.09062 0
-24.6731 87.161 4.63795 0
-24.6833 87.6657 4.07956 0
-24.7143 88.2773 3.52411 0
-25.7648 89.5755 4.62653 0
-26.6913 89.952 5.08168 0
-25.2197 89.1875 3.83934 0
-25.732 90.2267 4.15846 0
-27.0043 91.0661 4.21951 0
-26.0266 90.0004 7.42809 0
-25.9662 89.3611 7.92958 0
-27.0417 90.1978 6.32177 0
-26.4476 90.1086 6.87587 0
-27.1245 90.7148 7.46484 0
-28.8224 91.0478 7.43482 0
-28.219 90.8328 7.97698 0
-27.7998 91.056 5.15489 0
-27.3731 90.6084 5.71333 0
-28.3956 91.9751 4.257 0
-28.0966 91.5253 4.70261 0
-29.1751 92.2234 5.31775 0
-30.887 92.7624 5.18545 0
-30.4016 92.4451 5.7472 0
-29.3935 91.4796 6.85316 0
-30.6064 91.6864 7.4226 0
-28.2422 91.2726 6.39999 0
-29.8982 91.9995 6.30068 0
-31.667 92.4606 6.19573 0
-32.4241 92.173 7.50201 0
-31.795 91.8569 8.09598 0
-33.4914 92.6462 6.27352 0
-32.9751 92.3913 6.86751 0
-34.1968 91.7196 7.50868 0
-35.4529 91.8051 7.66955 0
-35.0069 91.1539 8.17798 0
-25.158 88.4982 15.3186 0
-25.7293 88.6156 16.0248 0
-24.42 87.7265 14.0006 0
-24.6056 88.2747 14.6537 0
-25.3874 89.1921 14.7947 0
-25.6752 89.817 14.2666 0
-25.9974 90.1804 14.9472 0
-24.4759 86.4846 12.8874 0
-24.2963 87.1668 13.4213 0
-24.8868 84.7391 12.0663 0
-24.6178 85.625 12.4624 0
-24.6362 86.9991 12.4752 0
-25.078 87.37 12.0795 0
-24.9811 88.236 12.5477 0
-25.4165 89.2955 13.6829 0
-25.8898 90.4101 13.7948 0
-24.8237 88.2628 13.5201 0
-25.1272 88.8286 13.0862 0
-25.4205 89.3495 12.6468 0
-26.3438 90.8751 13.3324 0
-26.6326 91.3738 13.896 0
-25.7698 89.7598 12.1879 0
-26.0369 90.3536 12.7786 0
-26.9719 91.286 12.8255 0
-27.7036 91.6273 12.3147 0
-27.9809 92.1277 12.933 0
-24.8055 83.7594 10.8475 0
-24.9201 84.226 11.4782 0
-25.0129 83.0715 9.48928 0
-24.8852 83.4126 10.1788 0
-24.5684 84.2968 10.4334 0
-24.6144 84.9719 9.94904 0
-24.8051 85.4653 10.5295 0
-25.5776 83.2692 8.01744 0
-25.2427 83.123 8.76357 0
-26.1572 83.4627 7.11233 0
-25.4884 83.6633 7.55234 0
-24.9319 84.1293 7.85189 0
-24.5963 84.6388 9.24568 0
-24.6958 85.5936 9.4616 0
-24.7061 83.6623 8.97952 0
-24.582 84.2788 8.52621 0
-24.6313 84.8201 8.1003 0
-24.7212 86.1647 8.95513 0
-24.9962 86.5049 9.43353 0
-24.688 85.7591 8.2876 0
-24.6888 86.7704 8.42367 0
-25.1903 87.7094 8.41798 0
-27.4111 91.0623 11.7005 0
-28.6044 91.8475 11.8523 0
-25.6685 89.0749 11.6238 0
-26.4737 90.0828 11.6394 0
-27.1933 90.3086 11.0971 0
-26.934 89.6352 10.5923 0
-28.0015 90.5359 10.655 0
-25.2124 86.5622 11.6253 0
-25.4636 87.7842 11.6325 0
-24.8605 85.3756 11.6 0
-25.0053 86.0131 11.1007 0
-25.0465 86.6007 10.585 0
-26.0573 88.6949 10.5882 0
-26.4707 89.1745 10.2192 0
-25.6396 88.3047 11.0952 0
-25.4743 87.6589 10.5699 0
-25.1784 87.037 9.98317 0
-26.0756 88.5336 9.62236 0
-26.8995 89.633 9.79393 0
-25.2805 87.4369 9.37662 0
-25.6051 88.0464 8.91027 0
-25.8867 88.6834 8.43576 0
-29.5255 92.0206 11.4156 0
-29.7836 92.5457 12.045 0
-28.6478 90.9209 10.299 0
-29.1507 91.501 10.8306 0
-30.4134 92.0303 11.0227 0
-31.3171 91.962 10.6578 0
-31.6964 92.4034 11.2932 0
-27.258 90.1613 9.12682 0
-28.0411 90.4581 9.77616 0
-26.704 89.6717 8.45898 0
-27.6096 90.6736 8.49732 0
-29.3195 90.9929 8.52599 0
-30.8311 91.5917 9.94789 0
-32.3726 91.6604 10.2336 0
-29.425 91.0648 9.82626 0
-30.2408 91.2448 9.1921 0
-31.0604 91.4981 8.61568 0
-33.4217 91.4061 9.61904 0
-33.9985 91.3383 10.362 0
-32.665 91.7187 8.88573 0
-34.4171 91.1481 8.85383 0
-35.4729 90.9856 8.91222 0
-25.9955 89.7203 16.2979 0
-25.8515 88.756 16.8298 0
-26.6644 90.9145 15.1532 0
-26.427 90.3128 15.7095 0
-26.6357 90.3898 16.5134 0
-27.1149 90.9481 16.7511 0
-26.8046 90.3363 17.2935 0
-27.391 92.1747 14.1062 0
-26.9464 91.6186 14.613 0
-28.9296 92.842 13.1628 0
-28.1029 92.5324 13.6254 0
-28.1421 92.8964 14.365 0
-28.723 93.6684 14.697 0
-28.0829 93.176 15.164 0
-27.307 91.7977 16.1892 0
-27.4606 91.4874 17.0223 0
-27.2231 91.7365 15.3851 0
-27.557 92.6239 15.6365 0
-28.058 93.15 15.8606 0
-27.8215 91.9352 17.316 0
-27.4626 91.1856 17.9075 0
-28.5604 93.5321 16.0266 0
-28.1504 92.7623 16.668 0
-28.3172 92.1808 17.6683 0
-28.8421 92.3672 18.0512 0
-28.3233 91.6436 18.5881 0
-30.7918 93.0388 12.3884 0
-29.8498 92.9891 12.7633 0
-33.0217 92.1531 11.9147 0
-31.8369 92.7367 12.1308 0
-31.8872 93.1748 12.8681 0
-32.9863 93.4556 13.2304 0
-31.7267 93.881 13.4754 0
-35.2474 91.4141 10.8998 0
-34.1957 91.7884 11.5609 0
-35.6424 91.7133 9.42507 0
-35.5598 91.4031 10.0421 0
-35.8856 91.7863 11.2178 0
-36.0314 92.3036 11.516 0
-36.2372 92.0782 12.2113 0
-34.4122 92.7592 13.0863 0
-34.1103 93.7077 13.5547 0
-34.3381 92.1452 12.4438 0
-35.5783 92.3564 12.6949 0
-36.2812 92.7301 12.9239 0
-34.9706 94.0836 13.8163 0
-33.6569 94.3666 14.1226 0
-36.5273 93.5034 13.0007 0
-36.1448 93.5779 13.6171 0
-35.6122 94.6505 14.1183 0
-36.0322 95.356 14.244 0
-34.9557 95.4586 14.6421 0
-29.3211 93.1461 17.3944 0
-29.2385 92.512 18.4051 0
-29.1721 94.3112 15.6244 0
-29.153 93.7882 16.3158 0
-29.8298 93.9183 16.6951 0
-30.5035 94.6375 16.2661 0
-30.3962 93.8953 17.0947 0
-29.621 93.8818 14.2406 0
-29.3158 94.3347 14.9938 0
-29.8208 93.4418 13.4631 0
-30.5665 94.0194 13.8309 0
-31.4481 94.3262 14.1643 0
-30.5138 95.2629 15.5538 0
-31.2057 95.2933 15.9031 0
-29.8714 95.0166 15.2364 0
-31.0634 94.7797 14.8394 0
-32.3943 94.415 14.4821 0
-32.372 95.3928 15.3843 0
-31.7365 95.3205 16.2232 0
-33.0476 94.925 14.6888 0
-33.5978 95.5831 14.8292 0
-33.7316 96.0488 15.3023 0
-29.6064 92.6155 18.7591 0
-29.0469 91.9488 19.2895 0
-30.9635 93.7692 17.4978 0
-30.227 93.2542 18.1711 0
-29.8345 92.868 19.2084 0
