#!ascii - generated by CreateLabelFiles project 
4315 8329
-27.4654 91.5022 17.0118 0
-27.2236 91.7449 15.3738 0
-27.5602 92.6338 15.6235 0
-28.0637 93.1616 15.8476 0
-27.8292 91.9517 17.3051 0
-27.47 91.2023 17.8972 0
-28.5681 93.5443 16.0141 0
-28.1584 92.7773 16.656 0
-28.3289 92.1979 17.6577 0
-28.8576 92.3839 18.0411 0
-28.3377 91.6613 18.579 0
-30.804 93.0274 12.3771 0
-29.8606 92.9818 12.7491 0
-33.0332 92.1404 11.9065 0
-31.8497 92.7228 12.123 0
-31.8993 93.1637 12.8621 0
-32.9971 93.4438 13.2269 0
-31.7393 93.8728 13.4693 0
-35.2567 91.4009 10.8863 0
-34.2044 91.7758 11.5502 0
-35.6593 91.6981 9.41693 0
-35.5735 91.389 10.03 0
-35.8918 91.7724 11.2045 0
-36.0379 92.2882 11.5062 0
-36.2409 92.0648 12.1965 0
-34.4185 92.7465 13.0806 0
-34.1188 93.6956 13.5513 0
-34.3441 92.1325 12.4355 0
-35.583 92.3425 12.6843 0
-36.2859 92.7169 12.9106 0
-34.9784 94.0718 13.8105 0
-33.6674 94.3575 14.1187 0
-36.5327 93.4892 12.9894 0
-36.1512 93.5658 13.6056 0
-35.6195 94.639 14.1095 0
-36.0389 95.3437 14.2341 0
-34.9651 95.4489 14.635 0
-29.3353 93.1614 17.3841 0
-29.2563 92.5286 18.3961 0
-29.1803 94.3215 15.6123 0
-29.1624 93.8018 16.3044 0
-29.8414 93.9312 16.6851 0
-30.5139 94.6472 16.2575 0
-30.4098 93.9068 17.0865 0
-29.6289 93.8839 14.2291 0
-29.3236 94.3411 14.9816 0
-29.8304 93.4384 13.4508 0
-30.5772 94.0166 13.8215 0
-31.46 94.3234 14.1576 0
-30.5238 95.2685 15.5453 0
-31.216 95.2979 15.8966 0
-29.881 95.0224 15.2258 0
-31.0743 94.7815 14.8322 0
-32.406 94.4116 14.4772 0
-32.3826 95.3918 15.3805 0
-31.7469 95.3241 16.2179 0
-33.0594 94.9201 14.6842 0
-33.6097 95.5766 14.8246 0
-33.7422 96.0427 15.2993 0
-29.626 92.6314 18.7513 0
-29.066 91.9666 19.2818 0
-30.979 93.7781 17.4916 0
-30.2462 93.2671 18.1636 0
-29.8551 92.8846 19.2016 0
-30.196 92.9365 19.6111 0
-29.4619 92.5404 20.2407 0
-32.2248 95.3689 16.5356 0
-31.6285 94.5055 16.9443 0
-33.8614 96.4083 15.7526 0
-33.003 95.8983 16.1532 0
-32.6103 95.1796 16.986 0
-32.5026 94.318 17.9499 0
-30.9512 93.3012 18.9897 0
-30.5006 93.0561 20.0975 0
-31.3594 93.795 17.9495 0
-31.7214 93.8352 18.4589 0
-30.0104 92.8159 21.2083 0
-25.3718 92.3434 -2.56206 0
-24.8701 91.9773 -2.15784 0
-27.1491 92.4797 -3.17192 0
-26.1629 92.4773 -2.89831 0
-25.6453 92.8189 -2.10747 0
-26.1788 93.1455 -1.63052 0
-25.2696 93.0299 -1.23161 0
-29.2476 93.2232 -3.49447 0
-28.1885 92.6011 -3.37017 0
-31.3747 93.7887 -4.25732 0
-30.3304 93.7366 -3.73462 0
-29.8473 93.3706 -2.99478 0
-30.5242 93.2798 -2.57586 0
-29.3999 93.0854 -2.31122 0
-27.131 93.2085 -1.99448 0
-27.0096 93.3365 -1.14446 0
-27.6234 92.8517 -2.70678 0
-28.2471 93.1183 -2.17192 0
-29.1453 93.1373 -1.72442 0
-27.8962 93.5087 -0.66791 0
-26.9774 93.4774 -0.273352 0
-30.1467 93.1785 -1.23127 0
-28.978 93.3345 -1.00264 0
-28.8013 93.9459 -0.235769 0
-29.8505 94.3731 0.120669 0
-28.7561 94.5699 0.494278 0
-33.7344 93.2298 -5.10329 0
-32.4656 93.7616 -4.79238 0
-36.0146 93.003 -6.3423 0
-34.9561 92.8338 -5.52662 0
-34.4433 93.2604 -4.77776 0
-34.9088 93.614 -4.84178 0
-33.8707 93.6481 -4.05798 0
-35.3672 94.3903 -8.40325 0
-36.0952 93.3644 -7.37768 0
-34.3636 97.6482 -8.93661 0
-34.6817 95.9708 -8.77515 0
-34.3351 95.5932 -8.24087 0
-33.6912 97.1066 -7.93211 0
-33.6633 95.5943 -7.66787 0
-35.6556 93.6545 -5.87952 0
-35.285 94.2914 -5.19985 0
-35.8658 93.4256 -6.5899 0
-34.5611 94.3164 -7.04425 0
-32.9338 95.7424 -7.12559 0
-34.0177 95.2398 -5.63005 0
-34.9984 94.8735 -4.4791 0
-31.9545 97.4145 -6.87126 0
-32.4452 96.2839 -6.41643 0
-31.9922 96.8666 -5.60358 0
-31.4129 98.6039 -5.12018 0
-31.6209 97.4247 -4.6692 0
-31.0349 94.0479 -0.164574 0
-30.9564 95.1924 0.172304 0
-31.5634 93.1333 -1.1292 0
-31.2201 93.3117 -0.835243 0
-32.3804 93.5782 -0.387408 0
-33.5087 94.0882 -1.10492 0
-33.4034 95.1992 -0.817566 0
-31.6394 93.5677 -2.95104 0
-31.6886 93.2137 -1.87107 0
-32.0207 93.7265 -3.87613 0
-32.6859 93.6864 -3.50244 0
-33.5114 93.802 -3.33803 0
-33.7021 93.9093 -1.58219 0
-34.8727 94.9598 -2.13977 0
-32.7945 93.2219 -1.33448 0
-33.517 93.6346 -2.31208 0
-34.3219 94.1339 -3.34721 0
-35.1886 95.714 -3.33113 0
-35.3308 96.7865 -3.03525 0
-35.1211 95.1409 -3.8274 0
-33.3386 96.2052 -4.06093 0
-30.4749 97.7488 -4.1818 0
-32.2404 96.1475 0.216262 0
-31.4249 95.8737 0.658848 0
-34.6801 97.1603 -1.45675 0
-33.4396 96.5155 -0.48586 0
-33.8413 97.2969 0.16143 0
-34.7014 98.8564 0.19718 0
-34.4366 98.5046 0.955112 0
-32.0724 96.9657 -2.56128 0
-34.697 97.5938 -2.41046 0
-32.974 98.9012 -0.609194 0
-33.8472 98.1608 -1.6409 0
-33.3459 98.861 -8.36015 0
-33.1291 98.6586 -7.15295 0
-33.6191 98.6775 -7.90216 0
-33.4977 98.618 -7.55927 0
-33.7764 98.7963 -8.29381 0
-36.4871 93.672 12.2968 0
-35.6136 92.6034 10.8366 0
-36.1181 93.093 11.6188 0
-35.5401 92.1165 8.85977 0
-35.4782 92.4054 9.86096 0
-35.1288 93.0344 10.3264 0
-34.625 93.6602 9.94992 0
-35.8256 92.4908 7.22497 0
-35.8724 91.808 7.83147 0
-33.9323 92.9759 5.74374 0
-35.0719 92.8967 6.5068 0
-36.0477 93.157 6.76942 0
-36.3961 93.6057 6.30419 0
-36.1171 93.2957 6.96085 0
-31.2402 93.3232 4.78101 0
-32.6167 93.0385 5.11271 0
-28.5004 92.7247 4.01501 0
-29.9266 93.0667 4.36238 0
-31.5104 93.8946 4.50106 0
-31.695 94.4881 4.40239 0
-33.152 94.215 4.70049 0
-35.7074 93.7095 5.54986 0
-36.6651 94.0572 5.78985 0
-34.2659 93.3641 5.30823 0
-34.5235 93.9526 5.14769 0
-34.6011 94.6606 5.08035 0
-36.6508 94.8468 5.76932 0
-36.3236 94.7357 6.31936 0
-34.696 95.4831 5.19595 0
-35.9589 95.1671 5.49837 0
-36.5018 95.8998 5.88613 0
-25.9997 92.239 2.98233 0
-27.1525 92.4852 3.51164 0
-24.8661 91.8545 1.35384 0
-25.2001 91.9975 2.42376 0
-26.2256 92.8004 2.63692 0
-26.3822 93.4154 2.25416 0
-27.4933 93.5349 2.76612 0
-24.5031 91.6168 -0.401874 0
-24.6466 91.6926 0.403832 0
-24.6188 91.8338 -1.28448 0
-24.9243 92.3094 -0.796973 0
-25.4871 92.7376 -0.295663 0
-25.5375 93.3961 1.58182 0
-26.5289 94.0964 1.90626 0
-25.0492 92.6103 0.963483 0
-25.538 92.9263 0.60494 0
-26.1801 93.2348 0.176905 0
-27.0442 94.5141 1.49196 0
-27.8616 94.7345 2.20942 0
-26.8119 94.0632 0.612684 0
-27.7547 94.7492 0.977923 0
-29.2083 95.0478 1.05122 0
-36.0698 97.1078 5.41383 0
-33.3776 95.7024 4.77162 0
-34.8264 96.4096 5.35651 0
-35.004 97.3991 4.90553 0
-33.5841 97.6084 4.01298 0
-35.2587 98.4393 4.30194 0
-30.228 94.2595 3.98927 0
-31.8723 95.0677 4.30566 0
-28.6199 93.4443 3.76897 0
-28.7608 93.9438 3.44145 0
-28.9007 94.4646 3.18778 0
-31.9841 96.536 3.6892 0
-32.32 96.989 3.28542 0
-31.9498 95.7034 4.02339 0
-30.4307 95.4108 3.55169 0
-29.0637 95.0186 2.89976 0
-31.2177 95.953 2.66825 0
-32.7123 97.2781 2.85318 0
-29.4209 95.3988 2.49432 0
-30.0682 95.435 1.85478 0
-30.7294 95.5846 1.16749 0
-35.4948 99.1674 3.77612 0
-36.3323 98.9465 4.70904 0
-33.2139 97.6345 2.22688 0
-34.3081 98.6479 3.12566 0
-32.2343 96.6731 1.29637 0
-33.6312 98.0998 1.57038 0
-35.0226 99.8686 1.92001 0
-35.7428 99.7686 3.2568 0
-34.8831 93.3766 8.99741 0
-35.5463 92.6222 8.36984 0
-35.5249 93.2764 7.97858 0
-35.3094 93.8774 7.62333 0
-35.3106 94.693 7.36473 0
-33.9183 68.1196 32.0568 0
-32.577 66.6778 32.6005 0
-32.5748 67.5545 32.2683 0
-34.5692 71.2786 30.8383 0
-34.0739 71.5021 30.554 0
-34.5267 72.2859 30.1716 0
-35.2747 74.1478 29.5116 0
-34.9775 74.9002 29.0562 0
-34.9385 73.1817 29.7383 0
-34.2217 73.0525 29.6677 0
-34.1923 74.6586 28.8137 0
-34.1778 75.3377 28.7376 0
-33.3949 73.0428 29.4359 0
-33.7878 73.7389 29.1664 0
-33.0988 74.3305 28.5527 0
-32.0112 74.4723 28.3121 0
-32.0178 75.0343 28.2403 0
-33.2502 68.7114 31.8321 0
-33.7875 69.1238 31.7887 0
-31.9582 67.9822 31.8269 0
-32.6036 68.371 31.9041 0
-32.5356 69.2027 31.5933 0
-31.7549 69.602 31.1493 0
-32.3079 70.0401 31.359 0
-30.7464 67.1932 31.5576 0
-31.3417 67.5635 31.6631 0
-29.2941 68.112 31.0598 0
-29.9438 68.4365 31.0826 0
-31.2375 69.1272 30.7911 0
-30.9803 69.9284 30.5486 0
-31.3248 68.3287 31.1887 0
-30.6045 68.7524 30.8478 0
-29.7244 69.1804 30.6917 0
-30.0377 70.3248 30.3698 0
-30.6046 70.7359 30.4431 0
-28.8813 69.5807 30.2 0
-29.4532 69.9298 30.3085 0
-29.1666 70.5978 29.6743 0
-28.3678 70.8706 28.956 0
-28.8593 71.245 29.053 0
-31.6735 73.8889 28.6234 0
-30.894 74.6869 28.0564 0
-32.8866 72.3687 29.662 0
-32.4432 73.0832 29.1328 0
-31.3382 73.4047 28.8586 0
-30.8191 73.0638 29.2379 0
-30.2455 73.668 28.4362 0
-33.5024 70.8861 30.9116 0
-33.2783 71.6303 30.2122 0
-33.6386 70.0173 31.5108 0
-32.8898 70.4267 31.2751 0
-32.0257 70.8443 31.0059 0
-31.3546 72.4187 29.9629 0
-30.3901 72.5543 29.2383 0
-32.373 71.9636 30.0446 0
-31.7287 71.641 30.4993 0
-31.1351 71.2069 30.5965 0
-29.943 72.0616 29.185 0
-29.4503 72.6608 28.4738 0
-30.27 71.4302 29.9025 0
-29.3969 71.6534 29.1248 0
-28.5452 71.819 28.3653 0
-29.8141 74.7299 27.4268 0
-29.8227 75.2177 27.432 0
-29.2301 73.7239 27.6599 0
-29.5562 74.2315 27.5505 0
-28.622 74.9197 27.1745 0
-27.3901 75.1352 26.9622 0
-27.5777 75.7282 26.8814 0
-28.5191 72.8123 27.7452 0
-28.8949 73.2463 27.7389 0
-27.654 71.9919 27.6144 0
-28.1339 72.391 27.7063 0
-27.5652 72.9553 27.0673 0
-26.6917 73.0451 26.2497 0
-26.9249 73.5096 26.4483 0
-27.1416 74.5707 26.93 0
-26.4488 75.268 26.1792 0
-28.039 73.9095 27.3619 0
-27.0306 74.0358 26.7165 0
-26.1241 74.1502 25.9325 0
-25.8611 75.331 25.3263 0
-26.0424 75.9163 25.3597 0
-25.5232 74.2062 25.0032 0
-25.6801 74.7691 25.1804 0
-25.3083 75.4296 24.4348 0
-24.8165 75.5227 23.5772 0
-24.9901 75.986 23.7684 0
-31.6304 88.935 24.8339 0
-30.7837 89.6258 24.5459 0
-32.0004 88.0509 24.9842 0
-32.4552 87.118 24.8571 0
-31.3911 87.8798 25.271 0
-33.3437 86.3095 24.7937 0
-32.862 86.2153 24.779 0
-33.2092 85.328 24.9741 0
-32.2832 86.0996 25.1563 0
-36.3041 82.7501 26.548 0
-35.9578 83.0972 25.9883 0
-34.0276 84.5109 25.1523 0
-33.6226 84.4984 24.9825 0
-35.0713 83.7253 25.5187 0
-35.6672 82.9856 25.4766 0
-34.2832 83.8245 24.7014 0
-33.3244 84.5397 24.7398 0
-35.8126 82.5555 25.2375 0
-35.2929 83.1308 24.8447 0
-34.8578 83.2658 24.3093 0
-35.2215 82.8655 23.6455 0
-34.3831 83.3827 23.5908 0
-35.7277 82.3117 24.0987 0
-35.1357 82.3954 23.3242 0
-36.0437 82.1818 25.7452 0
-35.958 82.1731 24.9348 0
-35.7616 81.9549 24.6465 0
-35.0301 81.915 25.4594 0
-35.2007 81.6385 24.5984 0
-35.9723 82.4265 26.5168 0
-34.3548 82.7046 27.8259 0
-34.8658 81.9972 26.4214 0
-33.6841 82.0483 26.4569 0
-35.5885 82.1385 26.4458 0
-34.6123 82.3331 27.1487 0
-33.2967 82.567 27.8628 0
-32.1196 82.3192 27.4457 0
-32.4053 82.1182 26.5986 0
-32.112 82.5629 28.754 0
-32.1508 82.369 28.1091 0
-31.0188 82.1136 28.4032 0
-30.4054 81.347 29.2686 0
-30.2189 81.4494 28.6596 0
-30.5337 81.4277 29.8758 0
-30.2728 80.1666 30.0889 0
-30.737 81.573 30.3598 0
-30.433 79.1239 30.7024 0
-30.1422 79.1031 30.1927 0
-30.9279 77.2418 31.231 0
-34.9177 81.7438 23.1548 0
-34.4959 82.0893 22.8451 0
-34.1971 81.3803 24.7883 0
-35.0463 81.362 23.808 0
-34.7261 80.9813 22.9943 0
-34.4561 80.1876 22.8875 0
-34.545 80.4555 22.2504 0
-31.174 82.0931 26.8143 0
-32.6341 81.8111 25.8095 0
-29.9 80.5326 28.8813 0
-30.0031 81.7334 27.9958 0
-30.1153 81.6091 27.1974 0
-29.5353 80.8364 27.3837 0
-30.2328 81.4878 26.3392 0
-33.3256 80.5558 24.0262 0
-33.6248 79.8634 22.8517 0
-32.9625 81.2789 24.9771 0
-31.6694 81.4287 25.0752 0
-30.385 81.5835 25.2672 0
-32.5466 79.7016 23.0488 0
-33.7994 79.3058 21.6873 0
-29.2724 81.4765 25.5304 0
-30.8424 80.8223 24.2132 0
-31.4377 79.5176 23.4485 0
-30.3154 79.4762 23.6551 0
-31.7434 78.8912 22.2297 0
-30.2077 78.1703 30.1865 0
-29.9364 79.4426 29.5854 0
-31.6579 76.9027 30.6379 0
-30.5981 77.2322 30.6821 0
-30.2864 77.343 30.11 0
-30.7955 76.9811 29.6244 0
-30.1742 77.892 29.3774 0
-32.8286 76.8415 30.4934 0
-34.3307 75.7783 29.4875 0
-31.7761 76.4895 29.6405 0
-31.052 76.5247 29.2575 0
-32.4013 76.5561 30.0457 0
-33.2226 76.1846 29.3616 0
-33.8584 75.7515 28.8386 0
-31.5203 76.1117 28.7932 0
-30.2535 76.8009 28.8689 0
-32.8797 75.6057 28.6579 0
-31.8218 75.5905 28.392 0
-30.7684 75.7196 28.0618 0
-28.8193 80.4795 24.6628 0
-29.1667 79.4689 23.7297 0
-28.7176 80.7213 26.5915 0
-28.4672 80.8489 25.8973 0
-27.8526 80.152 26.1412 0
-27.8848 79.2451 26.8766 0
-27.3885 79.3395 26.2824 0
-29.35 80.1099 28.1344 0
-29.008 80.4358 27.3446 0
-29.6984 79.7603 28.9375 0
-29.8375 79.0375 28.7591 0
-29.7526 78.3028 28.6695 0
-28.4351 79.0477 27.3915 0
-28.1514 78.3966 27.3577 0
-28.912 79.6824 27.2886 0
-29.1713 78.6184 27.9758 0
-29.6946 77.7015 28.4433 0
-28.6946 77.3082 27.8092 0
-27.9145 77.7362 27.2373 0
-29.4545 77.0104 28.3538 0
-29.6244 76.4042 27.9948 0
-29.7682 75.7408 27.4832 0
-28.1025 79.0919 23.8544 0
-29.4993 78.4665 22.6181 0
-26.8661 78.6252 26.2105 0
-27.2105 79.2312 25.0518 0
-27.0805 78.7173 23.8918 0
-26.315 78.2911 23.8923 0
-27.0937 78.5575 22.8702 0
-27.793 77.0484 27.0724 0
-27.2286 77.8667 26.7046 0
-28.7944 75.9632 27.0907 0
-27.7196 76.3721 26.9252 0
-26.8398 76.5273 26.3407 0
-26.1432 77.8095 24.8276 0
-25.8376 77.6492 23.9423 0
-26.5288 77.9675 25.924 0
-26.3042 77.2386 25.6353 0
-26.2532 76.5398 25.4308 0
-25.446 77.023 23.9746 0
-25.8174 77.7333 22.934 0
-25.6618 76.5114 24.6586 0
-25.172 76.4559 23.9295 0
-24.7361 76.7891 22.9859 0
-29.248 92.3415 21.833 0
-29.5089 90.9031 24.4258 0
-29.3619 91.5244 24.0872 0
-30.2818 89.3566 24.4716 0
-29.93 90.1516 24.413 0
-29.1751 90.5521 24.2409 0
-28.8076 90.1754 24.064 0
-28.8357 90.8014 23.4751 0
-28.8798 91.8687 22.5091 0
-29.0148 92.1399 21.3567 0
-28.8717 91.7723 23.5997 0
-28.6376 91.4366 23.1367 0
-28.4186 91.0917 22.6775 0
-28.7747 91.9153 20.9095 0
-28.0372 90.76 22.4063 0
-28.2201 91.3197 21.6513 0
-28.6253 91.6189 20.3788 0
-28.5008 91.3297 19.9297 0
-30.8556 87.6533 25.2727 0
-30.5591 88.5016 24.9179 0
-31.7563 85.9345 25.1847 0
-31.3138 86.7875 25.2799 0
-30.4212 87.3906 24.9689 0
-29.8614 87.065 24.8448 0
-29.4756 87.8554 24.6833 0
-32.9103 84.4146 24.3701 0
-32.3249 85.1692 24.8176 0
-33.8466 83.097 23.2326 0
-33.4848 83.7202 23.8618 0
-32.5091 84.2015 24.0086 0
-31.9509 83.7691 23.8476 0
-31.4433 84.5634 24.264 0
-30.3107 86.2632 24.809 0
-29.2955 86.6893 24.7828 0
-31.3777 85.7732 24.7327 0
-30.8405 85.4252 24.5801 0
-30.4207 84.9806 24.4336 0
-29.0204 86.2079 24.749 0
-28.5922 87.012 24.7217 0
-30.106 84.6209 24.1421 0
-29.4795 85.4455 24.4716 0
-28.8026 85.7778 24.4742 0
-28.6234 85.4436 23.8508 0
-28.1195 86.0426 24.1687 0
-27.8836 90.731 20.6712 0
-28.175 91.1642 19.5336 0
-28.0122 90.0912 23.1574 0
-27.7792 90.4436 21.9881 0
-27.7086 90.0199 21.4795 0
-27.5722 89.3718 22.3186 0
-27.5632 89.8834 20.9354 0
-28.9767 89.4574 24.3157 0
-28.3954 89.8041 23.938 0
-29.7299 89.0145 24.4891 0
-29.1899 88.6629 24.4781 0
-28.6061 88.2975 24.5019 0
-28.0694 89.0284 23.2944 0
-27.8638 88.6609 22.9161 0
-28.185 89.4171 23.6432 0
-28.3523 88.6945 24.0164 0
-28.456 87.8773 24.3177 0
-27.9824 87.86 23.5133 0
-27.5463 88.2866 22.5138 0
-28.2723 87.4123 24.365 0
-28.0216 86.896 24.0733 0
-27.663 86.3984 23.5341 0
-27.9071 90.9816 19.13 0
-27.3833 89.7672 20.3575 0
-27.6085 90.4022 19.7361 0
-27.482 90.7574 18.7786 0
-27.09 90.497 18.445 0
-27.2994 87.9946 21.9035 0
-27.2992 88.9875 21.092 0
-27.4063 86.0431 22.9307 0
-27.3603 86.9875 22.5663 0
-26.8446 87.6854 21.1948 0
-26.4016 87.2714 20.52 0
-26.4304 88.3511 19.9465 0
-26.8171 89.9203 18.9431 0
-26.7985 90.1419 18.1007 0
-26.9183 89.6008 19.8833 0
-26.5089 89.2835 19.4494 0
-26.3173 88.6914 19.0116 0
-26.4281 89.689 17.8166 0
-26.2305 87.6573 18.7425 0
-26.2062 88.7907 18.2982 0
-26.0205 88.7521 17.5846 0
-25.7869 87.4425 17.4175 0
-34.0638 81.561 22.448 0
-34.0655 82.4278 22.635 0
-34.0554 80.1091 21.5945 0
-34.0571 80.7207 22.197 0
-33.458 80.9686 22.301 0
-32.9938 80.7902 21.7503 0
-32.7784 81.2883 22.4378 0
-33.5289 79.3557 20.6957 0
-33.8127 79.6559 21.1314 0
-31.6501 78.9858 20.9875 0
-32.6186 79.1934 20.7935 0
-33.1721 79.3893 19.9689 0
-32.7586 79.4298 19.3437 0
-33.0843 79.6532 19.7218 0
-33.1881 80.2909 20.9766 0
-32.5879 80.7415 21.1496 0
-33.6609 79.9418 20.9045 0
-33.3619 79.8972 20.1548 0
-32.8256 79.9159 19.6129 0
-31.9713 80.6314 20.7116 0
-31.9495 81.1879 21.3841 0
-31.9895 79.9996 19.3052 0
-32.0442 80.2383 19.9753 0
-31.304 80.6875 20.3529 0
-30.6218 81.1524 20.032 0
-30.8137 81.39 20.4704 0
-29.5095 78.1791 21.5091 0
-30.6307 78.482 21.3045 0
-27.3125 78.1439 21.8259 0
-28.3426 78.0452 21.6959 0
-29.3226 78.333 20.5681 0
-28.974 78.5877 19.7763 0
-29.9933 78.5706 19.7028 0
-25.8627 77.6633 21.9702 0
-26.5076 78.0103 21.8926 0
-24.5989 76.7968 22.0393 0
-25.202 77.2584 22.0403 0
-25.8482 77.4031 20.9433 0
-25.5245 77.1116 19.656 0
-26.1863 77.7395 19.7693 0
-27.9224 78.4237 19.9455 0
-28.268 78.9283 19.1295 0
-27.3311 78.049 20.8709 0
-27.0636 78.1414 19.9818 0
-26.8259 78.3946 19.0488 0
-27.6383 79.355 18.5362 0
-28.6493 79.4681 18.7505 0
-26.6049 78.171 18.0795 0
-26.8886 79.1156 18.4341 0
-27.2375 79.6876 17.8916 0
-27.225 79.4199 16.9495 0
-27.9695 80.123 17.2684 0
-30.4983 81.0782 19.522 0
-30.3876 81.9447 19.7828 0
-31.5807 79.7973 19.0853 0
-31.282 80.5155 19.1371 0
-30.6818 81.3219 18.9797 0
-30.4088 81.4603 18.6322 0
-30.2242 82.4457 18.8229 0
-31.8861 78.9453 19.4149 0
-31.9077 79.4164 19.1892 0
-31.3869 78.6458 20.1233 0
-30.9658 78.4948 19.5434 0
-30.2794 78.9772 19.3012 0
-30.4399 80.5759 18.7774 0
-29.7636 81.5654 18.5488 0
-31.1096 79.6286 19.0241 0
-30.4348 79.6792 19.0021 0
-29.5936 79.678 18.9965 0
-29.2795 81.1612 18.0941 0
-29.3307 82.1651 17.994 0
-28.8804 80.2985 18.4227 0
-28.5095 80.7297 17.7416 0
-28.3023 80.9904 16.9572 0
-30.4096 83.1143 19.5448 0
-30.4004 82.853 20.0296 0
-30.4667 83.2688 18.3729 0
-30.5832 83.2059 18.9263 0
-30.9246 83.8249 19.1367 0
-31.268 84.5351 18.6513 0
-31.2574 84.4585 19.35 0
-29.1649 82.7267 17.4682 0
-29.8501 83.0993 17.9327 0
-28.1816 80.8462 16.2996 0
-28.6023 81.9129 16.7964 0
-29.3284 82.7196 16.8083 0
-29.69 82.4981 16.0927 0
-30.0742 83.5929 16.7524 0
-31.1756 84.5812 17.9627 0
-31.5565 85.2694 18.0771 0
-30.6056 83.8509 17.8883 0
-30.6094 84.3147 17.3081 0
-30.7189 84.4691 16.6751 0
-31.7824 85.5504 17.5164 0
-31.9963 85.8618 18.2216 0
-30.9637 84.0768 16.0817 0
-31.4239 85.0424 16.8236 0
-32.0972 85.4881 16.9589 0
-32.5171 84.8555 16.4228 0
-32.8173 85.5821 17.087 0
-26.2911 86.6284 17.8623 0
-25.9816 86.5862 17.1924 0
-26.4665 86.9857 19.1446 0
-26.4307 86.8479 18.4972 0
-26.9636 86.6021 18.1852 0
-27.7823 86.7958 18.4762 0
-27.7796 86.4882 17.849 0
-26.5714 86.285 20.9525 0
-26.5474 86.9105 19.9113 0
-27.9926 85.5991 22.8501 0
-27.4 85.9887 22.1129 0
-27.1534 85.8088 21.2754 0
-27.7769 85.5249 21.4017 0
-27.4248 85.8828 20.565 0
-27.6484 86.7812 19.0863 0
-28.5799 86.9512 18.7593 0
-27.031 86.7633 19.4524 0
-27.4195 86.2979 19.7674 0
-28.2237 86.4138 20.0266 0
-29.3103 87.0504 18.9974 0
-29.4643 86.9243 18.3851 0
-29.0297 86.5884 20.2116 0
-29.1698 86.9524 19.5935 0
-29.9751 87.0452 19.1411 0
-30.57 86.8998 19.2295 0
-30.8073 87.0482 18.6805 0
-29.406 85.0636 23.4738 0
-28.7741 85.4085 23.1941 0
-30.6501 83.8598 23.7874 0
-29.9321 84.4069 23.724 0
-29.8558 84.3389 23.098 0
-30.1301 83.5616 22.7595 0
-29.6646 84.1948 22.453 0
-32.3456 82.9624 23.3976 0
-31.4683 83.4057 23.6131 0
-33.2085 82.6897 22.9986 0
-32.5726 82.1136 22.9418 0
-31.9679 81.6321 22.6333 0
-30.6614 82.8498 22.7674 0
-30.4753 82.9233 22.2017 0
-30.9558 83.009 23.2933 0
-31.1998 82.0769 22.7861 0
-31.6102 81.6177 22.0828 0
-30.8659 82.3084 21.6171 0
-30.3846 83.0338 21.6038 0
-31.4027 81.6831 21.5417 0
-30.8723 81.8176 21.0602 0
-30.327 82.0746 20.61 0
-30.3872 86.66 19.7724 0
-31.1747 87.0713 19.3135 0
-28.7121 85.692 20.6731 0
-29.6642 86.4174 20.2688 0
-30.2248 86.0723 20.2377 0
-29.9429 85.1979 20.5737 0
-30.8234 85.8599 20.1916 0
-28.489 85.1063 21.7642 0
-28.2371 85.1083 21.1863 0
-28.7356 85.2882 22.4864 0
-29.1931 84.7725 22.1034 0
-29.5232 84.1691 21.7945 0
-29.0329 84.4424 20.8827 0
-29.7924 84.41 20.8682 0
-28.5649 84.7219 20.9927 0
-29.2683 84.2049 21.2824 0
-29.8731 83.6761 21.5193 0
-30.2206 83.7696 21.0345 0
-30.5291 84.4093 20.8041 0
-30.0513 83.242 21.1525 0
-30.1972 82.9039 20.7994 0
-30.3161 82.8049 20.4115 0
-31.7233 86.9676 19.2743 0
-31.9414 87.4545 18.8428 0
-31.3489 85.7615 20.0835 0
-31.5316 86.3752 19.6983 0
-32.1772 86.848 19.12 0
-32.5158 86.748 18.8041 0
-32.6972 87.2345 18.427 0
-30.8912 84.3981 20.4966 0
-31.1056 85.1143 20.3964 0
-30.4528 83.6843 20.3009 0
-31.1376 84.3988 20.0126 0
-31.6885 85.2197 19.5254 0
-32.2442 86.4091 19.2013 0
-32.7333 86.7325 18.4724 0
-31.8072 85.7322 19.8916 0
-32.0407 85.9383 19.5227 0
-32.1111 86.037 18.9404 0
-32.9014 86.2495 18.2235 0
-33.4018 86.4248 18.0525 0
-32.5395 86.0067 18.3703 0
-32.9552 85.8366 17.7967 0
-33.5445 85.5043 17.1797 0
-26.7754 86.2459 16.8671 0
-28.7695 86.505 17.5297 0
-27.8551 86.2053 17.1794 0
-27.7707 86.1505 16.5318 0
-28.6018 85.9043 16.2512 0
-30.3457 87.0818 17.9856 0
-29.641 86.9419 17.7973 0
-31.6892 87.4145 18.3121 0
-31.0438 87.214 18.1587 0
-31.2459 87.3685 17.6328 0
-32.1059 87.3763 17.2748 0
-31.4195 87.193 17.0363 0
-29.8419 86.8297 16.455 0
-29.58 86.3899 15.8644 0
-29.7244 86.7352 17.1502 0
-30.6329 87.2105 16.758 0
-31.5391 87.1634 16.3959 0
-30.5084 86.5928 15.488 0
-32.4331 87.1066 15.9343 0
-31.7189 87.186 15.5992 0
-31.5003 86.6429 15.0814 0
-32.4377 86.6602 14.8229 0
-32.7505 87.5032 18.3921 0
-32.2123 87.5775 18.3885 0
-33.5622 87.0189 18.0229 0
-33.1908 87.3007 18.2408 0
-33.5637 87.3361 17.9116 0
-34.2868 87.0102 17.5257 0
-33.8304 87.2402 17.5468 0
-34.2509 85.9872 17.7678 0
-33.9544 86.5034 17.9405 0
-33.9965 85.0946 16.5581 0
-34.1907 85.5776 17.1965 0
-34.7362 85.5734 17.2442 0
-35.1216 85.1971 16.6968 0
-35.1788 85.6697 17.1818 0
-34.7062 86.7591 17.4839 0
-34.945 86.7143 17.168 0
-34.3607 86.6021 17.7522 0
-35.0623 86.3109 17.3967 0
-35.5159 85.854 16.9846 0
-35.5249 86.4828 16.8288 0
-35.1212 86.7287 16.8272 0
-36.0892 85.315 16.6909 0
-35.979 85.9316 16.899 0
-36.0747 86.003 16.5808 0
-36.3968 85.5728 16.2245 0
-36.0065 86.0934 16.1911 0
-33.3479 86.979 14.8867 0
-33.2249 86.5262 14.5568 0
-33.0408 86.9398 16.2921 0
-33.1895 86.9881 15.5676 0
-33.8912 86.8078 15.2577 0
-34.3476 86.6411 15.5525 0
-34.4755 86.7199 14.8845 0
-32.7351 87.5128 17.4469 0
-32.9267 87.187 16.9031 0
-32.5099 87.6845 17.938 0
-33.319 87.4563 17.55 0
-34.1078 87.1144 17.1833 0
-34.2806 86.7671 16.1736 0
-34.8248 86.647 15.7746 0
-33.6458 86.9563 16.5433 0
-34.2319 86.9408 16.7185 0
-34.7203 86.8943 16.8152 0
-35.3185 86.6788 15.9596 0
-35.3502 86.561 15.3666 0
-35.2864 86.7678 16.4674 0
-35.6699 86.5354 16.1077 0
-35.8632 86.1367 15.6717 0
-34.0117 86.1936 14.3645 0
-35.1079 86.6093 14.498 0
-34.6993 86.6896 14.2413 0
-34.6897 86.1076 14.0159 0
-35.31 86.0149 13.5987 0
-35.6631 86.3201 14.845 0
-35.4349 86.4874 14.7027 0
-36.1882 85.7785 15.0192 0
-35.9169 86.1085 14.979 0
-36.0899 86.2418 14.2486 0
-36.5023 85.7341 13.6851 0
-36.2155 86.0549 13.6628 0
-35.6924 86.2343 13.4922 0
-35.6659 85.7129 13.2028 0
-35.5945 86.5023 14.0247 0
-35.9528 86.1996 13.5804 0
-36.3099 85.7614 13.134 0
-36.121 85.7912 12.6996 0
-36.5735 85.3683 12.7144 0
-36.3183 85.6605 12.6816 0
-36.3855 85.5863 12.3287 0
-36.616 85.3771 11.9182 0
-36.7612 85.0832 11.8124 0
-36.849 85.3117 11.4086 0
-36.8003 85.0342 12.7147 0
-36.7022 84.9352 12.2706 0
-36.8289 84.746 11.755 0
-36.5244 84.2382 11.754 0
-36.369 84.3387 11.3735 0
-36.7733 85.1864 13.6741 0
-36.8588 85.1151 13.175 0
-36.3769 85.2628 14.8542 0
-36.6068 85.2512 14.2064 0
-36.6739 84.6727 13.5898 0
-36.3368 84.0571 13.4178 0
-36.5802 84.1151 12.9679 0
-36.6697 84.2023 12.11 0
-36.1988 83.6746 11.6675 0
-36.7899 84.6503 12.6431 0
-36.6333 84.1665 12.5366 0
-36.269 83.5012 12.4482 0
-35.9211 82.8653 11.5337 0
-35.7937 82.8397 11.1518 0
-35.8352 82.6132 12.2979 0
-35.9761 82.8554 11.9177 0
-35.6427 81.8002 11.3105 0
-35.2817 80.6316 11.0197 0
-35.244 80.5913 10.6356 0
-36.249 85.1491 15.8554 0
-36.094 85.298 15.3801 0
-35.8083 84.7303 16.3025 0
-36.1136 84.9265 16.1428 0
-35.8382 84.5247 15.3639 0
-35.3963 83.7802 14.8703 0
-35.6372 83.9 14.6307 0
-34.8101 84.8554 15.9531 0
-35.3231 84.7432 16.1792 0
-33.6264 84.4971 15.8977 0
-34.2459 84.7782 15.8586 0
-34.1525 84.2224 15.3206 0
-33.3506 83.1445 14.9686 0
-33.9798 83.4872 14.9014 0
-35.0104 83.7908 14.8768 0
-34.7643 82.7544 14.5415 0
-35.3079 84.2512 15.6442 0
-34.5815 83.7698 14.8489 0
-33.9193 82.3772 14.8246 0
-34.2147 81.453 14.4016 0
-34.5178 81.6725 14.1206 0
-33.4142 81.0141 14.8151 0
-33.8296 81.237 14.584 0
-34.0042 80.1752 14.2108 0
-33.524 79.1889 13.691 0
-33.7472 79.4227 13.4358 0
-35.2537 80.7338 11.4095 0
-34.6113 79.5855 10.6451 0
-35.6935 82.3606 12.6833 0
-35.483 81.5553 12.0527 0
-34.8129 80.577 11.7277 0
-34.3896 80.4053 12.053 0
-34.0574 79.6139 11.3301 0
-36.0767 83.9683 13.8916 0
-35.8896 83.2049 13.2768 0
-36.2257 84.6858 14.5868 0
-35.8517 83.9441 14.2908 0
-35.4119 82.9798 14.0198 0
-34.7695 81.2123 12.7468 0
-34.1676 80.185 12.405 0
-35.4381 82.197 13.0549 0
-35.1576 82.0065 13.4388 0
-34.85 81.8401 13.788 0
-33.9294 79.9676 12.7785 0
-33.5666 79.2406 11.9248 0
-34.2575 80.7742 13.5065 0
-33.7932 79.7141 13.0936 0
-33.1984 78.8155 12.4188 0
-33.836 78.6106 10.2525 0
-34.0625 78.4519 9.90316 0
-33.5433 78.6294 10.8772 0
-33.7401 78.7638 10.6058 0
-33.3073 77.6149 9.81603 0
-33.0194 76.4714 9.78432 0
-33.0076 76.3174 9.54435 0
-33.2856 78.2554 11.3243 0
-33.3633 78.443 11.1198 0
-33.3246 77.9109 11.6768 0
-33.1095 78.0579 11.5306 0
-33.3023 77.2682 10.7666 0
-33.7175 76.3335 10.5981 0
-33.4164 76.4719 10.4326 0
-33.1752 76.6946 10.0015 0
-32.8927 75.4874 9.84361 0
-33.2535 77.6319 10.4059 0
-33.2667 76.624 10.2313 0
-33.4658 75.6555 10.1832 0
-32.1582 74.8123 10.1988 0
-31.8011 74.6803 10.0698 0
-33.0738 74.8265 10.3468 0
-32.7041 74.8751 10.2121 0
-31.6868 74.2037 10.5252 0
-31.1343 73.8609 11.0923 0
-30.5307 73.8899 11.1423 0
-31.9756 83.8654 15.7238 0
-32.8846 84.1415 15.9173 0
-30.3387 82.6678 15.5443 0
-31.0565 83.4258 15.5476 0
-31.1072 82.5993 15.1124 0
-30.4322 80.9635 14.8897 0
-31.2109 81.6179 14.9733 0
-28.8266 81.0534 15.5201 0
-29.6245 81.8501 15.5402 0
-27.8834 79.4863 16.0167 0
-28.3411 80.207 15.7656 0
-28.4696 79.5478 15.0853 0
-27.9124 78.4441 14.5324 0
-28.5939 78.9499 14.4845 0
-29.7232 80.3151 14.7356 0
-29.9548 79.5701 14.5146 0
-29.6001 81.1375 15.0476 0
-29.1263 79.6045 14.6385 0
-28.783 78.4704 14.033 0
-29.5786 78.521 13.8847 0
-30.2272 78.9377 14.2582 0
-28.4575 77.6759 13.8747 0
-28.9613 78.087 13.6519 0
-29.5475 77.7763 13.6438 0
-29.6279 77.0746 13.8029 0
-30.1753 77.4554 13.6721 0
-26.692 78.4039 16.5079 0
-27.2005 78.9715 16.1636 0
-26.004 77.1871 17.6432 0
-26.4144 77.7688 17.0425 0
-26.1794 77.4179 16.0844 0
-26.058 76.2673 15.8185 0
-26.2539 76.905 15.2845 0
-25.0685 76.4378 19.6959 0
-25.5453 76.7375 18.4723 0
-24.4526 75.9743 22.1464 0
-24.8127 76.2512 21.0868 0
-24.8312 75.8041 19.828 0
-24.7625 75.1354 20.0646 0
-25.0213 75.2951 18.5975 0
-25.8991 75.7557 16.5526 0
-25.9902 75.361 15.808 0
-25.6482 76.3575 17.487 0
-25.5105 75.406 17.4061 0
-25.3598 74.5321 17.5043 0
-26.0089 74.7206 16.0744 0
-26.1959 75.1838 15.3597 0
-25.206 73.9497 17.7965 0
-25.6591 74.3091 16.8695 0
-25.9212 74.1722 16.3821 0
-25.9733 73.656 16.7913 0
-26.313 74.0356 16.0777 0
-29.0835 76.6465 13.9022 0
-29.7827 76.3669 14.1036 0
-27.9449 77.2568 14.0873 0
-28.5062 76.9534 13.9678 0
-28.5388 76.1963 14.0055 0
-27.9846 75.8344 14.2488 0
-28.6668 75.4043 13.8869 0
-27.1989 77.9669 14.6595 0
-27.5551 77.592 14.3601 0
-27.088 78.4401 15.2495 0
-26.7673 77.4616 15.0055 0
-26.5446 76.5391 14.8497 0
-27.4059 76.1748 14.5429 0
-27.4345 75.5556 14.7187 0
-27.4568 76.7995 14.3557 0
-26.9067 76.3744 14.6821 0
-26.4051 75.8091 14.8875 0
-27.0157 74.9301 14.9451 0
-27.7132 74.7815 14.9529 0
-26.4478 75.0325 14.9887 0
-26.5942 74.4046 15.3023 0
-26.926 74.002 15.9744 0
-29.9189 75.6512 14.334 0
-30.4912 76.0425 14.3258 0
-28.8354 74.7037 13.993 0
-29.376 75.1531 14.068 0
-30.2026 75.0688 14.4493 0
-30.4872 74.5403 14.738 0
-31.0274 74.8712 14.6133 0
-28.0057 74.1563 15.3352 0
-28.42 74.4204 14.671 0
-27.2464 73.5348 16.5899 0
-27.6087 73.896 15.9449 0
-28.3492 73.727 15.9428 0
-28.7239 73.2066 16.5336 0
-29.0871 73.5516 15.9384 0
-29.9076 74.1379 14.787 0
-30.7098 73.9928 15.0572 0
-29.1401 74.2593 14.6009 0
-29.4799 73.8189 15.2444 0
-29.8826 73.3486 15.9642 0
-31.1295 73.5038 15.6331 0
-31.5617 73.8188 15.2726 0
-30.3265 72.88 16.5366 0
-30.7323 73.1706 15.9992 0
-31.6505 73.0139 16.0377 0
-32.1868 72.6287 16.603 0
-32.6318 72.8336 16.0467 0
-31.7815 73.7839 10.9431 0
-30.7014 73.3479 11.4412 0
-33.3859 74.6931 10.4965 0
-32.6896 74.0814 10.5395 0
-32.1831 73.6936 11.0532 0
-32.6818 73.4081 10.9216 0
-31.8269 73.1167 11.2725 0
-33.9992 76.1352 10.7945 0
-33.9919 75.4109 10.571 0
-33.2681 77.6854 11.8494 0
-33.8565 76.8953 11.0605 0
-34.3114 75.9426 11.0065 0
-34.3418 75.7455 11.3311 0
-34.3334 75.161 11.1799 0
-33.3727 73.928 10.9631 0
-33.0278 73.3426 11.1609 0
-33.651 74.5568 10.7073 0
-33.9475 74.5537 11.0908 0
-34.0592 74.5145 11.4776 0
-33.3046 73.1256 11.2033 0
-32.6576 72.6064 11.1657 0
-34.3474 74.4374 11.8268 0
-33.9329 73.8181 11.5387 0
-33.6466 73.0402 11.5269 0
-34.16 73.0454 12.0371 0
-33.4859 72.4038 11.7599 0
-32.9372 79.0676 13.8685 0
-32.7386 78.3785 12.855 0
-32.8283 80.6681 15.0647 0
-33.0922 79.81 14.7325 0
-32.6615 78.8887 13.8041 0
-31.9639 78.6391 13.5488 0
-32.4798 78.0775 12.9633 0
-32.6805 82.6912 15.1402 0
-32.6817 81.63 15.2704 0
-32.7428 83.5214 15.3291 0
-31.9291 82.1784 15.1754 0
-31.2988 80.6692 14.9655 0
-31.6767 79.2154 14.2914 0
-31.6125 78.3989 13.4095 0
-32.1788 80.3094 15.0188 0
-31.4704 79.8935 14.6776 0
-30.8545 79.4195 14.4542 0
-31.1033 78.0748 13.3483 0
-31.8385 77.663 13.0559 0
-30.617 78.4703 13.8803 0
-30.712 77.8052 13.6384 0
-30.9111 77.1234 13.8622 0
-34.3902 73.6654 12.3192 0
-34.3509 73.0247 12.5195 0
-34.4272 74.9464 11.9357 0
-34.5561 74.3601 12.2088 0
-34.4911 74.2773 12.5721 0
-34.0688 75.0733 13.006 0
-34.3559 74.2894 13.0243 0
-33.9869 76.5048 11.7671 0
-34.2763 75.6121 11.7126 0
-33.3748 77.4652 12.1764 0
-33.331 77.362 12.379 0
-33.2718 77.3742 12.84 0
-33.8954 75.924 13.0389 0
-33.2857 75.7701 13.4295 0
-34.1248 75.7529 12.3423 0
-33.7255 76.654 12.8811 0
-32.8588 77.1781 13.0204 0
-32.5668 76.2819 13.6106 0
-32.6608 75.5915 13.8222 0
-32.3959 76.982 13.3503 0
-31.743 76.7144 13.8186 0
-31.0834 76.4255 14.2846 0
-34.5193 73.0511 13.0201 0
-34.0953 72.3891 12.6995 0
-34.0526 74.3227 13.5473 0
-34.3734 73.6642 13.2673 0
-34.5137 73.1091 13.5796 0
-34.4558 73.2028 14.1826 0
-34.3405 72.3646 13.6327 0
-32.1116 75.3794 14.1742 0
-33.0932 74.9141 13.8999 0
-31.299 75.7507 14.3474 0
-31.5697 75.1317 14.4237 0
-31.9511 74.5051 14.5239 0
-33.7802 73.6912 14.3069 0
-33.9411 73.0911 14.5635 0
-33.5529 74.244 13.9884 0
-32.9576 74.0941 14.3749 0
-32.2593 73.9575 14.8086 0
-33.2811 72.9083 14.8903 0
-33.7824 72.3155 14.5526 0
-32.3668 73.3852 15.0895 0
-32.9654 72.8988 15.474 0
-33.294 72.3008 15.7684 0
-30.3513 72.6913 11.6309 0
-29.8383 72.6179 11.5873 0
-31.393 72.4988 11.5347 0
-30.8573 72.7602 11.6758 0
-29.9404 72.1248 11.9883 0
-29.5617 71.6651 12.462 0
-29.137 71.506 12.3628 0
-32.3309 71.9755 11.3746 0
-31.9843 72.1698 11.2762 0
-33.2482 71.7636 11.9621 0
-32.7805 71.799 11.5273 0
-32.0919 71.4334 11.7193 0
-31.882 70.9153 12.1007 0
-31.3249 71.1819 12.1058 0
-29.9829 71.7714 12.4834 0
-29.2409 71.219 12.8801 0
-31.0499 71.8827 11.741 0
-30.6699 71.4706 12.233 0
-30.4313 71.0027 12.6735 0
-29.2251 70.6474 13.1424 0
-28.8974 70.3315 12.9297 0
-30.3518 70.4323 13.0705 0
-29.7714 70.706 13.1883 0
-29.3578 70.0509 13.4161 0
-29.4345 69.3544 13.395 0
-29.638 69.066 12.9829 0
-33.9793 71.6695 12.7489 0
-33.6668 71.7159 12.3609 0
-34.1853 71.6553 13.6765 0
-34.2549 71.6004 13.1258 0
-33.8609 71.024 12.9182 0
-33.6803 70.565 13.2453 0
-33.4239 70.4569 12.7263 0
-34.0688 71.7062 14.8076 0
-34.1499 71.7185 14.228 0
-34.0359 71.6999 15.4343 0
-33.8612 70.6197 13.7575 0
-33.3061 70.1515 13.7099 0
-33.9864 71.1429 13.9902 0
-34.0158 70.6023 14.2358 0
-32.5533 69.7139 13.8431 0
-29.4477 69.3168 13.5596 0
-29.0788 68.5483 13.3337 0
-30.8449 70.1702 13.0691 0
-30.0442 69.9237 13.6351 0
-29.8046 69.1621 13.9288 0
-30.2565 68.9355 14.0779 0
-29.6163 68.4359 14.3176 0
-32.4371 70.6959 12.2067 0
-31.7262 70.3512 12.4513 0
-33.0578 71.1747 12.2417 0
-32.9844 70.5523 12.4245 0
-32.7468 70.0489 12.8841 0
-30.9166 69.4456 13.82 0
-30.5003 68.7036 14.0242 0
-31.316 69.9329 13.1658 0
-31.8096 69.7905 13.3934 0
-32.2059 69.6959 13.522 0
-30.9447 68.5844 14.0525 0
-30.1751 67.9916 14.1906 0
-28.8638 67.7542 13.5547 0
-29.2562 67.4209 13.0952 0
-29.1934 67.6092 14.5382 0
-29.1338 67.801 14.1589 0
-28.7457 66.9531 13.9184 0
-29.4639 67.4044 14.4955 0
-28.7098 66.7613 14.7474 0
-24.5853 74.8386 23.58 0
-24.5825 75.3616 22.9172 0
-25.3298 73.5966 24.9682 0
-24.937 74.1936 24.2536 0
-24.3469 74.1522 23.5683 0
-24.2012 73.4575 23.6128 0
-24.2166 74.04 22.9002 0
-26.5094 72.5491 26.1551 0
-25.9676 73.034 25.5091 0
-27.3251 71.529 27.4864 0
-26.9264 72.0833 26.8353 0
-26.5316 71.9671 26.0143 0
-26.4392 71.3401 25.9099 0
-25.9908 71.8233 25.2866 0
-24.5589 72.8591 24.3172 0
-24.1046 72.7443 23.5588 0
-25.1435 72.9525 24.9849 0
-25.3211 72.328 24.8022 0
-25.3484 71.6585 24.6383 0
-24.442 72.0525 23.3427 0
-24.3516 72.5779 22.7129 0
-25.2292 70.9502 24.5616 0
-24.854 71.4826 23.9366 0
-24.6298 71.3669 23.1358 0
-27.9211 70.4938 28.8541 0
-27.6541 71.0009 28.1615 0
-28.2878 69.2278 30.0846 0
-28.1243 69.9439 29.5289 0
-27.6841 69.9939 28.7163 0
-27.3405 69.9958 27.8672 0
-25.77 70.5328 25.0654 0
-26.8713 70.8762 26.5029 0
-26.2188 70.6903 25.8289 0
-27.2908 70.9797 27.31 0
-27.1111 70.4329 27.1863 0
-26.8982 69.8251 27.0458 0
-26.2236 70.1236 25.615 0
-29.9226 72.6413 17.0821 0
-28.3711 72.8994 17.1213 0
-29.1307 72.7595 17.0998 0
-26.8897 73.1675 17.2379 0
-27.6287 73.0322 17.1775 0
-28.0807 72.7682 17.7129 0
-25.5781 73.2355 17.5469 0
-26.233 73.2202 17.371 0
-24.6895 73.8769 19.0089 0
-25.1124 73.455 18.0974 0
-25.4573 73.1627 18.5219 0
-25.2712 73.0331 19.4732 0
-25.8452 72.843 18.9974 0
-24.5914 74.8397 21.3798 0
-24.7381 74.3409 20.2264 0
-24.3729 75.1578 22.2553 0
-24.2709 74.5371 22.2565 0
-24.1967 73.86 22.1716 0
-24.9655 73.1477 20.2318 0
-24.8866 72.5416 20.1042 0
-24.7935 73.6376 20.2176 0
-24.6996 73.4139 21.1539 0
-24.5309 73.1126 21.9752 0
-24.6714 72.0512 20.6994 0
-25.2587 72.0997 20.3802 0
-24.6427 72.354 21.6899 0
-24.5824 71.511 21.3239 0
-27.1227 72.7626 18.5038 0
-26.6598 72.9555 17.8969 0
-26.4263 72.793 18.6668 0
-31.2005 74.5822 4.56075 0
-31.7191 74.2386 4.36662 0
-30.169 75.1436 4.82207 0
-30.6431 74.8793 4.68582 0
-31.4068 73.6068 5.00692 0
-31.6631 72.8864 5.50624 0
-29.8536 76.0459 5.39114 0
-30.0249 75.5917 5.11712 0
-30.0954 76.8461 6.00899 0
-30.0683 76.4206 5.69684 0
-30.0009 75.1703 5.80424 0
-30.1047 74.4821 6.35193 0
-30.2781 73.8814 6.04573 0
-31.1033 73.0599 5.63066 0
-30.4581 74.1662 5.32298 0
-30.6998 73.3605 5.78594 0
-30.8894 72.7486 6.34439 0
-32.6536 71.4872 6.27063 0
-30.9254 72.2161 6.83058 0
-32.1774 71.2133 6.94134 0
-32.2564 70.9207 7.4815 0
-33.052 71.1013 5.92532 0
-30.3597 77.3469 6.43542 0
-30.2017 77.0506 6.1982 0
-31.451 77.5036 6.70501 0
-30.7197 77.5871 6.67191 0
-29.6778 77.1254 7.019 0
-29.5447 76.879 7.67396 0
-29.3859 76.4627 7.397 0
-33.049 77.8019 6.86036 0
-32.1794 77.6165 6.78373 0
-34.3345 78.7561 7.60058 0
-33.5816 78.2224 7.18274 0
-32.8627 77.3152 7.10307 0
-32.7565 76.9652 7.37402 0
-31.8138 76.721 7.43856 0
-29.9624 77.084 7.82998 0
-29.4514 76.6182 8.31702 0
-31.0151 77.0929 7.08393 0
-30.8499 76.8395 7.632 0
-30.7552 76.485 8.04235 0
-29.5278 76.185 8.72266 0
-29.3091 75.7362 8.46892 0
-30.9234 76.0528 8.4205 0
-30.0236 76.3823 8.83457 0
-29.7121 75.6465 9.05558 0
-29.6686 74.9349 9.01665 0
-29.2657 74.4394 8.73791 0
-34.8247 80.6811 8.66392 0
-34.7209 79.5814 8.11764 0
-35.6204 82.71 9.86061 0
-35.2675 81.5873 9.2645 0
-34.8302 80.4812 8.91236 0
-34.8971 80.4138 9.23327 0
-34.5933 79.2978 8.60723 0
-36.1018 84.5824 10.7865 0
-35.7604 83.8541 10.3575 0
-36.6573 85.0581 11.052 0
-36.2313 84.4608 11.0374 0
-35.8658 83.7746 10.9796 0
-35.3856 81.5832 9.88332 0
-34.9904 80.3811 9.58305 0
-35.6318 82.7493 10.1415 0
-35.6787 82.7227 10.459 0
-35.7174 82.7932 10.7856 0
-35.0771 80.402 9.94226 0
-34.6322 79.2137 9.28098 0
-35.5428 81.7022 10.5838 0
-35.1703 80.4961 10.2821 0
-34.7028 79.37 9.9467 0
-30.1107 75.2603 9.19828 0
-29.5987 74.2396 8.97922 0
-31.7813 76.0304 8.06506 0
-30.995 75.7151 8.73919 0
-30.9521 75.1432 8.78519 0
-31.7975 75.5491 8.54288 0
-30.9874 74.9145 9.04018 0
-33.6874 77.4447 7.61317 0
-32.6721 76.6398 7.58853 0
-34.5591 78.3322 7.80976 0
-34.4988 78.2114 8.04989 0
-34.3869 78.1712 8.30694 0
-32.5691 76.2245 7.97629 0
-32.548 76.0821 8.1702 0
-32.6507 76.3891 7.81345 0
-33.5573 77.1956 8.09108 0
-34.2702 78.1653 8.60826 0
-33.2228 77.2414 8.67011 0
-32.654 76.0489 8.54315 0
-34.0578 78.247 8.93826 0
-33.9559 78.3296 9.28583 0
-34.0366 78.3779 9.60476 0
-29.1003 74.0333 9.33759 0
-28.6903 73.594 9.10727 0
-30.9331 74.7593 9.32727 0
-29.9273 74.4289 9.44118 0
-28.833 73.9486 9.71714 0
-28.8585 73.8881 10.1262 0
-28.064 73.4421 9.97255 0
-32.7629 76.0679 8.93455 0
-31.9396 75.2928 9.07091 0
-33.2819 77.3732 9.28569 0
-32.854 76.18 9.23123 0
-32.244 75.2857 9.50568 0
-29.9007 74.2612 10.0106 0
-29.1734 73.871 10.4633 0
-31.0636 74.6443 9.53386 0
-31.2238 74.5386 9.72332 0
-31.4899 74.5987 9.90308 0
-29.5008 73.8607 10.772 0
-28.7172 73.3613 10.7192 0
-30.6321 74.2204 10.4207 0
-29.9951 73.878 10.9807 0
-29.7527 73.2763 11.161 0
-32.7344 69.7829 7.9749 0
-32.2542 68.336 9.24345 0
-31.792 67.7962 9.83365 0
-31.4485 71.116 7.56041 0
-32.1921 70.574 7.9118 0
-30.3616 72.5861 6.9817 0
-30.8262 71.7126 7.21497 0
-30.719 71.3226 7.59635 0
-30.0484 71.6371 7.6328 0
-30.5559 70.9626 7.94633 0
-29.7082 75.2449 6.7664 0
-30.03 73.9787 7.03559 0
-29.6158 76.2724 6.44925 0
-29.4386 75.888 7.09909 0
-29.3713 75.5547 7.75718 0
-29.6508 72.5544 7.48042 0
-29.4152 72.0843 7.72141 0
-29.8852 73.1866 7.27054 0
-29.3967 74.0646 7.64447 0
-29.1916 74.9256 8.00405 0
-29.0783 72.8841 8.09063 0
-29.3286 71.7932 8.09175 0
-29.1477 74.3737 8.33937 0
-28.9561 73.8466 8.56101 0
-28.8341 73.2247 8.61637 0
-31.1941 68.3445 9.57685 0
-30.8306 68.0657 9.78971 0
-31.6421 69.0393 9.15531 0
-31.4664 68.7246 9.43092 0
-30.5695 69.0148 9.42203 0
-30.0781 69.7651 9.29437 0
-29.7725 69.2842 9.26916 0
-31.9069 69.7519 8.55201 0
-32.0401 70.1335 8.21399 0
-31.2047 70.3721 8.28175 0
-30.4505 70.6567 8.34029 0
-30.2437 70.1204 9.0908 0
-29.6637 70.5331 9.03868 0
-30.9657 69.7127 8.96872 0
-30.3707 70.3924 8.74737 0
-29.8384 71.0654 8.3954 0
-29.2023 71.4117 8.88202 0
-29.0567 71.0732 9.02329 0
-29.3409 71.6336 8.55683 0
-28.8162 72.3632 8.78526 0
-28.6374 72.9678 8.929 0
-29.925 68.3647 9.69949 0
-30.5128 67.8885 10.091 0
-29.2806 69.8265 9.33577 0
-29.5438 68.9722 9.45475 0
-29.3536 68.9162 9.85834 0
-28.8935 69.6845 10.1888 0
-29.0893 68.9378 10.313 0
-28.532 71.9257 9.31212 0
-28.9974 70.8322 9.26747 0
-28.1879 72.8216 9.3115 0
-28.1751 72.7074 9.62309 0
-28.2284 72.705 10.0594 0
-28.8554 70.5839 10.0102 0
-28.7083 70.6145 10.4089 0
-28.8523 70.7127 9.67422 0
-28.504 71.7927 9.97234 0
-28.3507 72.676 10.4522 0
-28.8815 71.6386 10.6209 0
-28.5578 70.6732 10.8474 0
-28.7484 72.5864 10.7116 0
-29.2209 72.4925 10.9616 0
-29.482 72.541 11.2884 0
-30.1201 67.742 10.3299 0
-31.0162 67.3514 10.3313 0
-28.7476 69.0744 10.8476 0
-29.3098 68.2792 10.4951 0
-29.7362 67.7415 10.7408 0
-29.3171 67.7794 11.1614 0
-28.5463 70.7672 11.2525 0
-28.3222 69.8677 11.1274 0
-29.1072 71.7239 11.4223 0
-28.7634 71.1269 11.7968 0
-28.5552 70.3614 12.0697 0
-28.7096 68.5037 11.4977 0
-29.0698 67.8438 11.529 0
-28.5149 69.1756 11.3206 0
-28.386 69.2624 11.7416 0
-28.4967 69.6963 12.29 0
-28.908 67.9864 11.935 0
-29.4262 67.204 11.5186 0
-28.7416 69.0629 12.4328 0
-29.1683 68.4189 12.4151 0
-29.5665 67.7913 12.3602 0
-30.6311 66.5686 10.9659 0
-30.1244 66.5339 11.2653 0
-29.8094 66.6192 11.5641 0
-29.5182 66.7464 11.8629 0
-29.3647 67.0301 12.4627 0
-29.5451 66.2813 12.5846 0
-30.9896 99.4139 -7.58713 0
-29.9454 100.141 -7.09794 0
-31.6557 99.7746 -7.71706 0
-28.318 100.009 -7.74833 0
-27.7058 99.595 -8.25299 0
-28.8029 100.41 -7.19649 0
-29.3326 99.6642 -7.30966 0
-27.3028 99.16 -8.94775 0
-27.5529 98.7638 -9.92902 0
-27.3642 97.6473 -10.2907 0
-26.8155 96.7056 -10.3352 0
-26.8198 95.638 -10.557 0
-27.0292 95.193 -11.58 0
-27.3464 93.9688 -11.8375 0
-27.6722 93.0906 -10.79 0
-27.6406 92.7721 -11.3973 0
-27.3118 91.0697 -11.9541 0
-27.1921 89.8958 -12.0257 0
-27.3222 89.2543 -11.5455 0
-27.5128 91.5578 -11.1678 0
-27.6522 88.9869 -12.3879 0
-27.8235 87.7946 -12.3429 0
-27.7171 87.1419 -12.6154 0
-28.0932 86.1195 -12.8922 0
-28.2478 85.8874 -13.9777 0
-28.522 84.8161 -13.6516 0
-28.9661 84.4279 -13.7648 0
-29.3584 83.1247 -14.3421 0
-29.2009 82.5594 -14.3031 0
-28.9836 84.0358 -14.2005 0
-29.864 81.6613 -14.4027 0
-30.6175 80.8043 -14.5599 0
-31.4343 80.0231 -14.8217 0
-31.0553 79.6298 -14.8934 0
-31.7415 78.979 -15.675 0
-32.5042 78.2599 -16.3977 0
-33.318 77.4788 -16.892 0
-34.1033 76.7141 -17.5082 0
-30.0898 79.0465 -0.219236 0
-30.3729 78.5182 0.860574 0
-29.8512 78.9076 -0.566882 0
-29.7925 78.7434 -0.919692 0
-32.1579 76.2382 2.33117 0
-31.9609 75.5236 3.14874 0
-32.6607 74.5485 3.60843 0
-32.5655 75.4148 3.09256 0
-31.1932 77.51 1.5447 0
-31.6247 76.7175 -5.64655 0
-31.5099 77.3401 -5.49917 0
-30.4176 76.9719 -4.92124 0
-29.6549 76.7587 -4.37554 0
-29.5933 77.2369 -4.01986 0
-29.6838 77.7514 -3.63265 0
-29.9812 78.2819 -3.38001 0
-29.5692 78.1707 -2.71564 0
-29.4717 78.1447 -2.01469 0
-29.7762 78.6551 -1.67413 0
-34.3376 75.9981 -17.2959 0
-32.061 76.2961 -6.2557 0
-31.5221 76.2073 -5.75047 0
-30.74 74.7467 -6.46216 0
-31.2281 75.2354 -6.4328 0
-31.1791 75.6719 -5.86222 0
-30.88 75.2342 -5.89843 0
-30.9713 74.2182 -6.45294 0
-31.4661 66.6066 -7.4141 0
-31.6965 67.4531 -6.8485 0
-31.5671 67.0138 -7.08365 0
-31.7723 68.5066 -6.79295 0
-31.4975 69.163 -6.58557 0
-31.7357 69.2847 -6.28675 0
-31.8005 67.9405 -6.82801 0
-31.1197 72.2275 -6.36695 0
-30.6658 73.1462 -6.67359 0
-30.8487 73.2852 -6.39734 0
-30.755 73.8153 -6.41328 0
-31.2853 70.0901 -6.04088 0
-31.6221 70.3354 -6.00436 0
-31.4466 71.2534 -6.22946 0
-31.3994 66.2671 -7.69175 0
-31.2605 65.9411 -7.94692 0
-34.0952 75.4888 -17.1698 0
-34.4237 74.5417 -16.8668 0
-34.6149 74.2075 -16.9272 0
-34.7482 73.3083 -16.9973 0
-33.9122 72.3525 -16.7486 0
-34.6579 73.5592 -16.7761 0
-33.1866 71.3692 -15.9812 0
-32.4007 69.3764 -15.8812 0
-31.2999 69.2759 -15.217 0
-32.2328 69.3006 -15.3858 0
-33.2966 69.7579 -15.9453 0
-32.942 69.8607 -15.5652 0
-33.5396 71.0205 -16.0066 0
-31.6102 69.2741 -15.8489 0
-30.9446 69.1464 -15.0961 0
-29.5764 67.7882 -14.0339 0
-29.5095 66.7405 -12.7195 0
-29.8126 68.2638 -15.439 0
-30.1644 68.4999 -15.3077 0
-30.1507 68.5287 -16.0873 0
-30.5244 68.7501 -15.9824 0
-30.9689 69.0014 -16.6643 0
-30.9687 69.1514 -15.8729 0
-29.5144 66.0926 -11.6033 0
-29.6184 65.769 -10.6664 0
-29.856 65.4677 -9.91989 0
-30.2999 65.1496 -9.41409 0
-30.9352 65.4467 -8.72153 0
-31.1375 65.6902 -8.34402 0
-30.6135 65.2932 -9.04027 0
-35.0897 95.9709 15.0521 0
-32.9781 94.9708 17.466 0
-32.9271 94.1858 18.5949 0
-32.0016 93.9179 18.9816 0
-30.7249 93.2384 20.5711 0
-30.0901 93.1163 21.6466 0
-31.4294 93.6536 19.9456 0
-30.8815 99.1015 -4.09735 0
-31.081 97.4037 -1.77869 0
-29.4421 98.1346 -3.70624 0
-29.9073 99.6385 -3.44714 0
-29.0442 98.9289 -2.83782 0
-32.5611 99.5427 0.420739 0
-29.5538 98.8062 -0.0414231 0
-30.1005 97.8741 -0.977245 0
-32.1048 99.8393 1.6235 0
-32.379 100.046 -7.83128 0
-32.3359 101.246 -7.29505 0
-32.8444 101.215 -7.11974 0
-32.121 100.124 -4.57147 0
-32.2298 99.5763 -5.53611 0
-32.5149 99.1093 -6.34903 0
-33.9248 100.233 -6.2969 0
-33.6501 100.028 -7.33693 0
-33.2883 99.9874 -7.61403 0
-33.6842 100.045 -6.98362 0
-33.4395 95.7647 17.0325 0
-33.8938 96.589 16.0874 0
-35.123 96.4426 15.3257 0
-36.0728 95.9522 14.4902 0
-36.642 95.2289 13.5669 0
-36.5914 94.4672 12.8843 0
-36.1065 94.6594 12.3746 0
-34.8481 93.878 10.7401 0
-33.9808 94.4272 10.4539 0
-35.8882 93.9891 11.8506 0
-35.1893 94.4073 11.397 0
-36.4482 95.7204 6.28042 0
-36.6166 96.8953 6.41877 0
-36.6502 96.9456 5.78073 0
-36.9262 97.935 5.93187 0
-37.0963 98.7472 5.85893 0
-36.566 99.6971 4.25572 0
-37.1057 99.5999 5.70208 0
-36.1512 100.21 3.745 0
-35.838 100.614 2.65771 0
-34.9635 101.429 2.01971 0
-34.1213 94.3099 9.58116 0
-34.5997 94.0706 8.72101 0
-34.2909 94.7676 8.46364 0
-34.0445 95.5748 8.23085 0
-35.3765 95.6735 7.08308 0
-34.4584 67.5484 32.3158 0
-34.4805 68.4962 31.9807 0
-33.8105 67.3084 32.456 0
-33.094 67.0796 32.6111 0
-33.0796 66.1127 32.9097 0
-31.9742 67.2111 32.314 0
-32.0017 66.3168 32.6364 0
-32.5786 65.7426 32.9163 0
-35.4935 73.24 30.8481 0
-35.6315 74.1747 30.8061 0
-35.6724 75.0151 30.18 0
-35.5474 75.1251 29.4444 0
-35.2142 75.5262 29.7827 0
-34.3082 69.6029 31.7164 0
-34.635 70.2463 31.4729 0
-34.9104 71.0624 31.1258 0
-34.9158 72.1772 30.3968 0
-35.2686 73.236 30.1891 0
-31.3212 66.8634 32.3363 0
-30.7027 66.5018 32.2535 0
-30.0746 67.6289 31.2241 0
-30.181 66.8274 31.3987 0
-29.4521 67.3245 31.222 0
-31.2383 89.8008 24.7177 0
-30.3402 90.4261 24.5567 0
-32.1366 89.1404 24.9225 0
-32.5362 88.2172 24.9317 0
-32.9543 87.2448 24.8113 0
-33.8209 86.4045 24.9335 0
-34.1214 85.4555 25.2478 0
-36.2687 83.3438 26.5056 0
-35.7595 83.8337 25.8647 0
-36.2065 83.1897 27.1317 0
-34.5216 84.5517 25.4348 0
-35.8506 82.8405 27.147 0
-35.1529 82.9033 27.7834 0
-33.961 83.0944 28.4307 0
-33.0991 82.87 28.5366 0
-31.2304 82.2615 29.5463 0
-32.0464 82.7633 29.2948 0
-31.3104 82.4186 30.0454 0
-30.7712 80.5479 31.0267 0
-30.9431 81.7319 30.8048 0
-30.7024 79.3364 31.1489 0
-30.7945 78.2044 31.2465 0
-31.326 77.5754 31.6515 0
-32.0616 77.2204 31.0696 0
-33.1379 77.1008 30.9747 0
-33.9128 76.3981 30.5839 0
-33.5823 76.17 30.0946 0
-34.6301 75.7399 30.2274 0
-29.1954 92.0732 23.8645 0
-29.2808 92.5567 23.4172 0
-29.2678 92.7225 22.3569 0
-29.8711 91.1979 24.6319 0
-29.6591 91.8044 24.3902 0
-32.8719 72.1646 16.3689 0
-33.607 71.6063 16.0769 0
-34.4476 70.9485 15.6447 0
-34.2181 71.0323 15.0215 0
-34.2251 70.551 14.7251 0
-33.8867 70.1165 14.5234 0
-33.067 69.6252 13.9316 0
-32.2847 69.0884 13.9717 0
-33.4744 69.6393 14.3324 0
-30.7647 67.8444 14.055 0
-31.7698 69.1658 13.8933 0
-31.5214 68.4328 13.9182 0
-29.4681 65.7303 13.2766 0
-28.8145 66.2831 14.1788 0
-30.0749 67.4191 14.5726 0
-29.3827 66.9096 14.9641 0
-28.4761 66.2724 14.7738 0
-29.0431 66.3063 15.1283 0
-24.7331 71.116 22.0812 0
-25 70.774 22.925 0
-27.3453 69.4241 28.5699 0
-27.1406 69.3925 27.6992 0
-28.4547 68.5041 30.6091 0
-28.6547 67.7905 30.9633 0
-27.3432 68.8343 29.2924 0
-27.818 68.6856 30.0294 0
-25.0969 70.1761 23.5261 0
-25.2475 70.3157 24.3511 0
-25.8229 69.9684 24.8103 0
-26.1815 69.5861 25.377 0
-26.5347 69.7043 26.21 0
-26.762 69.2765 26.8513 0
-32.3843 72.0046 16.9351 0
-31.7634 72.4665 17.137 0
-30.8307 72.5644 17.1156 0
-30.4708 72.4453 17.6312 0
-28.5359 72.5414 18.3022 0
-27.797 72.6715 18.3482 0
-29.5993 72.5188 17.6565 0
-29.2866 72.4436 18.2705 0
-25.0478 71.1167 21.4298 0
-27.6262 72.8601 19.2637 0
-26.1752 72.4957 19.38 0
-27.4028 72.7007 19.9676 0
-26.6715 72.4248 19.9787 0
-25.9047 72.1284 20.0313 0
-25.6595 71.8103 20.7622 0
-25.5377 71.296 21.1788 0
-32.7187 73.7854 4.07263 0
-32.192 73.9138 4.17028 0
-32.0337 73.3559 4.82371 0
-32.2663 72.6408 5.31771 0
-31.9189 72.2268 5.97339 0
-32.1025 71.6821 6.45135 0
-32.7448 70.9117 6.6852 0
-31.4409 71.8886 6.59903 0
-32.8335 70.5323 7.15804 0
-32.8546 70.2153 7.65203 0
-32.5255 73.0773 4.61565 0
-32.9786 71.7289 5.54221 0
-33.5312 70.8026 5.66094 0
-33.4828 70.1667 5.98688 0
-33.1117 70.5192 6.31021 0
-33.2705 69.3085 7.57911 0
-33.175 68.8931 7.91695 0
-32.5926 69.3589 8.28945 0
-32.3836 68.6352 8.92081 0
-32.9728 67.9132 8.97498 0
-32.8369 67.6352 9.31941 0
-32.654 67.4278 9.68957 0
-32.3616 67.1984 10.0073 0
-32.5039 68.9949 8.60742 0
-31.7851 69.3726 8.83959 0
-31.088 70.0352 8.64665 0
-32.0047 66.992 10.2887 0
-30.1115 67.1195 10.8214 0
-31.5758 66.8235 10.5468 0
-31.1162 66.6468 10.7153 0
-31.6948 66.0655 10.8413 0
-31.1641 65.9928 11.114 0
-30.6299 65.9391 11.4118 0
-30.2387 66.0053 11.7051 0
