#!ascii - generated by CreateLabelFiles project 
4315 8329
1132 254 4025 0
1132 4025 1133 0
285 1132 1133 0
1135 1133 286 0
1134 285 1133 0
1134 1133 1135 0
71 1134 1135 0
1136 4027 4028 0
1136 4028 4029 0
287 1136 4029 0
286 4026 4030 0
1137 1136 287 0
4030 4027 1136 0
4030 1136 1137 0
286 4030 1137 0
1138 1137 287 0
1135 286 1137 0
1135 1137 1138 0
71 1135 1138 0
1140 4029 4031 0
1139 287 4029 0
1139 4029 1140 0
289 1139 1140 0
1142 1138 287 0
1141 71 1138 0
1141 1138 1142 0
288 1141 1142 0
1143 1139 289 0
1142 287 1139 0
1142 1139 1143 0
288 1142 1143 0
1145 1143 289 0
1144 288 1143 0
1144 1143 1145 0
19 1144 1145 0
1147 1017 15 0
1146 252 1017 0
1146 1017 1147 0
291 1146 1147 0
1149 1014 252 0
1148 61 1014 0
1148 1014 1149 0
290 1148 1149 0
1150 1146 291 0
1149 252 1146 0
1149 1146 1150 0
290 1149 1150 0
1152 1150 291 0
1151 290 1150 0
1151 1150 1152 0
72 1151 1152 0
1154 1006 61 0
1153 249 1006 0
1153 1006 1154 0
292 1153 1154 0
1155 1003 249 0
1025 3 1003 0
1025 1003 1155 0
257 1025 1155 0
1156 1153 292 0
1155 249 1153 0
1155 1153 1156 0
257 1155 1156 0
1157 1156 292 0
1031 257 1156 0
1031 1156 1157 0
64 1031 1157 0
1159 1151 72 0
1158 290 1151 0
1158 1151 1159 0
293 1158 1159 0
1160 1148 290 0
1154 61 1148 0
1154 1148 1160 0
292 1154 1160 0
1161 1158 293 0
1160 290 1158 0
1160 1158 1161 0
292 1160 1161 0
1162 1161 293 0
1157 292 1161 0
1157 1161 1162 0
64 1157 1162 0
1164 1159 72 0
1163 293 1159 0
1163 1159 1164 0
294 1163 1164 0
1165 1162 293 0
1047 64 1162 0
1047 1162 1165 0
263 1047 1165 0
1166 1163 294 0
1165 293 1163 0
1165 1163 1166 0
263 1165 1166 0
1167 1166 294 0
1052 263 1166 0
1052 1166 1167 0
18 1052 1167 0
1169 1144 19 0
1168 288 1144 0
1168 1144 1169 0
296 1168 1169 0
1171 1141 288 0
1170 71 1141 0
1170 1141 1171 0
295 1170 1171 0
1172 1168 296 0
1171 288 1168 0
1171 1168 1172 0
295 1171 1172 0
1174 1172 296 0
1173 295 1172 0
1173 1172 1174 0
73 1173 1174 0
1176 1134 71 0
1175 285 1134 0
1175 1134 1176 0
297 1175 1176 0
1177 1131 285 0
1147 15 1131 0
1147 1131 1177 0
291 1147 1177 0
1178 1175 297 0
1177 285 1175 0
1177 1175 1178 0
291 1177 1178 0
1179 1178 297 0
1152 291 1178 0
1152 1178 1179 0
72 1152 1179 0
1181 1173 73 0
1180 295 1173 0
1180 1173 1181 0
298 1180 1181 0
1182 1170 295 0
1176 71 1170 0
1176 1170 1182 0
297 1176 1182 0
1183 1180 298 0
1182 295 1180 0
1182 1180 1183 0
297 1182 1183 0
1184 1183 298 0
1179 297 1183 0
1179 1183 1184 0
72 1179 1184 0
1186 1181 73 0
1185 298 1181 0
1185 1181 1186 0
299 1185 1186 0
1187 1184 298 0
1164 72 1184 0
1164 1184 1187 0
294 1164 1187 0
1188 1185 299 0
1187 298 1185 0
1187 1185 1188 0
294 1187 1188 0
1189 1188 299 0
1167 294 1188 0
1167 1188 1189 0
18 1167 1189 0
1191 1169 19 0
1190 296 1169 0
1190 1169 1191 0
301 1190 1191 0
1193 1174 296 0
1192 73 1174 0
1192 1174 1193 0
300 1192 1193 0
1194 1190 301 0
1193 296 1190 0
1193 1190 1194 0
300 1193 1194 0
1196 1194 301 0
1195 300 1194 0
1195 1194 1196 0
74 1195 1196 0
1198 1186 73 0
1197 299 1186 0
1197 1186 1198 0
302 1197 1198 0
1199 1189 299 0
1106 18 1189 0
1106 1189 1199 0
279 1106 1199 0
1200 1197 302 0
1199 299 1197 0
1199 1197 1200 0
279 1199 1200 0
1201 1200 302 0
1111 279 1200 0
1111 1200 1201 0
70 1111 1201 0
1203 1195 74 0
1202 300 1195 0
1202 1195 1203 0
303 1202 1203 0
1204 1192 300 0
1198 73 1192 0
1198 1192 1204 0
302 1198 1204 0
1205 1202 303 0
1204 300 1202 0
1204 1202 1205 0
302 1204 1205 0
1206 1205 303 0
1201 302 1205 0
1201 1205 1206 0
70 1201 1206 0
1208 1203 74 0
1207 303 1203 0
1207 1203 1208 0
304 1207 1208 0
1209 1206 303 0
1125 70 1206 0
1125 1206 1209 0
284 1125 1209 0
1210 1207 304 0
1209 303 1207 0
1209 1207 1210 0
284 1209 1210 0
1211 1210 304 0
1130 284 1210 0
1130 1210 1211 0
4 1130 1211 0
4032 1140 4031 0
1212 289 1140 0
1212 1140 4032 0
306 1212 4032 0
1214 1145 289 0
1213 19 1145 0
1213 1145 1214 0
305 1213 1214 0
1215 1212 306 0
1214 289 1212 0
1214 1212 1215 0
305 1214 1215 0
1217 1215 306 0
1216 305 1215 0
1216 1215 1217 0
75 1216 1217 0
306 4032 4033 0
306 4033 4034 0
1218 4034 4035 0
1217 306 4034 0
1217 4034 1218 0
75 1217 1218 0
4036 1218 4035 0
4037 75 1218 0
4037 1218 4036 0
1220 1191 19 0
1219 301 1191 0
1219 1191 1220 0
308 1219 1220 0
1222 1196 301 0
1221 74 1196 0
1221 1196 1222 0
307 1221 1222 0
1223 1219 308 0
1222 301 1219 0
1222 1219 1223 0
307 1222 1223 0
1225 1223 308 0
1224 307 1223 0
1224 1223 1225 0
77 1224 1225 0
1227 1208 74 0
1226 304 1208 0
1226 1208 1227 0
310 1226 1227 0
1229 1211 304 0
1228 4 1211 0
1228 1211 1229 0
309 1228 1229 0
1230 1226 310 0
1229 304 1226 0
1229 1226 1230 0
309 1229 1230 0
1232 1230 310 0
1231 309 1230 0
1231 1230 1232 0
76 1231 1232 0
1234 1224 77 0
1233 307 1224 0
1233 1224 1234 0
311 1233 1234 0
1235 1221 307 0
1227 74 1221 0
1227 1221 1235 0
310 1227 1235 0
1236 1233 311 0
1235 307 1233 0
1235 1233 1236 0
310 1235 1236 0
1237 1236 311 0
1232 310 1236 0
1232 1236 1237 0
76 1232 1237 0
1239 1234 77 0
1238 311 1234 0
1238 1234 1239 0
313 1238 1239 0
1241 1237 311 0
1240 76 1237 0
1240 1237 1241 0
312 1240 1241 0
1242 1238 313 0
1241 311 1238 0
1241 1238 1242 0
312 1241 1242 0
1244 1242 313 0
1243 312 1242 0
1243 1242 1244 0
20 1243 1244 0
315 4038 4039 0
1246 4037 4040 0
1245 75 4037 0
1245 4037 1246 0
314 1245 1246 0
1247 4038 315 0
1246 4040 4038 0
1246 4038 1247 0
314 1246 1247 0
1249 1247 315 0
1248 314 1247 0
1248 1247 1249 0
78 1248 1249 0
1251 1216 75 0
1250 305 1216 0
1250 1216 1251 0
316 1250 1251 0
1252 1213 305 0
1220 19 1213 0
1220 1213 1252 0
308 1220 1252 0
1253 1250 316 0
1252 305 1250 0
1252 1250 1253 0
308 1252 1253 0
1254 1253 316 0
1225 308 1253 0
1225 1253 1254 0
77 1225 1254 0
1256 1248 78 0
1255 314 1248 0
1255 1248 1256 0
317 1255 1256 0
1257 1245 314 0
1251 75 1245 0
1251 1245 1257 0
316 1251 1257 0
1258 1255 317 0
1257 314 1255 0
1257 1255 1258 0
316 1257 1258 0
1259 1258 317 0
1254 316 1258 0
1254 1258 1259 0
77 1254 1259 0
1261 1256 78 0
1260 317 1256 0
1260 1256 1261 0
318 1260 1261 0
1262 1259 317 0
1239 77 1259 0
1239 1259 1262 0
313 1239 1262 0
1263 1260 318 0
1262 317 1260 0
1262 1260 1263 0
313 1262 1263 0
1264 1263 318 0
1244 313 1263 0
1244 1263 1264 0
20 1244 1264 0
4041 315 4039 0
1266 1249 315 0
1265 78 1249 0
1265 1249 1266 0
319 1265 1266 0
1266 315 4041 0
1266 4041 4042 0
319 1266 4042 0
4043 319 4042 0
1268 1261 78 0
1267 318 1261 0
1267 1261 1268 0
321 1267 1268 0
1270 1264 318 0
1269 20 1264 0
1269 1264 1270 0
320 1269 1270 0
1271 1267 321 0
1270 318 1267 0
1270 1267 1271 0
320 1270 1271 0
1273 1271 321 0
1272 320 1271 0
1272 1271 1273 0
79 1272 1273 0
1275 4043 4044 0
1274 319 4043 0
1274 4043 1275 0
322 1274 1275 0
1276 1265 319 0
1268 78 1265 0
1268 1265 1276 0
321 1268 1276 0
1277 1274 322 0
1276 319 1274 0
1276 1274 1277 0
321 1276 1277 0
1278 1277 322 0
1273 321 1277 0
1273 1277 1278 0
79 1273 1278 0
4045 1275 4044 0
1279 322 1275 0
1279 1275 4045 0
4046 1279 4045 0
1281 1278 322 0
1280 79 1278 0
1280 1278 1281 0
323 1280 1281 0
1282 1279 4046 0
1281 322 1279 0
1281 1279 1282 0
323 1281 1282 0
4047 1282 4046 0
1283 323 1282 0
1283 1282 4047 0
4048 1283 4047 0
1286 1284 1 0
1285 324 1284 0
1285 1284 1286 0
326 1285 1286 0
1289 1287 324 0
1288 80 1287 0
1288 1287 1289 0
325 1288 1289 0
1290 1285 326 0
1289 324 1285 0
1289 1285 1290 0
325 1289 1290 0
1292 1290 326 0
1291 325 1290 0
1291 1290 1292 0
82 1291 1292 0
1295 1293 80 0
1294 327 1293 0
1294 1293 1295 0
329 1294 1295 0
1298 1296 327 0
1297 21 1296 0
1297 1296 1298 0
328 1297 1298 0
1299 1294 329 0
1298 327 1294 0
1298 1294 1299 0
328 1298 1299 0
1301 1299 329 0
1300 328 1299 0
1300 1299 1301 0
81 1300 1301 0
1303 1291 82 0
1302 325 1291 0
1302 1291 1303 0
330 1302 1303 0
1304 1288 325 0
1295 80 1288 0
1295 1288 1304 0
329 1295 1304 0
1305 1302 330 0
1304 325 1302 0
1304 1302 1305 0
329 1304 1305 0
1306 1305 330 0
1301 329 1305 0
1301 1305 1306 0
81 1301 1306 0
1308 1303 82 0
1307 330 1303 0
1307 1303 1308 0
332 1307 1308 0
1310 1306 330 0
1309 81 1306 0
1309 1306 1310 0
331 1309 1310 0
1311 1307 332 0
1310 330 1307 0
1310 1307 1311 0
331 1310 1311 0
1313 1311 332 0
1312 331 1311 0
1312 1311 1313 0
23 1312 1313 0
1316 1314 21 0
1315 333 1314 0
1315 1314 1316 0
335 1315 1316 0
1319 1317 333 0
1318 83 1317 0
1318 1317 1319 0
334 1318 1319 0
1320 1315 335 0
1319 333 1315 0
1319 1315 1320 0
334 1319 1320 0
1322 1320 335 0
1321 334 1320 0
1321 1320 1322 0
85 1321 1322 0
1325 1323 83 0
1324 336 1323 0
1324 1323 1325 0
338 1324 1325 0
1328 1326 336 0
1327 5 1326 0
1327 1326 1328 0
337 1327 1328 0
1329 1324 338 0
1328 336 1324 0
1328 1324 1329 0
337 1328 1329 0
1331 1329 338 0
1330 337 1329 0
1330 1329 1331 0
84 1330 1331 0
1333 1321 85 0
1332 334 1321 0
1332 1321 1333 0
339 1332 1333 0
1334 1318 334 0
1325 83 1318 0
1325 1318 1334 0
338 1325 1334 0
1335 1332 339 0
1334 334 1332 0
1334 1332 1335 0
338 1334 1335 0
1336 1335 339 0
1331 338 1335 0
1331 1335 1336 0
84 1331 1336 0
1338 1333 85 0
1337 339 1333 0
1337 1333 1338 0
341 1337 1338 0
1340 1336 339 0
1339 84 1336 0
1339 1336 1340 0
340 1339 1340 0
1341 1337 341 0
1340 339 1337 0
1340 1337 1341 0
340 1340 1341 0
1343 1341 341 0
1342 340 1341 0
1342 1341 1343 0
22 1342 1343 0
1345 1312 23 0
1344 331 1312 0
1344 1312 1345 0
343 1344 1345 0
1347 1309 331 0
1346 81 1309 0
1346 1309 1347 0
342 1346 1347 0
1348 1344 343 0
1347 331 1344 0
1347 1344 1348 0
342 1347 1348 0
1350 1348 343 0
1349 342 1348 0
1349 1348 1350 0
86 1349 1350 0
1352 1300 81 0
1351 328 1300 0
1351 1300 1352 0
344 1351 1352 0
1353 1297 328 0
1316 21 1297 0
1316 1297 1353 0
335 1316 1353 0
1354 1351 344 0
1353 328 1351 0
1353 1351 1354 0
335 1353 1354 0
1355 1354 344 0
1322 335 1354 0
1322 1354 1355 0
85 1322 1355 0
1357 1349 86 0
1356 342 1349 0
1356 1349 1357 0
345 1356 1357 0
1358 1346 342 0
1352 81 1346 0
1352 1346 1358 0
344 1352 1358 0
1359 1356 345 0
1358 342 1356 0
1358 1356 1359 0
344 1358 1359 0
1360 1359 345 0
1355 344 1359 0
1355 1359 1360 0
85 1355 1360 0
1362 1357 86 0
1361 345 1357 0
1361 1357 1362 0
346 1361 1362 0
1363 1360 345 0
1338 85 1360 0
1338 1360 1363 0
341 1338 1363 0
1364 1361 346 0
1363 345 1361 0
1363 1361 1364 0
341 1363 1364 0
1365 1364 346 0
1343 341 1364 0
1343 1364 1365 0
22 1343 1365 0
1367 1345 23 0
1366 343 1345 0
1366 1345 1367 0
348 1366 1367 0
1369 1350 343 0
1368 86 1350 0
1368 1350 1369 0
347 1368 1369 0
1370 1366 348 0
1369 343 1366 0
1369 1366 1370 0
347 1369 1370 0
1372 1370 348 0
1371 347 1370 0
1371 1370 1372 0
88 1371 1372 0
1374 1362 86 0
1373 346 1362 0
1373 1362 1374 0
350 1373 1374 0
1376 1365 346 0
1375 22 1365 0
1375 1365 1376 0
349 1375 1376 0
1377 1373 350 0
1376 346 1373 0
1376 1373 1377 0
349 1376 1377 0
1379 1377 350 0
1378 349 1377 0
1378 1377 1379 0
87 1378 1379 0
1381 1371 88 0
1380 347 1371 0
1380 1371 1381 0
351 1380 1381 0
1382 1368 347 0
1374 86 1368 0
1374 1368 1382 0
350 1374 1382 0
1383 1380 351 0
1382 347 1380 0
1382 1380 1383 0
350 1382 1383 0
1384 1383 351 0
1379 350 1383 0
1379 1383 1384 0
87 1379 1384 0
1386 1381 88 0
1385 351 1381 0
1385 1381 1386 0
353 1385 1386 0
1388 1384 351 0
1387 87 1384 0
1387 1384 1388 0
352 1387 1388 0
1389 1385 353 0
1388 351 1385 0
1388 1385 1389 0
352 1388 1389 0
1391 1389 353 0
1390 352 1389 0
1390 1389 1391 0
7 1390 1391 0
1394 1392 5 0
1393 354 1392 0
1393 1392 1394 0
356 1393 1394 0
1397 1395 354 0
1396 89 1395 0
1396 1395 1397 0
355 1396 1397 0
1398 1393 356 0
1397 354 1393 0
1397 1393 1398 0
355 1397 1398 0
1400 1398 356 0
1399 355 1398 0
1399 1398 1400 0
91 1399 1400 0
1403 1401 89 0
1402 357 1401 0
1402 1401 1403 0
359 1402 1403 0
1406 1404 357 0
1405 24 1404 0
1405 1404 1406 0
358 1405 1406 0
1407 1402 359 0
1406 357 1402 0
1406 1402 1407 0
358 1406 1407 0
1409 1407 359 0
1408 358 1407 0
1408 1407 1409 0
90 1408 1409 0
1411 1399 91 0
1410 355 1399 0
1410 1399 1411 0
360 1410 1411 0
1412 1396 355 0
1403 89 1396 0
1403 1396 1412 0
359 1403 1412 0
1413 1410 360 0
1412 355 1410 0
1412 1410 1413 0
359 1412 1413 0
1414 1413 360 0
1409 359 1413 0
1409 1413 1414 0
90 1409 1414 0
1416 1411 91 0
1415 360 1411 0
1415 1411 1416 0
362 1415 1416 0
1418 1414 360 0
1417 90 1414 0
1417 1414 1418 0
361 1417 1418 0
1419 1415 362 0
1418 360 1415 0
1418 1415 1419 0
361 1418 1419 0
1421 1419 362 0
1420 361 1419 0
1420 1419 1421 0
26 1420 1421 0
1424 1422 24 0
1423 363 1422 0
1423 1422 1424 0
365 1423 1424 0
1427 1425 363 0
1426 92 1425 0
1426 1425 1427 0
364 1426 1427 0
1428 1423 365 0
1427 363 1423 0
1427 1423 1428 0
364 1427 1428 0
1430 1428 365 0
1429 364 1428 0
1429 1428 1430 0
94 1429 1430 0
1433 1431 92 0
1432 366 1431 0
1432 1431 1433 0
368 1432 1433 0
1436 1434 366 0
1435 0 1434 0
1435 1434 1436 0
367 1435 1436 0
1437 1432 368 0
1436 366 1432 0
1436 1432 1437 0
367 1436 1437 0
1439 1437 368 0
1438 367 1437 0
1438 1437 1439 0
93 1438 1439 0
1441 1429 94 0
1440 364 1429 0
1440 1429 1441 0
369 1440 1441 0
1442 1426 364 0
1433 92 1426 0
1433 1426 1442 0
368 1433 1442 0
1443 1440 369 0
1442 364 1440 0
1442 1440 1443 0
368 1442 1443 0
1444 1443 369 0
1439 368 1443 0
1439 1443 1444 0
93 1439 1444 0
1446 1441 94 0
1445 369 1441 0
1445 1441 1446 0
371 1445 1446 0
1448 1444 369 0
1447 93 1444 0
1447 1444 1448 0
370 1447 1448 0
1449 1445 371 0
1448 369 1445 0
1448 1445 1449 0
370 1448 1449 0
1451 1449 371 0
1450 370 1449 0
1450 1449 1451 0
25 1450 1451 0
1453 1420 26 0
1452 361 1420 0
1452 1420 1453 0
373 1452 1453 0
1455 1417 361 0
1454 90 1417 0
1454 1417 1455 0
372 1454 1455 0
1456 1452 373 0
1455 361 1452 0
1455 1452 1456 0
372 1455 1456 0
1458 1456 373 0
1457 372 1456 0
1457 1456 1458 0
95 1457 1458 0
1460 1408 90 0
1459 358 1408 0
1459 1408 1460 0
374 1459 1460 0
1461 1405 358 0
1424 24 1405 0
1424 1405 1461 0
365 1424 1461 0
1462 1459 374 0
1461 358 1459 0
1461 1459 1462 0
365 1461 1462 0
1463 1462 374 0
1430 365 1462 0
1430 1462 1463 0
94 1430 1463 0
1465 1457 95 0
1464 372 1457 0
1464 1457 1465 0
375 1464 1465 0
1466 1454 372 0
1460 90 1454 0
1460 1454 1466 0
374 1460 1466 0
1467 1464 375 0
1466 372 1464 0
1466 1464 1467 0
374 1466 1467 0
1468 1467 375 0
1463 374 1467 0
1463 1467 1468 0
94 1463 1468 0
1470 1465 95 0
1469 375 1465 0
1469 1465 1470 0
376 1469 1470 0
1471 1468 375 0
1446 94 1468 0
1446 1468 1471 0
371 1446 1471 0
1472 1469 376 0
1471 375 1469 0
1471 1469 1472 0
371 1471 1472 0
1473 1472 376 0
1451 371 1472 0
1451 1472 1473 0
25 1451 1473 0
1475 1453 26 0
1474 373 1453 0
1474 1453 1475 0
378 1474 1475 0
1477 1458 373 0
1476 95 1458 0
1476 1458 1477 0
377 1476 1477 0
1478 1474 378 0
1477 373 1474 0
1477 1474 1478 0
377 1477 1478 0
1480 1478 378 0
1479 377 1478 0
1479 1478 1480 0
97 1479 1480 0
1482 1470 95 0
1481 376 1470 0
1481 1470 1482 0
380 1481 1482 0
1484 1473 376 0
1483 25 1473 0
1483 1473 1484 0
379 1483 1484 0
1485 1481 380 0
1484 376 1481 0
1484 1481 1485 0
379 1484 1485 0
1487 1485 380 0
1486 379 1485 0
1486 1485 1487 0
96 1486 1487 0
1489 1479 97 0
1488 377 1479 0
1488 1479 1489 0
381 1488 1489 0
1490 1476 377 0
1482 95 1476 0
1482 1476 1490 0
380 1482 1490 0
1491 1488 381 0
1490 377 1488 0
1490 1488 1491 0
380 1490 1491 0
1492 1491 381 0
1487 380 1491 0
1487 1491 1492 0
96 1487 1492 0
1494 1489 97 0
1493 381 1489 0
1493 1489 1494 0
383 1493 1494 0
1496 1492 381 0
1495 96 1492 0
1495 1492 1496 0
382 1495 1496 0
1497 1493 383 0
1496 381 1493 0
1496 1493 1497 0
382 1496 1497 0
1499 1497 383 0
1498 382 1497 0
1498 1497 1499 0
6 1498 1499 0
1501 1390 7 0
1500 352 1390 0
1500 1390 1501 0
385 1500 1501 0
1503 1387 352 0
1502 87 1387 0
1502 1387 1503 0
384 1502 1503 0
1504 1500 385 0
1503 352 1500 0
1503 1500 1504 0
384 1503 1504 0
1506 1504 385 0
1505 384 1504 0
1505 1504 1506 0
99 1505 1506 0
1508 1378 87 0
1507 349 1378 0
1507 1378 1508 0
387 1507 1508 0
1510 1375 349 0
1509 22 1375 0
1509 1375 1510 0
386 1509 1510 0
1511 1507 387 0
1510 349 1507 0
1510 1507 1511 0
386 1510 1511 0
1513 1511 387 0
1512 386 1511 0
1512 1511 1513 0
98 1512 1513 0
1515 1505 99 0
1514 384 1505 0
1514 1505 1515 0
388 1514 1515 0
1516 1502 384 0
1508 87 1502 0
1508 1502 1516 0
387 1508 1516 0
1517 1514 388 0
1516 384 1514 0
1516 1514 1517 0
387 1516 1517 0
1518 1517 388 0
1513 387 1517 0
1513 1517 1518 0
98 1513 1518 0
1520 1515 99 0
1519 388 1515 0
1519 1515 1520 0
390 1519 1520 0
1522 1518 388 0
1521 98 1518 0
1521 1518 1522 0
389 1521 1522 0
1523 1519 390 0
1522 388 1519 0
1522 1519 1523 0
389 1522 1523 0
1525 1523 390 0
1524 389 1523 0
1524 1523 1525 0
27 1524 1525 0
1527 1342 22 0
1526 340 1342 0
1526 1342 1527 0
392 1526 1527 0
1529 1339 340 0
1528 84 1339 0
1528 1339 1529 0
391 1528 1529 0
1530 1526 392 0
1529 340 1526 0
1529 1526 1530 0
391 1529 1530 0
1532 1530 392 0
1531 391 1530 0
1531 1530 1532 0
100 1531 1532 0
1534 1330 84 0
1533 337 1330 0
1533 1330 1534 0
393 1533 1534 0
1535 1327 337 0
1394 5 1327 0
1394 1327 1535 0
356 1394 1535 0
1536 1533 393 0
1535 337 1533 0
1535 1533 1536 0
356 1535 1536 0
1537 1536 393 0
1400 356 1536 0
1400 1536 1537 0
91 1400 1537 0
1539 1531 100 0
1538 391 1531 0
1538 1531 1539 0
394 1538 1539 0
1540 1528 391 0
1534 84 1528 0
1534 1528 1540 0
393 1534 1540 0
1541 1538 394 0
1540 391 1538 0
1540 1538 1541 0
393 1540 1541 0
1542 1541 394 0
1537 393 1541 0
1537 1541 1542 0
91 1537 1542 0
1544 1539 100 0
1543 394 1539 0
1543 1539 1544 0
395 1543 1544 0
1545 1542 394 0
1416 91 1542 0
1416 1542 1545 0
362 1416 1545 0
1546 1543 395 0
1545 394 1543 0
1545 1543 1546 0
362 1545 1546 0
1547 1546 395 0
1421 362 1546 0
1421 1546 1547 0
26 1421 1547 0
1549 1524 27 0
1548 389 1524 0
1548 1524 1549 0
397 1548 1549 0
1551 1521 389 0
1550 98 1521 0
1550 1521 1551 0
396 1550 1551 0
1552 1548 397 0
1551 389 1548 0
1551 1548 1552 0
396 1551 1552 0
1554 1552 397 0
1553 396 1552 0
1553 1552 1554 0
101 1553 1554 0
1556 1512 98 0
1555 386 1512 0
1555 1512 1556 0
398 1555 1556 0
1557 1509 386 0
1527 22 1509 0
1527 1509 1557 0
392 1527 1557 0
1558 1555 398 0
1557 386 1555 0
1557 1555 1558 0
392 1557 1558 0
1559 1558 398 0
1532 392 1558 0
1532 1558 1559 0
100 1532 1559 0
1561 1553 101 0
1560 396 1553 0
1560 1553 1561 0
399 1560 1561 0
1562 1550 396 0
1556 98 1550 0
1556 1550 1562 0
398 1556 1562 0
1563 1560 399 0
1562 396 1560 0
1562 1560 1563 0
398 1562 1563 0
1564 1563 399 0
1559 398 1563 0
1559 1563 1564 0
100 1559 1564 0
1566 1561 101 0
1565 399 1561 0
1565 1561 1566 0
400 1565 1566 0
1567 1564 399 0
1544 100 1564 0
1544 1564 1567 0
395 1544 1567 0
1568 1565 400 0
1567 399 1565 0
1567 1565 1568 0
395 1567 1568 0
1569 1568 400 0
1547 395 1568 0
1547 1568 1569 0
26 1547 1569 0
1571 1549 27 0
1570 397 1549 0
1570 1549 1571 0
402 1570 1571 0
1573 1554 397 0
1572 101 1554 0
1572 1554 1573 0
401 1572 1573 0
1574 1570 402 0
1573 397 1570 0
1573 1570 1574 0
401 1573 1574 0
1576 1574 402 0
1575 401 1574 0
1575 1574 1576 0
102 1575 1576 0
1578 1566 101 0
1577 400 1566 0
1577 1566 1578 0
403 1577 1578 0
1579 1569 400 0
1475 26 1569 0
1475 1569 1579 0
378 1475 1579 0
1580 1577 403 0
1579 400 1577 0
1579 1577 1580 0
378 1579 1580 0
1581 1580 403 0
1480 378 1580 0
1480 1580 1581 0
97 1480 1581 0
1583 1575 102 0
1582 401 1575 0
1582 1575 1583 0
404 1582 1583 0
1584 1572 401 0
1578 101 1572 0
1578 1572 1584 0
403 1578 1584 0
1585 1582 404 0
1584 401 1582 0
1584 1582 1585 0
403 1584 1585 0
1586 1585 404 0
1581 403 1585 0
1581 1585 1586 0
97 1581 1586 0
1588 1583 102 0
1587 404 1583 0
1587 1583 1588 0
405 1587 1588 0
1589 1586 404 0
1494 97 1586 0
1494 1586 1589 0
383 1494 1589 0
1590 1587 405 0
1589 404 1587 0
1589 1587 1590 0
383 1589 1590 0
1591 1590 405 0
1499 383 1590 0
1499 1590 1591 0
6 1499 1591 0
1593 1501 7 0
1592 385 1501 0
1592 1501 1593 0
407 1592 1593 0
1595 1506 385 0
1594 99 1506 0
1594 1506 1595 0
406 1594 1595 0
1596 1592 407 0
1595 385 1592 0
1595 1592 1596 0
406 1595 1596 0
1598 1596 407 0
1597 406 1596 0
1597 1596 1598 0
104 1597 1598 0
1600 1520 99 0
1599 390 1520 0
1599 1520 1600 0
409 1599 1600 0
1602 1525 390 0
1601 27 1525 0
1601 1525 1602 0
408 1601 1602 0
1603 1599 409 0
1602 390 1599 0
1602 1599 1603 0
408 1602 1603 0
1605 1603 409 0
1604 408 1603 0
1604 1603 1605 0
103 1604 1605 0
1607 1597 104 0
1606 406 1597 0
1606 1597 1607 0
410 1606 1607 0
1608 1594 406 0
1600 99 1594 0
1600 1594 1608 0
409 1600 1608 0
1609 1606 410 0
1608 406 1606 0
1608 1606 1609 0
409 1608 1609 0
1610 1609 410 0
1605 409 1609 0
1605 1609 1610 0
103 1605 1610 0
1612 1607 104 0
1611 410 1607 0
1611 1607 1612 0
412 1611 1612 0
1614 1610 410 0
1613 103 1610 0
1613 1610 1614 0
411 1613 1614 0
1615 1611 412 0
1614 410 1611 0
1614 1611 1615 0
411 1614 1615 0
1617 1615 412 0
1616 411 1615 0
1616 1615 1617 0
29 1616 1617 0
1619 1571 27 0
1618 402 1571 0
1618 1571 1619 0
414 1618 1619 0
1621 1576 402 0
1620 102 1576 0
1620 1576 1621 0
413 1620 1621 0
1622 1618 414 0
1621 402 1618 0
1621 1618 1622 0
413 1621 1622 0
1624 1622 414 0
1623 413 1622 0
1623 1622 1624 0
106 1623 1624 0
1626 1588 102 0
1625 405 1588 0
1625 1588 1626 0
416 1625 1626 0
1628 1591 405 0
1627 6 1591 0
1627 1591 1628 0
415 1627 1628 0
1629 1625 416 0
1628 405 1625 0
1628 1625 1629 0
415 1628 1629 0
1631 1629 416 0
1630 415 1629 0
1630 1629 1631 0
105 1630 1631 0
1633 1623 106 0
1632 413 1623 0
1632 1623 1633 0
417 1632 1633 0
1634 1620 413 0
1626 102 1620 0
1626 1620 1634 0
416 1626 1634 0
1635 1632 417 0
1634 413 1632 0
1634 1632 1635 0
416 1634 1635 0
1636 1635 417 0
1631 416 1635 0
1631 1635 1636 0
105 1631 1636 0
1638 1633 106 0
1637 417 1633 0
1637 1633 1638 0
419 1637 1638 0
1640 1636 417 0
1639 105 1636 0
1639 1636 1640 0
418 1639 1640 0
1641 1637 419 0
1640 417 1637 0
1640 1637 1641 0
418 1640 1641 0
1643 1641 419 0
1642 418 1641 0
1642 1641 1643 0
28 1642 1643 0
1645 1616 29 0
1644 411 1616 0
1644 1616 1645 0
421 1644 1645 0
1647 1613 411 0
1646 103 1613 0
1646 1613 1647 0
420 1646 1647 0
1648 1644 421 0
1647 411 1644 0
1647 1644 1648 0
420 1647 1648 0
1650 1648 421 0
1649 420 1648 0
1649 1648 1650 0
107 1649 1650 0
1652 1604 103 0
1651 408 1604 0
1651 1604 1652 0
422 1651 1652 0
1653 1601 408 0
1619 27 1601 0
1619 1601 1653 0
414 1619 1653 0
1654 1651 422 0
1653 408 1651 0
1653 1651 1654 0
414 1653 1654 0
1655 1654 422 0
1624 414 1654 0
1624 1654 1655 0
106 1624 1655 0
1657 1649 107 0
1656 420 1649 0
1656 1649 1657 0
423 1656 1657 0
1658 1646 420 0
1652 103 1646 0
1652 1646 1658 0
422 1652 1658 0
1659 1656 423 0
1658 420 1656 0
1658 1656 1659 0
422 1658 1659 0
1660 1659 423 0
1655 422 1659 0
1655 1659 1660 0
106 1655 1660 0
1662 1657 107 0
1661 423 1657 0
1661 1657 1662 0
424 1661 1662 0
1663 1660 423 0
1638 106 1660 0
1638 1660 1663 0
419 1638 1663 0
1664 1661 424 0
1663 423 1661 0
1663 1661 1664 0
419 1663 1664 0
1665 1664 424 0
1643 419 1664 0
1643 1664 1665 0
28 1643 1665 0
1667 1645 29 0
1666 421 1645 0
1666 1645 1667 0
425 1666 1667 0
4049 1650 421 0
4050 107 1650 0
4050 1650 4049 0
4051 1666 425 0
4049 421 1666 0
4049 1666 4051 0
4052 4051 425 0
1669 1662 107 0
1668 424 1662 0
1668 1662 1669 0
4053 1668 1669 0
4054 1665 424 0
1670 28 1665 0
1670 1665 4054 0
4055 1670 4054 0
4056 1668 4053 0
4054 424 1668 0
4054 1668 4056 0
1669 107 4050 0
1669 4050 4057 0
4053 1669 4057 0
1672 1283 4048 0
1671 323 1283 0
1671 1283 1672 0
427 1671 1672 0
1674 1280 323 0
1673 79 1280 0
1673 1280 1674 0
426 1673 1674 0
1675 1671 427 0
1674 323 1671 0
1674 1671 1675 0
426 1674 1675 0
1677 1675 427 0
1676 426 1675 0
1676 1675 1677 0
109 1676 1677 0
1679 1272 79 0
1678 320 1272 0
1678 1272 1679 0
429 1678 1679 0
1681 1269 320 0
1680 20 1269 0
1680 1269 1681 0
428 1680 1681 0
1682 1678 429 0
1681 320 1678 0
1681 1678 1682 0
428 1681 1682 0
1684 1682 429 0
1683 428 1682 0
1683 1682 1684 0
108 1683 1684 0
1686 1676 109 0
1685 426 1676 0
1685 1676 1686 0
430 1685 1686 0
1687 1673 426 0
1679 79 1673 0
1679 1673 1687 0
429 1679 1687 0
1688 1685 430 0
1687 426 1685 0
1687 1685 1688 0
429 1687 1688 0
1689 1688 430 0
1684 429 1688 0
1684 1688 1689 0
108 1684 1689 0
1691 1686 109 0
1690 430 1686 0
1690 1686 1691 0
432 1690 1691 0
1693 1689 430 0
1692 108 1689 0
1692 1689 1693 0
431 1692 1693 0
1694 1690 432 0
1693 430 1690 0
1693 1690 1694 0
431 1693 1694 0
1696 1694 432 0
1695 431 1694 0
1695 1694 1696 0
31 1695 1696 0
1698 1243 20 0
1697 312 1243 0
1697 1243 1698 0
434 1697 1698 0
1700 1240 312 0
1699 76 1240 0
1699 1240 1700 0
433 1699 1700 0
1701 1697 434 0
1700 312 1697 0
1700 1697 1701 0
433 1700 1701 0
1703 1701 434 0
1702 433 1701 0
1702 1701 1703 0
111 1702 1703 0
1705 1231 76 0
1704 309 1231 0
1704 1231 1705 0
436 1704 1705 0
1707 1228 309 0
1706 4 1228 0
1706 1228 1707 0
435 1706 1707 0
1708 1704 436 0
1707 309 1704 0
1707 1704 1708 0
435 1707 1708 0
1710 1708 436 0
1709 435 1708 0
1709 1708 1710 0
110 1709 1710 0
1712 1702 111 0
1711 433 1702 0
1711 1702 1712 0
437 1711 1712 0
1713 1699 433 0
1705 76 1699 0
1705 1699 1713 0
436 1705 1713 0
1714 1711 437 0
1713 433 1711 0
1713 1711 1714 0
436 1713 1714 0
1715 1714 437 0
1710 436 1714 0
1710 1714 1715 0
110 1710 1715 0
1717 1712 111 0
1716 437 1712 0
1716 1712 1717 0
439 1716 1717 0
1719 1715 437 0
1718 110 1715 0
1718 1715 1719 0
438 1718 1719 0
1720 1716 439 0
1719 437 1716 0
1719 1716 1720 0
438 1719 1720 0
1722 1720 439 0
1721 438 1720 0
1721 1720 1722 0
30 1721 1722 0
1724 1695 31 0
1723 431 1695 0
1723 1695 1724 0
441 1723 1724 0
1726 1692 431 0
1725 108 1692 0
1725 1692 1726 0
440 1725 1726 0
1727 1723 441 0
1726 431 1723 0
1726 1723 1727 0
440 1726 1727 0
1729 1727 441 0
1728 440 1727 0
1728 1727 1729 0
112 1728 1729 0
1731 1683 108 0
1730 428 1683 0
1730 1683 1731 0
442 1730 1731 0
1732 1680 428 0
1698 20 1680 0
1698 1680 1732 0
434 1698 1732 0
1733 1730 442 0
1732 428 1730 0
1732 1730 1733 0
434 1732 1733 0
1734 1733 442 0
1703 434 1733 0
1703 1733 1734 0
111 1703 1734 0
1736 1728 112 0
1735 440 1728 0
1735 1728 1736 0
443 1735 1736 0
1737 1725 440 0
1731 108 1725 0
1731 1725 1737 0
442 1731 1737 0
1738 1735 443 0
1737 440 1735 0
1737 1735 1738 0
442 1737 1738 0
1739 1738 443 0
1734 442 1738 0
1734 1738 1739 0
111 1734 1739 0
1741 1736 112 0
1740 443 1736 0
1740 1736 1741 0
444 1740 1741 0
1742 1739 443 0
1717 111 1739 0
1717 1739 1742 0
439 1717 1742 0
1743 1740 444 0
1742 443 1740 0
1742 1740 1743 0
439 1742 1743 0
1744 1743 444 0
1722 439 1743 0
1722 1743 1744 0
30 1722 1744 0
1746 1724 31 0
1745 441 1724 0
1745 1724 1746 0
446 1745 1746 0
1748 1729 441 0
1747 112 1729 0
1747 1729 1748 0
445 1747 1748 0
1749 1745 446 0
1748 441 1745 0
1748 1745 1749 0
445 1748 1749 0
1751 1749 446 0
1750 445 1749 0
1750 1749 1751 0
114 1750 1751 0
1753 1741 112 0
1752 444 1741 0
1752 1741 1753 0
448 1752 1753 0
1755 1744 444 0
1754 30 1744 0
1754 1744 1755 0
447 1754 1755 0
1756 1752 448 0
1755 444 1752 0
1755 1752 1756 0
447 1755 1756 0
1758 1756 448 0
1757 447 1756 0
1757 1756 1758 0
113 1757 1758 0
1760 1750 114 0
1759 445 1750 0
1759 1750 1760 0
449 1759 1760 0
1761 1747 445 0
1753 112 1747 0
1753 1747 1761 0
448 1753 1761 0
1762 1759 449 0
1761 445 1759 0
1761 1759 1762 0
448 1761 1762 0
1763 1762 449 0
1758 448 1762 0
1758 1762 1763 0
113 1758 1763 0
1765 1760 114 0
1764 449 1760 0
1764 1760 1765 0
451 1764 1765 0
1767 1763 449 0
1766 113 1763 0
1766 1763 1767 0
450 1766 1767 0
1768 1764 451 0
1767 449 1764 0
1767 1764 1768 0
450 1767 1768 0
1770 1768 451 0
1769 450 1768 0
1769 1768 1770 0
8 1769 1770 0
1772 1129 4 0
1771 283 1129 0
1771 1129 1772 0
453 1771 1772 0
1774 1126 283 0
1773 69 1126 0
1773 1126 1774 0
452 1773 1774 0
1775 1771 453 0
1774 283 1771 0
1774 1771 1775 0
452 1774 1775 0
1777 1775 453 0
1776 452 1775 0
1776 1775 1777 0
116 1776 1777 0
1779 1117 69 0
1778 280 1117 0
1778 1117 1779 0
455 1778 1779 0
1781 1114 280 0
1780 17 1114 0
1780 1114 1781 0
454 1780 1781 0
1782 1778 455 0
1781 280 1778 0
1781 1778 1782 0
454 1781 1782 0
1784 1782 455 0
1783 454 1782 0
1783 1782 1784 0
115 1783 1784 0
1786 1776 116 0
1785 452 1776 0
1785 1776 1786 0
456 1785 1786 0
1787 1773 452 0
1779 69 1773 0
1779 1773 1787 0
455 1779 1787 0
1788 1785 456 0
1787 452 1785 0
1787 1785 1788 0
455 1787 1788 0
1789 1788 456 0
1784 455 1788 0
1784 1788 1789 0
115 1784 1789 0
1791 1786 116 0
1790 456 1786 0
1790 1786 1791 0
458 1790 1791 0
1793 1789 456 0
1792 115 1789 0
1792 1789 1793 0
457 1792 1793 0
1794 1790 458 0
1793 456 1790 0
1793 1790 1794 0
457 1793 1794 0
1796 1794 458 0
1795 457 1794 0
1795 1794 1796 0
32 1795 1796 0
1798 1081 17 0
1797 271 1081 0
1797 1081 1798 0
460 1797 1798 0
1800 1078 271 0
1799 66 1078 0
1799 1078 1800 0
459 1799 1800 0
1801 1797 460 0
1800 271 1797 0
1800 1797 1801 0
459 1800 1801 0
1803 1801 460 0
1802 459 1801 0
1802 1801 1803 0
117 1802 1803 0
1805 1069 66 0
1804 268 1069 0
1804 1069 1805 0
461 1804 1805 0
1806 1066 268 0
1286 1 1066 0
1286 1066 1806 0
326 1286 1806 0
1807 1804 461 0
1806 268 1804 0
1806 1804 1807 0
326 1806 1807 0
1808 1807 461 0
1292 326 1807 0
1292 1807 1808 0
82 1292 1808 0
1810 1802 117 0
1809 459 1802 0
1809 1802 1810 0
462 1809 1810 0
1811 1799 459 0
1805 66 1799 0
1805 1799 1811 0
461 1805 1811 0
1812 1809 462 0
1811 459 1809 0
1811 1809 1812 0
461 1811 1812 0
1813 1812 462 0
1808 461 1812 0
1808 1812 1813 0
82 1808 1813 0
1815 1810 117 0
1814 462 1810 0
1814 1810 1815 0
463 1814 1815 0
1816 1813 462 0
1308 82 1813 0
1308 1813 1816 0
332 1308 1816 0
1817 1814 463 0
1816 462 1814 0
1816 1814 1817 0
332 1816 1817 0
1818 1817 463 0
1313 332 1817 0
1313 1817 1818 0
23 1313 1818 0
1820 1795 32 0
1819 457 1795 0
1819 1795 1820 0
465 1819 1820 0
1822 1792 457 0
1821 115 1792 0
1821 1792 1822 0
464 1821 1822 0
1823 1819 465 0
1822 457 1819 0
1822 1819 1823 0
464 1822 1823 0
1825 1823 465 0
1824 464 1823 0
1824 1823 1825 0
118 1824 1825 0
1827 1783 115 0
1826 454 1783 0
1826 1783 1827 0
466 1826 1827 0
1828 1780 454 0
1798 17 1780 0
1798 1780 1828 0
460 1798 1828 0
1829 1826 466 0
1828 454 1826 0
1828 1826 1829 0
460 1828 1829 0
1830 1829 466 0
1803 460 1829 0
1803 1829 1830 0
117 1803 1830 0
1832 1824 118 0
1831 464 1824 0
1831 1824 1832 0
467 1831 1832 0
1833 1821 464 0
1827 115 1821 0
1827 1821 1833 0
466 1827 1833 0
1834 1831 467 0
1833 464 1831 0
1833 1831 1834 0
466 1833 1834 0
1835 1834 467 0
1830 466 1834 0
1830 1834 1835 0
117 1830 1835 0
1837 1832 118 0
1836 467 1832 0
1836 1832 1837 0
468 1836 1837 0
1838 1835 467 0
1815 117 1835 0
1815 1835 1838 0
463 1815 1838 0
1839 1836 468 0
1838 467 1836 0
1838 1836 1839 0
463 1838 1839 0
1840 1839 468 0
1818 463 1839 0
1818 1839 1840 0
23 1818 1840 0
1842 1820 32 0
1841 465 1820 0
1841 1820 1842 0
470 1841 1842 0
1844 1825 465 0
1843 118 1825 0
1843 1825 1844 0
469 1843 1844 0
1845 1841 470 0
1844 465 1841 0
1844 1841 1845 0
469 1844 1845 0
1847 1845 470 0
1846 469 1845 0
1846 1845 1847 0
119 1846 1847 0
1849 1837 118 0
1848 468 1837 0
1848 1837 1849 0
471 1848 1849 0
1850 1840 468 0
1367 23 1840 0
1367 1840 1850 0
348 1367 1850 0
1851 1848 471 0
1850 468 1848 0
1850 1848 1851 0
348 1850 1851 0
1852 1851 471 0
1372 348 1851 0
1372 1851 1852 0
88 1372 1852 0
1854 1846 119 0
1853 469 1846 0
1853 1846 1854 0
472 1853 1854 0
1855 1843 469 0
1849 118 1843 0
1849 1843 1855 0
471 1849 1855 0
1856 1853 472 0
1855 469 1853 0
1855 1853 1856 0
471 1855 1856 0
1857 1856 472 0
1852 471 1856 0
1852 1856 1857 0
88 1852 1857 0
1859 1854 119 0
1858 472 1854 0
1858 1854 1859 0
473 1858 1859 0
1860 1857 472 0
1386 88 1857 0
1386 1857 1860 0
353 1386 1860 0
1861 1858 473 0
1860 472 1858 0
1860 1858 1861 0
353 1860 1861 0
1862 1861 473 0
1391 353 1861 0
1391 1861 1862 0
7 1391 1862 0
1864 1769 8 0
1863 450 1769 0
1863 1769 1864 0
475 1863 1864 0
1866 1766 450 0
1865 113 1766 0
1865 1766 1866 0
474 1865 1866 0
1867 1863 475 0
1866 450 1863 0
1866 1863 1867 0
474 1866 1867 0
1869 1867 475 0
1868 474 1867 0
1868 1867 1869 0
121 1868 1869 0
1871 1757 113 0
1870 447 1757 0
1870 1757 1871 0
477 1870 1871 0
1873 1754 447 0
1872 30 1754 0
1872 1754 1873 0
476 1872 1873 0
1874 1870 477 0
1873 447 1870 0
1873 1870 1874 0
476 1873 1874 0
1876 1874 477 0
1875 476 1874 0
1875 1874 1876 0
120 1875 1876 0
1878 1868 121 0
1877 474 1868 0
1877 1868 1878 0
478 1877 1878 0
1879 1865 474 0
1871 113 1865 0
1871 1865 1879 0
477 1871 1879 0
1880 1877 478 0
1879 474 1877 0
1879 1877 1880 0
477 1879 1880 0
1881 1880 478 0
1876 477 1880 0
1876 1880 1881 0
120 1876 1881 0
1883 1878 121 0
1882 478 1878 0
1882 1878 1883 0
480 1882 1883 0
1885 1881 478 0
1884 120 1881 0
1884 1881 1885 0
479 1884 1885 0
1886 1882 480 0
1885 478 1882 0
1885 1882 1886 0
479 1885 1886 0
1888 1886 480 0
1887 479 1886 0
1887 1886 1888 0
33 1887 1888 0
1890 1721 30 0
1889 438 1721 0
1889 1721 1890 0
482 1889 1890 0
1892 1718 438 0
1891 110 1718 0
1891 1718 1892 0
481 1891 1892 0
1893 1889 482 0
1892 438 1889 0
1892 1889 1893 0
481 1892 1893 0
1895 1893 482 0
1894 481 1893 0
1894 1893 1895 0
122 1894 1895 0
1897 1709 110 0
1896 435 1709 0
1896 1709 1897 0
483 1896 1897 0
1898 1706 435 0
1772 4 1706 0
1772 1706 1898 0
453 1772 1898 0
1899 1896 483 0
1898 435 1896 0
1898 1896 1899 0
453 1898 1899 0
1900 1899 483 0
1777 453 1899 0
1777 1899 1900 0
116 1777 1900 0
1902 1894 122 0
1901 481 1894 0
1901 1894 1902 0
484 1901 1902 0
1903 1891 481 0
1897 110 1891 0
1897 1891 1903 0
483 1897 1903 0
1904 1901 484 0
1903 481 1901 0
1903 1901 1904 0
483 1903 1904 0
1905 1904 484 0
1900 483 1904 0
1900 1904 1905 0
116 1900 1905 0
1907 1902 122 0
1906 484 1902 0
1906 1902 1907 0
485 1906 1907 0
1908 1905 484 0
1791 116 1905 0
1791 1905 1908 0
458 1791 1908 0
1909 1906 485 0
1908 484 1906 0
1908 1906 1909 0
458 1908 1909 0
1910 1909 485 0
1796 458 1909 0
1796 1909 1910 0
32 1796 1910 0
1912 1887 33 0
1911 479 1887 0
1911 1887 1912 0
487 1911 1912 0
1914 1884 479 0
1913 120 1884 0
1913 1884 1914 0
486 1913 1914 0
1915 1911 487 0
1914 479 1911 0
1914 1911 1915 0
486 1914 1915 0
1917 1915 487 0
1916 486 1915 0
1916 1915 1917 0
123 1916 1917 0
1919 1875 120 0
1918 476 1875 0
1918 1875 1919 0
488 1918 1919 0
1920 1872 476 0
1890 30 1872 0
1890 1872 1920 0
482 1890 1920 0
1921 1918 488 0
1920 476 1918 0
1920 1918 1921 0
482 1920 1921 0
1922 1921 488 0
1895 482 1921 0
1895 1921 1922 0
122 1895 1922 0
1924 1916 123 0
1923 486 1916 0
1923 1916 1924 0
489 1923 1924 0
1925 1913 486 0
1919 120 1913 0
1919 1913 1925 0
488 1919 1925 0
1926 1923 489 0
1925 486 1923 0
1925 1923 1926 0
488 1925 1926 0
1927 1926 489 0
1922 488 1926 0
1922 1926 1927 0
122 1922 1927 0
1929 1924 123 0
1928 489 1924 0
1928 1924 1929 0
490 1928 1929 0
1930 1927 489 0
1907 122 1927 0
1907 1927 1930 0
485 1907 1930 0
1931 1928 490 0
1930 489 1928 0
1930 1928 1931 0
485 1930 1931 0
1932 1931 490 0
1910 485 1931 0
1910 1931 1932 0
32 1910 1932 0
1934 1912 33 0
1933 487 1912 0
1933 1912 1934 0
492 1933 1934 0
1936 1917 487 0
1935 123 1917 0
1935 1917 1936 0
491 1935 1936 0
1937 1933 492 0
1936 487 1933 0
1936 1933 1937 0
491 1936 1937 0
1939 1937 492 0
1938 491 1937 0
1938 1937 1939 0
124 1938 1939 0
1941 1929 123 0
1940 490 1929 0
1940 1929 1941 0
493 1940 1941 0
1942 1932 490 0
1842 32 1932 0
1842 1932 1942 0
470 1842 1942 0
1943 1940 493 0
1942 490 1940 0
1942 1940 1943 0
470 1942 1943 0
1944 1943 493 0
1847 470 1943 0
1847 1943 1944 0
119 1847 1944 0
1946 1938 124 0
1945 491 1938 0
1945 1938 1946 0
494 1945 1946 0
1947 1935 491 0
1941 123 1935 0
1941 1935 1947 0
493 1941 1947 0
1948 1945 494 0
1947 491 1945 0
1947 1945 1948 0
493 1947 1948 0
1949 1948 494 0
1944 493 1948 0
1944 1948 1949 0
119 1944 1949 0
1951 1946 124 0
1950 494 1946 0
1950 1946 1951 0
495 1950 1951 0
1952 1949 494 0
1859 119 1949 0
1859 1949 1952 0
473 1859 1952 0
1953 1950 495 0
1952 494 1950 0
1952 1950 1953 0
473 1952 1953 0
1954 1953 495 0
1862 473 1953 0
1862 1953 1954 0
7 1862 1954 0
1956 1864 8 0
1955 475 1864 0
1955 1864 1956 0
497 1955 1956 0
1958 1869 475 0
1957 121 1869 0
1957 1869 1958 0
496 1957 1958 0
1959 1955 497 0
1958 475 1955 0
1958 1955 1959 0
496 1958 1959 0
1961 1959 497 0
1960 496 1959 0
1960 1959 1961 0
126 1960 1961 0
1963 1883 121 0
1962 480 1883 0
1962 1883 1963 0
499 1962 1963 0
1965 1888 480 0
1964 33 1888 0
1964 1888 1965 0
498 1964 1965 0
1966 1962 499 0
1965 480 1962 0
1965 1962 1966 0
498 1965 1966 0
1968 1966 499 0
1967 498 1966 0
1967 1966 1968 0
125 1967 1968 0
1970 1960 126 0
1969 496 1960 0
1969 1960 1970 0
500 1969 1970 0
1971 1957 496 0
1963 121 1957 0
1963 1957 1971 0
499 1963 1971 0
1972 1969 500 0
1971 496 1969 0
1971 1969 1972 0
499 1971 1972 0
1973 1972 500 0
1968 499 1972 0
1968 1972 1973 0
125 1968 1973 0
1975 1970 126 0
1974 500 1970 0
1974 1970 1975 0
4058 1974 1975 0
1977 1973 500 0
1976 125 1973 0
1976 1973 1977 0
501 1976 1977 0
4059 1974 4058 0
1977 500 1974 0
1977 1974 4059 0
501 1977 4059 0
4060 501 4059 0
1979 1934 33 0
1978 492 1934 0
1978 1934 1979 0
503 1978 1979 0
1981 1939 492 0
1980 124 1939 0
1980 1939 1981 0
502 1980 1981 0
1982 1978 503 0
1981 492 1978 0
1981 1978 1982 0
502 1981 1982 0
1984 1982 503 0
1983 502 1982 0
1983 1982 1984 0
127 1983 1984 0
1986 1951 124 0
1985 495 1951 0
1985 1951 1986 0
504 1985 1986 0
1987 1954 495 0
1593 7 1954 0
1593 1954 1987 0
407 1593 1987 0
1988 1985 504 0
1987 495 1985 0
1987 1985 1988 0
407 1987 1988 0
1989 1988 504 0
1598 407 1988 0
1598 1988 1989 0
104 1598 1989 0
1991 1983 127 0
1990 502 1983 0
1990 1983 1991 0
505 1990 1991 0
1992 1980 502 0
1986 124 1980 0
1986 1980 1992 0
504 1986 1992 0
1993 1990 505 0
1992 502 1990 0
1992 1990 1993 0
504 1992 1993 0
1994 1993 505 0
1989 504 1993 0
1989 1993 1994 0
104 1989 1994 0
1996 1991 127 0
1995 505 1991 0
1995 1991 1996 0
506 1995 1996 0
1997 1994 505 0
1612 104 1994 0
1612 1994 1997 0
412 1612 1997 0
1998 1995 506 0
1997 505 1995 0
1997 1995 1998 0
412 1997 1998 0
1999 1998 506 0
1617 412 1998 0
1617 1998 1999 0
29 1617 1999 0
2000 501 4060 0
2000 4060 4061 0
4062 2000 4061 0
2002 1976 501 0
2001 125 1976 0
2001 1976 2002 0
507 2001 2002 0
2003 2000 4062 0
2002 501 2000 0
2002 2000 2003 0
507 2002 2003 0
4063 2003 4062 0
2004 507 2003 0
2004 2003 4063 0
4064 2004 4063 0
2006 1967 125 0
2005 498 1967 0
2005 1967 2006 0
508 2005 2006 0
2007 1964 498 0
1979 33 1964 0
1979 1964 2007 0
503 1979 2007 0
2008 2005 508 0
2007 498 2005 0
2007 2005 2008 0
503 2007 2008 0
2009 2008 508 0
1984 503 2008 0
1984 2008 2009 0
127 1984 2009 0
2011 2004 4064 0
2010 507 2004 0
2010 2004 2011 0
509 2010 2011 0
2012 2001 507 0
2006 125 2001 0
2006 2001 2012 0
508 2006 2012 0
2013 2010 509 0
2012 507 2010 0
2012 2010 2013 0
508 2012 2013 0
2014 2013 509 0
2009 508 2013 0
2009 2013 2014 0
127 2009 2014 0
2016 2011 4064 0
2015 509 2011 0
2015 2011 2016 0
510 2015 2016 0
2017 2014 509 0
1996 127 2014 0
1996 2014 2017 0
506 1996 2017 0
2018 2015 510 0
2017 509 2015 0
2017 2015 2018 0
506 2017 2018 0
2019 2018 510 0
1999 506 2018 0
1999 2018 2019 0
29 1999 2019 0
4065 2016 4064 0
2020 510 2016 0
2020 2016 4065 0
4066 2020 4065 0
2021 2019 510 0
1667 29 2019 0
1667 2019 2021 0
425 1667 2021 0
4067 2020 4066 0
2021 510 2020 0
2021 2020 4067 0
425 2021 4067 0
4052 425 4067 0
4068 1672 4048 0
2022 427 1672 0
2022 1672 4068 0
512 2022 4068 0
2024 1677 427 0
2023 109 1677 0
2023 1677 2024 0
511 2023 2024 0
2025 2022 512 0
2024 427 2022 0
2024 2022 2025 0
511 2024 2025 0
2027 2025 512 0
2026 511 2025 0
2026 2025 2027 0
129 2026 2027 0
2029 1691 109 0
2028 432 1691 0
2028 1691 2029 0
514 2028 2029 0
2031 1696 432 0
2030 31 1696 0
2030 1696 2031 0
513 2030 2031 0
2032 2028 514 0
2031 432 2028 0
2031 2028 2032 0
513 2031 2032 0
2034 2032 514 0
2033 513 2032 0
2033 2032 2034 0
128 2033 2034 0
2036 2026 129 0
2035 511 2026 0
2035 2026 2036 0
515 2035 2036 0
2037 2023 511 0
2029 109 2023 0
2029 2023 2037 0
514 2029 2037 0
2038 2035 515 0
2037 511 2035 0
2037 2035 2038 0
514 2037 2038 0
2039 2038 515 0
2034 514 2038 0
2034 2038 2039 0
128 2034 2039 0
2041 2036 129 0
2040 515 2036 0
2040 2036 2041 0
517 2040 2041 0
2043 2039 515 0
2042 128 2039 0
2042 2039 2043 0
516 2042 2043 0
2044 2040 517 0
2043 515 2040 0
2043 2040 2044 0
516 2043 2044 0
2046 2044 517 0
2045 516 2044 0
2045 2044 2046 0
35 2045 2046 0
2048 1746 31 0
2047 446 1746 0
2047 1746 2048 0
519 2047 2048 0
2050 1751 446 0
2049 114 1751 0
2049 1751 2050 0
518 2049 2050 0
2051 2047 519 0
2050 446 2047 0
2050 2047 2051 0
518 2050 2051 0
2053 2051 519 0
2052 518 2051 0
2052 2051 2053 0
131 2052 2053 0
2055 1765 114 0
2054 451 1765 0
2054 1765 2055 0
521 2054 2055 0
2057 1770 451 0
2056 8 1770 0
2056 1770 2057 0
520 2056 2057 0
2058 2054 521 0
2057 451 2054 0
2057 2054 2058 0
520 2057 2058 0
2060 2058 521 0
2059 520 2058 0
2059 2058 2060 0
130 2059 2060 0
2062 2052 131 0
2061 518 2052 0
2061 2052 2062 0
522 2061 2062 0
2063 2049 518 0
2055 114 2049 0
2055 2049 2063 0
521 2055 2063 0
2064 2061 522 0
2063 518 2061 0
2063 2061 2064 0
521 2063 2064 0
2065 2064 522 0
2060 521 2064 0
2060 2064 2065 0
130 2060 2065 0
2067 2062 131 0
2066 522 2062 0
2066 2062 2067 0
524 2066 2067 0
2069 2065 522 0
2068 130 2065 0
2068 2065 2069 0
523 2068 2069 0
2070 2066 524 0
2069 522 2066 0
2069 2066 2070 0
523 2069 2070 0
2072 2070 524 0
2071 523 2070 0
2071 2070 2072 0
34 2071 2072 0
2074 2045 35 0
2073 516 2045 0
2073 2045 2074 0
526 2073 2074 0
2076 2042 516 0
2075 128 2042 0
2075 2042 2076 0
525 2075 2076 0
2077 2073 526 0
2076 516 2073 0
2076 2073 2077 0
525 2076 2077 0
2079 2077 526 0
2078 525 2077 0
2078 2077 2079 0
132 2078 2079 0
2081 2033 128 0
2080 513 2033 0
2080 2033 2081 0
527 2080 2081 0
2082 2030 513 0
2048 31 2030 0
2048 2030 2082 0
519 2048 2082 0
2083 2080 527 0
2082 513 2080 0
2082 2080 2083 0
519 2082 2083 0
2084 2083 527 0
2053 519 2083 0
2053 2083 2084 0
131 2053 2084 0
2086 2078 132 0
2085 525 2078 0
2085 2078 2086 0
528 2085 2086 0
2087 2075 525 0
2081 128 2075 0
2081 2075 2087 0
527 2081 2087 0
2088 2085 528 0
2087 525 2085 0
2087 2085 2088 0
527 2087 2088 0
2089 2088 528 0
2084 527 2088 0
2084 2088 2089 0
131 2084 2089 0
2091 2086 132 0
2090 528 2086 0
2090 2086 2091 0
529 2090 2091 0
2092 2089 528 0
2067 131 2089 0
2067 2089 2092 0
524 2067 2092 0
2093 2090 529 0
2092 528 2090 0
2092 2090 2093 0
524 2092 2093 0
2094 2093 529 0
2072 524 2093 0
2072 2093 2094 0
34 2072 2094 0
2096 2074 35 0
2095 526 2074 0
2095 2074 2096 0
531 2095 2096 0
2098 2079 526 0
2097 132 2079 0
2097 2079 2098 0
530 2097 2098 0
2099 2095 531 0
2098 526 2095 0
2098 2095 2099 0
530 2098 2099 0
2101 2099 531 0
2100 530 2099 0
2100 2099 2101 0
134 2100 2101 0
2103 2091 132 0
2102 529 2091 0
2102 2091 2103 0
533 2102 2103 0
2105 2094 529 0
2104 34 2094 0
2104 2094 2105 0
532 2104 2105 0
2106 2102 533 0
2105 529 2102 0
2105 2102 2106 0
532 2105 2106 0
2108 2106 533 0
2107 532 2106 0
2107 2106 2108 0
133 2107 2108 0
2110 2100 134 0
2109 530 2100 0
2109 2100 2110 0
534 2109 2110 0
2111 2097 530 0
2103 132 2097 0
2103 2097 2111 0
533 2103 2111 0
2112 2109 534 0
2111 530 2109 0
2111 2109 2112 0
533 2111 2112 0
2113 2112 534 0
2108 533 2112 0
2108 2112 2113 0
133 2108 2113 0
2115 2110 134 0
2114 534 2110 0
2114 2110 2115 0
536 2114 2115 0
2117 2113 534 0
2116 133 2113 0
2116 2113 2117 0
535 2116 2117 0
2118 2114 536 0
2117 534 2114 0
2117 2114 2118 0
535 2117 2118 0
2120 2118 536 0
2119 535 2118 0
2119 2118 2120 0
9 2119 2120 0
2122 1956 8 0
2121 497 1956 0
2121 1956 2122 0
538 2121 2122 0
2124 1961 497 0
2123 126 1961 0
2123 1961 2124 0
537 2123 2124 0
2125 2121 538 0
2124 497 2121 0
2124 2121 2125 0
537 2124 2125 0
2127 2125 538 0
2126 537 2125 0
2126 2125 2127 0
135 2126 2127 0
4069 1975 126 0
4070 4058 1975 0
4070 1975 4069 0
4071 2126 135 0
4072 537 2126 0
4072 2126 4071 0
2128 2123 537 0
4069 126 2123 0
4069 2123 2128 0
4073 4069 2128 0
2128 537 4072 0
2128 4072 4074 0
4073 2128 4074 0
4075 4071 135 0
2130 2119 9 0
2129 535 2119 0
2129 2119 2130 0
4076 2129 2130 0
2132 2116 535 0
2131 133 2116 0
2131 2116 2132 0
4077 2131 2132 0
4078 2129 4076 0
2132 535 2129 0
2132 2129 4078 0
4077 2132 4078 0
2134 2107 133 0
2133 532 2107 0
2133 2107 2134 0
4079 2133 2134 0
2136 2104 532 0
2135 34 2104 0
2135 2104 2136 0
539 2135 2136 0
4080 2133 4079 0
2136 532 2133 0
2136 2133 4080 0
539 2136 4080 0
4081 539 4080 0
4082 2131 4077 0
2134 133 2131 0
2134 2131 4082 0
4079 2134 4082 0
2138 2071 34 0
2137 523 2071 0
2137 2071 2138 0
541 2137 2138 0
2140 2068 523 0
2139 130 2068 0
2139 2068 2140 0
540 2139 2140 0
2141 2137 541 0
2140 523 2137 0
2140 2137 2141 0
540 2140 2141 0
2143 2141 541 0
2142 540 2141 0
2142 2141 2143 0
4083 2142 2143 0
2145 2059 130 0
2144 520 2059 0
2144 2059 2145 0
542 2144 2145 0
2146 2056 520 0
2122 8 2056 0
2122 2056 2146 0
538 2122 2146 0
2147 2144 542 0
2146 520 2144 0
2146 2144 2147 0
538 2146 2147 0
2148 2147 542 0
2127 538 2147 0
2127 2147 2148 0
135 2127 2148 0
4084 2142 4083 0
2149 540 2142 0
2149 2142 4084 0
543 2149 4084 0
2150 2139 540 0
2145 130 2139 0
2145 2139 2150 0
542 2145 2150 0
2151 2149 543 0
2150 540 2149 0
2150 2149 2151 0
542 2150 2151 0
2152 2151 543 0
2148 542 2151 0
2148 2151 2152 0
135 2148 2152 0
4085 543 4084 0
4086 2152 543 0
4075 135 2152 0
4075 2152 4086 0
4086 543 4085 0
4087 539 4081 0
2153 2135 539 0
2138 34 2135 0
2138 2135 2153 0
541 2138 2153 0
2154 4087 4088 0
2153 539 4087 0
2153 4087 2154 0
541 2153 2154 0
4089 2154 4088 0
2143 541 2154 0
2143 2154 4089 0
4083 2143 4089 0
2155 2130 9 0
4090 4076 2130 0
4090 2130 2155 0
4091 4090 2155 0
512 4068 4092 0
512 4092 4093 0
2156 4093 4094 0
2027 512 4093 0
2027 4093 2156 0
129 2027 2156 0
544 4095 4096 0
4097 4095 544 0
2157 4097 544 0
2156 4094 4097 0
2156 4097 2157 0
129 2156 2157 0
2158 544 4096 0
2158 4096 4098 0
545 2158 4098 0
2159 2157 544 0
2041 129 2157 0
2041 2157 2159 0
517 2041 2159 0
2160 2158 545 0
2159 544 2158 0
2159 2158 2160 0
517 2159 2160 0
2161 2160 545 0
2046 517 2160 0
2046 2160 2161 0
35 2046 2161 0
2162 4099 4100 0
4101 4099 2162 0
136 4101 2162 0
2163 4101 136 0
4102 4101 2163 0
4103 4102 2163 0
2165 2163 136 0
2164 4103 2163 0
2164 2163 2165 0
546 2164 2165 0
2166 4104 4103 0
4098 4104 2166 0
545 4098 2166 0
2167 2164 546 0
2166 4103 2164 0
2166 2164 2167 0
545 2166 2167 0
2168 2167 546 0
2161 545 2167 0
2161 2167 2168 0
35 2161 2168 0
2169 4100 4105 0
2169 4105 4106 0
548 2169 4106 0
2171 2162 4100 0
2170 136 2162 0
2170 2162 2171 0
547 2170 2171 0
2172 2169 548 0
2171 4100 2169 0
2171 2169 2172 0
547 2171 2172 0
2174 2172 548 0
2173 547 2172 0
2173 2172 2174 0
137 2173 2174 0
2176 2165 136 0
2175 546 2165 0
2175 2165 2176 0
549 2175 2176 0
2177 2168 546 0
2096 35 2168 0
2096 2168 2177 0
531 2096 2177 0
2178 2175 549 0
2177 546 2175 0
2177 2175 2178 0
531 2177 2178 0
2179 2178 549 0
2101 531 2178 0
2101 2178 2179 0
134 2101 2179 0
2181 2173 137 0
2180 547 2173 0
2180 2173 2181 0
550 2180 2181 0
2182 2170 547 0
2176 136 2170 0
2176 2170 2182 0
549 2176 2182 0
2183 2180 550 0
2182 547 2180 0
2182 2180 2183 0
549 2182 2183 0
2184 2183 550 0
2179 549 2183 0
2179 2183 2184 0
134 2179 2184 0
2186 2181 137 0
2185 550 2181 0
2185 2181 2186 0
551 2185 2186 0
2187 2184 550 0
2115 134 2184 0
2115 2184 2187 0
536 2115 2187 0
2188 2185 551 0
2187 550 2185 0
2187 2185 2188 0
536 2187 2188 0
2189 2188 551 0
2120 536 2188 0
2120 2188 2189 0
9 2120 2189 0
2191 4107 4108 0
2190 4109 4107 0
2190 4107 2191 0
138 2190 2191 0
4110 2190 138 0
4111 4109 2190 0
4111 2190 4110 0
2192 4110 138 0
4112 4110 2192 0
552 4112 2192 0
4113 4112 552 0
4114 4113 552 0
2194 2191 4108 0
2193 138 2191 0
2193 2191 2194 0
553 2193 2194 0
2195 4115 4116 0
2194 4108 4115 0
2194 4115 2195 0
553 2194 2195 0
2197 2195 4116 0
2196 553 2195 0
2196 2195 2197 0
139 2196 2197 0
2199 2192 138 0
2198 552 2192 0
2198 2192 2199 0
554 2198 2199 0
2200 4114 552 0
4106 4114 2200 0
548 4106 2200 0
2201 2198 554 0
2200 552 2198 0
2200 2198 2201 0
548 2200 2201 0
2202 2201 554 0
2174 548 2201 0
2174 2201 2202 0
137 2174 2202 0
2204 2196 139 0
2203 553 2196 0
2203 2196 2204 0
555 2203 2204 0
2205 2193 553 0
2199 138 2193 0
2199 2193 2205 0
554 2199 2205 0
2206 2203 555 0
2205 553 2203 0
2205 2203 2206 0
554 2205 2206 0
2207 2206 555 0
2202 554 2206 0
2202 2206 2207 0
137 2202 2207 0
2209 2204 139 0
2208 555 2204 0
2208 2204 2209 0
556 2208 2209 0
2210 2207 555 0
2186 137 2207 0
2186 2207 2210 0
551 2186 2210 0
2211 2208 556 0
2210 555 2208 0
2210 2208 2211 0
551 2210 2211 0
2212 2211 556 0
2189 551 2211 0
2189 2211 2212 0
9 2189 2212 0
4117 2197 4116 0
2213 139 2197 0
2213 2197 4117 0
4118 2213 4117 0
2215 2209 139 0
2214 556 2209 0
2214 2209 2215 0
4119 2214 2215 0
2216 2212 556 0
2155 9 2212 0
2155 2212 2216 0
