#!ascii - generated by CreateLabelFiles project 
2170 4121
696 635 9 0
695 164 635 0
695 635 696 0
183 695 696 0
698 632 164 0
697 41 632 0
697 632 698 0
182 697 698 0
699 695 183 0
698 164 695 0
698 695 699 0
182 698 699 0
701 699 183 0
700 182 699 0
700 699 701 0
47 700 701 0
703 624 41 0
702 161 624 0
702 624 703 0
185 702 703 0
705 621 161 0
704 2 621 0
704 621 705 0
184 704 705 0
706 702 185 0
705 161 702 0
705 702 706 0
184 705 706 0
708 706 185 0
707 184 706 0
707 706 708 0
46 707 708 0
710 700 47 0
709 182 700 0
709 700 710 0
186 709 710 0
711 697 182 0
703 41 697 0
703 697 711 0
185 703 711 0
712 709 186 0
711 182 709 0
711 709 712 0
185 711 712 0
713 712 186 0
708 185 712 0
708 712 713 0
46 708 713 0
715 710 47 0
714 186 710 0
714 710 715 0
188 714 715 0
717 713 186 0
716 46 713 0
716 713 717 0
187 716 717 0
718 714 188 0
717 186 714 0
717 714 718 0
187 717 718 0
720 718 188 0
719 187 718 0
719 718 720 0
11 719 720 0
722 693 12 0
721 180 693 0
721 693 722 0
190 721 722 0
724 690 180 0
723 44 690 0
723 690 724 0
189 723 724 0
725 721 190 0
724 180 721 0
724 721 725 0
189 724 725 0
727 725 190 0
726 189 725 0
726 725 727 0
48 726 727 0
729 681 44 0
728 177 681 0
728 681 729 0
191 728 729 0
730 678 177 0
696 9 678 0
696 678 730 0
183 696 730 0
731 728 191 0
730 177 728 0
730 728 731 0
183 730 731 0
732 731 191 0
701 183 731 0
701 731 732 0
47 701 732 0
734 726 48 0
733 189 726 0
733 726 734 0
192 733 734 0
735 723 189 0
729 44 723 0
729 723 735 0
191 729 735 0
736 733 192 0
735 189 733 0
735 733 736 0
191 735 736 0
737 736 192 0
732 191 736 0
732 736 737 0
47 732 737 0
739 734 48 0
738 192 734 0
738 734 739 0
193 738 739 0
740 737 192 0
715 47 737 0
715 737 740 0
188 715 740 0
741 738 193 0
740 192 738 0
740 738 741 0
188 740 741 0
742 741 193 0
720 188 741 0
720 741 742 0
11 720 742 0
744 722 12 0
743 190 722 0
743 722 744 0
195 743 744 0
746 727 190 0
745 48 727 0
745 727 746 0
194 745 746 0
747 743 195 0
746 190 743 0
746 743 747 0
194 746 747 0
749 747 195 0
748 194 747 0
748 747 749 0
50 748 749 0
751 739 48 0
750 193 739 0
750 739 751 0
197 750 751 0
753 742 193 0
752 11 742 0
752 742 753 0
196 752 753 0
754 750 197 0
753 193 750 0
753 750 754 0
196 753 754 0
756 754 197 0
755 196 754 0
755 754 756 0
49 755 756 0
758 748 50 0
757 194 748 0
757 748 758 0
198 757 758 0
759 745 194 0
751 48 745 0
751 745 759 0
197 751 759 0
760 757 198 0
759 194 757 0
759 757 760 0
197 759 760 0
761 760 198 0
756 197 760 0
756 760 761 0
49 756 761 0
763 758 50 0
762 198 758 0
762 758 763 0
200 762 763 0
765 761 198 0
764 49 761 0
764 761 765 0
199 764 765 0
766 762 200 0
765 198 762 0
765 762 766 0
199 765 766 0
768 766 200 0
767 199 766 0
767 766 768 0
4 767 768 0
770 609 2 0
769 156 609 0
769 609 770 0
202 769 770 0
772 606 156 0
771 39 606 0
771 606 772 0
201 771 772 0
773 769 202 0
772 156 769 0
772 769 773 0
201 772 773 0
775 773 202 0
774 201 773 0
774 773 775 0
52 774 775 0
777 597 39 0
776 153 597 0
776 597 777 0
204 776 777 0
779 594 153 0
778 8 594 0
778 594 779 0
203 778 779 0
780 776 204 0
779 153 776 0
779 776 780 0
203 779 780 0
782 780 204 0
781 203 780 0
781 780 782 0
51 781 782 0
784 774 52 0
783 201 774 0
783 774 784 0
205 783 784 0
785 771 201 0
777 39 771 0
777 771 785 0
204 777 785 0
786 783 205 0
785 201 783 0
785 783 786 0
204 785 786 0
787 786 205 0
782 204 786 0
782 786 787 0
51 782 787 0
789 784 52 0
788 205 784 0
788 784 789 0
207 788 789 0
791 787 205 0
790 51 787 0
790 787 791 0
206 790 791 0
792 788 207 0
791 205 788 0
791 788 792 0
206 791 792 0
794 792 207 0
793 206 792 0
793 792 794 0
14 793 794 0
796 563 8 0
795 144 563 0
795 563 796 0
209 795 796 0
798 560 144 0
797 36 560 0
797 560 798 0
208 797 798 0
799 795 209 0
798 144 795 0
798 795 799 0
208 798 799 0
801 799 209 0
800 208 799 0
800 799 801 0
54 800 801 0
803 551 36 0
802 141 551 0
802 551 803 0
211 802 803 0
805 548 141 0
804 1 548 0
804 548 805 0
210 804 805 0
806 802 211 0
805 141 802 0
805 802 806 0
210 805 806 0
808 806 211 0
807 210 806 0
807 806 808 0
53 807 808 0
810 800 54 0
809 208 800 0
809 800 810 0
212 809 810 0
811 797 208 0
803 36 797 0
803 797 811 0
211 803 811 0
812 809 212 0
811 208 809 0
811 809 812 0
211 811 812 0
813 812 212 0
808 211 812 0
808 812 813 0
53 808 813 0
815 810 54 0
814 212 810 0
814 810 815 0
214 814 815 0
817 813 212 0
816 53 813 0
816 813 817 0
213 816 817 0
818 814 214 0
817 212 814 0
817 814 818 0
213 817 818 0
820 818 214 0
819 213 818 0
819 818 820 0
13 819 820 0
822 793 14 0
821 206 793 0
821 793 822 0
216 821 822 0
824 790 206 0
823 51 790 0
823 790 824 0
215 823 824 0
825 821 216 0
824 206 821 0
824 821 825 0
215 824 825 0
827 825 216 0
826 215 825 0
826 825 827 0
55 826 827 0
829 781 51 0
828 203 781 0
828 781 829 0
217 828 829 0
830 778 203 0
796 8 778 0
796 778 830 0
209 796 830 0
831 828 217 0
830 203 828 0
830 828 831 0
209 830 831 0
832 831 217 0
801 209 831 0
801 831 832 0
54 801 832 0
834 826 55 0
833 215 826 0
833 826 834 0
218 833 834 0
835 823 215 0
829 51 823 0
829 823 835 0
217 829 835 0
836 833 218 0
835 215 833 0
835 833 836 0
217 835 836 0
837 836 218 0
832 217 836 0
832 836 837 0
54 832 837 0
839 834 55 0
838 218 834 0
838 834 839 0
219 838 839 0
840 837 218 0
815 54 837 0
815 837 840 0
214 815 840 0
841 838 219 0
840 218 838 0
840 838 841 0
214 840 841 0
842 841 219 0
820 214 841 0
820 841 842 0
13 820 842 0
844 822 14 0
843 216 822 0
843 822 844 0
221 843 844 0
846 827 216 0
845 55 827 0
845 827 846 0
220 845 846 0
847 843 221 0
846 216 843 0
846 843 847 0
220 846 847 0
849 847 221 0
848 220 847 0
848 847 849 0
57 848 849 0
851 839 55 0
850 219 839 0
850 839 851 0
223 850 851 0
853 842 219 0
852 13 842 0
852 842 853 0
222 852 853 0
854 850 223 0
853 219 850 0
853 850 854 0
222 853 854 0
856 854 223 0
855 222 854 0
855 854 856 0
56 855 856 0
858 848 57 0
857 220 848 0
857 848 858 0
224 857 858 0
859 845 220 0
851 55 845 0
851 845 859 0
223 851 859 0
860 857 224 0
859 220 857 0
859 857 860 0
223 859 860 0
861 860 224 0
856 223 860 0
856 860 861 0
56 856 861 0
863 858 57 0
862 224 858 0
862 858 863 0
226 862 863 0
865 861 224 0
864 56 861 0
864 861 865 0
225 864 865 0
866 862 226 0
865 224 862 0
865 862 866 0
225 865 866 0
868 866 226 0
867 225 866 0
867 866 868 0
3 867 868 0
870 767 4 0
869 199 767 0
869 767 870 0
228 869 870 0
872 764 199 0
871 49 764 0
871 764 872 0
227 871 872 0
873 869 228 0
872 199 869 0
872 869 873 0
227 872 873 0
875 873 228 0
874 227 873 0
874 873 875 0
59 874 875 0
877 755 49 0
876 196 755 0
876 755 877 0
230 876 877 0
879 752 196 0
878 11 752 0
878 752 879 0
229 878 879 0
880 876 230 0
879 196 876 0
879 876 880 0
229 879 880 0
882 880 230 0
881 229 880 0
881 880 882 0
58 881 882 0
884 874 59 0
883 227 874 0
883 874 884 0
231 883 884 0
885 871 227 0
877 49 871 0
877 871 885 0
230 877 885 0
886 883 231 0
885 227 883 0
885 883 886 0
230 885 886 0
887 886 231 0
882 230 886 0
882 886 887 0
58 882 887 0
889 884 59 0
888 231 884 0
888 884 889 0
233 888 889 0
891 887 231 0
890 58 887 0
890 887 891 0
232 890 891 0
892 888 233 0
891 231 888 0
891 888 892 0
232 891 892 0
894 892 233 0
893 232 892 0
893 892 894 0
15 893 894 0
896 719 11 0
895 187 719 0
895 719 896 0
235 895 896 0
898 716 187 0
897 46 716 0
897 716 898 0
234 897 898 0
899 895 235 0
898 187 895 0
898 895 899 0
234 898 899 0
901 899 235 0
900 234 899 0
900 899 901 0
60 900 901 0
903 707 46 0
902 184 707 0
902 707 903 0
236 902 903 0
904 704 184 0
770 2 704 0
770 704 904 0
202 770 904 0
905 902 236 0
904 184 902 0
904 902 905 0
202 904 905 0
906 905 236 0
775 202 905 0
775 905 906 0
52 775 906 0
908 900 60 0
907 234 900 0
907 900 908 0
237 907 908 0
909 897 234 0
903 46 897 0
903 897 909 0
236 903 909 0
910 907 237 0
909 234 907 0
909 907 910 0
236 909 910 0
911 910 237 0
906 236 910 0
906 910 911 0
52 906 911 0
913 908 60 0
912 237 908 0
912 908 913 0
238 912 913 0
914 911 237 0
789 52 911 0
789 911 914 0
207 789 914 0
915 912 238 0
914 237 912 0
914 912 915 0
207 914 915 0
916 915 238 0
794 207 915 0
794 915 916 0
14 794 916 0
918 893 15 0
917 232 893 0
917 893 918 0
240 917 918 0
920 890 232 0
919 58 890 0
919 890 920 0
239 919 920 0
921 917 240 0
920 232 917 0
920 917 921 0
239 920 921 0
923 921 240 0
922 239 921 0
922 921 923 0
61 922 923 0
925 881 58 0
924 229 881 0
924 881 925 0
241 924 925 0
926 878 229 0
896 11 878 0
896 878 926 0
235 896 926 0
927 924 241 0
926 229 924 0
926 924 927 0
235 926 927 0
928 927 241 0
901 235 927 0
901 927 928 0
60 901 928 0
930 922 61 0
929 239 922 0
929 922 930 0
242 929 930 0
931 919 239 0
925 58 919 0
925 919 931 0
241 925 931 0
932 929 242 0
931 239 929 0
931 929 932 0
241 931 932 0
933 932 242 0
928 241 932 0
928 932 933 0
60 928 933 0
935 930 61 0
934 242 930 0
934 930 935 0
243 934 935 0
936 933 242 0
913 60 933 0
913 933 936 0
238 913 936 0
937 934 243 0
936 242 934 0
936 934 937 0
238 936 937 0
938 937 243 0
916 238 937 0
916 937 938 0
14 916 938 0
940 918 15 0
939 240 918 0
939 918 940 0
245 939 940 0
942 923 240 0
941 61 923 0
941 923 942 0
244 941 942 0
943 939 245 0
942 240 939 0
942 939 943 0
244 942 943 0
945 943 245 0
944 244 943 0
944 943 945 0
62 944 945 0
947 935 61 0
946 243 935 0
946 935 947 0
246 946 947 0
948 938 243 0
844 14 938 0
844 938 948 0
221 844 948 0
949 946 246 0
948 243 946 0
948 946 949 0
221 948 949 0
950 949 246 0
849 221 949 0
849 949 950 0
57 849 950 0
952 944 62 0
951 244 944 0
951 944 952 0
247 951 952 0
953 941 244 0
947 61 941 0
947 941 953 0
246 947 953 0
954 951 247 0
953 244 951 0
953 951 954 0
246 953 954 0
955 954 247 0
950 246 954 0
950 954 955 0
57 950 955 0
957 952 62 0
956 247 952 0
956 952 957 0
248 956 957 0
958 955 247 0
863 57 955 0
863 955 958 0
226 863 958 0
959 956 248 0
958 247 956 0
958 956 959 0
226 958 959 0
960 959 248 0
868 226 959 0
868 959 960 0
3 868 960 0
962 870 4 0
961 228 870 0
961 870 962 0
250 961 962 0
964 875 228 0
963 59 875 0
963 875 964 0
249 963 964 0
965 961 250 0
964 228 961 0
964 961 965 0
249 964 965 0
967 965 250 0
966 249 965 0
966 965 967 0
64 966 967 0
969 889 59 0
968 233 889 0
968 889 969 0
252 968 969 0
971 894 233 0
970 15 894 0
970 894 971 0
251 970 971 0
972 968 252 0
971 233 968 0
971 968 972 0
251 971 972 0
974 972 252 0
973 251 972 0
973 972 974 0
63 973 974 0
976 966 64 0
975 249 966 0
975 966 976 0
253 975 976 0
977 963 249 0
969 59 963 0
969 963 977 0
252 969 977 0
978 975 253 0
977 249 975 0
977 975 978 0
252 977 978 0
979 978 253 0
974 252 978 0
974 978 979 0
63 974 979 0
981 976 64 0
980 253 976 0
980 976 981 0
255 980 981 0
983 979 253 0
982 63 979 0
982 979 983 0
254 982 983 0
984 980 255 0
983 253 980 0
983 980 984 0
254 983 984 0
986 984 255 0
985 254 984 0
985 984 986 0
17 985 986 0
988 940 15 0
987 245 940 0
987 940 988 0
257 987 988 0
990 945 245 0
989 62 945 0
989 945 990 0
256 989 990 0
991 987 257 0
990 245 987 0
990 987 991 0
256 990 991 0
993 991 257 0
992 256 991 0
992 991 993 0
66 992 993 0
995 957 62 0
994 248 957 0
994 957 995 0
259 994 995 0
997 960 248 0
996 3 960 0
996 960 997 0
258 996 997 0
998 994 259 0
997 248 994 0
997 994 998 0
258 997 998 0
1000 998 259 0
999 258 998 0
999 998 1000 0
65 999 1000 0
1002 992 66 0
1001 256 992 0
1001 992 1002 0
260 1001 1002 0
1003 989 256 0
995 62 989 0
995 989 1003 0
259 995 1003 0
1004 1001 260 0
1003 256 1001 0
1003 1001 1004 0
259 1003 1004 0
1005 1004 260 0
1000 259 1004 0
1000 1004 1005 0
65 1000 1005 0
1007 1002 66 0
1006 260 1002 0
1006 1002 1007 0
262 1006 1007 0
1009 1005 260 0
1008 65 1005 0
1008 1005 1009 0
261 1008 1009 0
1010 1006 262 0
1009 260 1006 0
1009 1006 1010 0
261 1009 1010 0
1012 1010 262 0
1011 261 1010 0
1011 1010 1012 0
16 1011 1012 0
1014 985 17 0
1013 254 985 0
1013 985 1014 0
264 1013 1014 0
1016 982 254 0
1015 63 982 0
1015 982 1016 0
263 1015 1016 0
1017 1013 264 0
1016 254 1013 0
1016 1013 1017 0
263 1016 1017 0
1019 1017 264 0
1018 263 1017 0
1018 1017 1019 0
67 1018 1019 0
1021 973 63 0
1020 251 973 0
1020 973 1021 0
265 1020 1021 0
1022 970 251 0
988 15 970 0
988 970 1022 0
257 988 1022 0
1023 1020 265 0
1022 251 1020 0
1022 1020 1023 0
257 1022 1023 0
1024 1023 265 0
993 257 1023 0
993 1023 1024 0
66 993 1024 0
1026 1018 67 0
1025 263 1018 0
1025 1018 1026 0
266 1025 1026 0
1027 1015 263 0
1021 63 1015 0
1021 1015 1027 0
265 1021 1027 0
1028 1025 266 0
1027 263 1025 0
1027 1025 1028 0
265 1027 1028 0
1029 1028 266 0
1024 265 1028 0
1024 1028 1029 0
66 1024 1029 0
1031 1026 67 0
1030 266 1026 0
1030 1026 1031 0
267 1030 1031 0
1032 1029 266 0
1007 66 1029 0
1007 1029 1032 0
262 1007 1032 0
1033 1030 267 0
1032 266 1030 0
1032 1030 1033 0
262 1032 1033 0
1034 1033 267 0
1012 262 1033 0
1012 1033 1034 0
16 1012 1034 0
1036 1014 17 0
1035 264 1014 0
1035 1014 1036 0
269 1035 1036 0
1038 1019 264 0
1037 67 1019 0
1037 1019 1038 0
268 1037 1038 0
1039 1035 269 0
1038 264 1035 0
1038 1035 1039 0
268 1038 1039 0
1041 1039 269 0
1040 268 1039 0
1040 1039 1041 0
69 1040 1041 0
1043 1031 67 0
1042 267 1031 0
1042 1031 1043 0
271 1042 1043 0
1045 1034 267 0
1044 16 1034 0
1044 1034 1045 0
270 1044 1045 0
1046 1042 271 0
1045 267 1042 0
1045 1042 1046 0
270 1045 1046 0
1048 1046 271 0
1047 270 1046 0
1047 1046 1048 0
68 1047 1048 0
1050 1040 69 0
1049 268 1040 0
1049 1040 1050 0
272 1049 1050 0
1051 1037 268 0
1043 67 1037 0
1043 1037 1051 0
271 1043 1051 0
1052 1049 272 0
1051 268 1049 0
1051 1049 1052 0
271 1051 1052 0
1053 1052 272 0
1048 271 1052 0
1048 1052 1053 0
68 1048 1053 0
1055 1050 69 0
1054 272 1050 0
1054 1050 1055 0
274 1054 1055 0
1057 1053 272 0
1056 68 1053 0
1056 1053 1057 0
273 1056 1057 0
1058 1054 274 0
1057 272 1054 0
1057 1054 1058 0
273 1057 1058 0
1060 1058 274 0
1059 273 1058 0
1059 1058 1060 0
2037 1059 1060 0
1062 496 1 0
1061 125 496 0
1061 496 1062 0
276 1061 1062 0
1064 494 125 0
1063 1962 494 0
1063 494 1064 0
275 1063 1064 0
1065 1061 276 0
1064 125 1061 0
1064 1061 1065 0
275 1064 1065 0
1067 1065 276 0
1066 275 1065 0
1066 1065 1067 0
71 1066 1067 0
277 2038 2039 0
2040 2038 277 0
1068 2040 277 0
2041 2040 1068 0
70 2041 1068 0
1070 1066 71 0
1069 275 1066 0
1069 1066 1070 0
278 1069 1070 0
1071 1063 275 0
2039 1962 1063 0
2039 1063 1071 0
277 2039 1071 0
1072 1069 278 0
1071 275 1069 0
1071 1069 1072 0
277 1071 1072 0
1073 1072 278 0
1068 277 1072 0
1068 1072 1073 0
70 1068 1073 0
1075 1070 71 0
1074 278 1070 0
1074 1070 1075 0
280 1074 1075 0
1077 1073 278 0
1076 70 1073 0
1076 1073 1077 0
279 1076 1077 0
1078 1074 280 0
1077 278 1074 0
1077 1074 1078 0
279 1077 1078 0
1080 1078 280 0
1079 279 1078 0
1079 1078 1080 0
19 1079 1080 0
72 2042 2043 0
2044 2042 72 0
1082 2044 72 0
1081 2045 2044 0
1081 2044 1082 0
282 1081 1082 0
1084 2046 2045 0
1083 2047 2046 0
1083 2046 1084 0
281 1083 1084 0
1085 1081 282 0
1084 2045 1081 0
1084 1081 1085 0
281 1084 1085 0
1087 1085 282 0
1086 281 1085 0
1086 1085 1087 0
18 1086 1087 0
1089 1079 19 0
1088 279 1079 0
1088 1079 1089 0
284 1088 1089 0
1091 1076 279 0
1090 70 1076 0
1090 1076 1091 0
283 1090 1091 0
1092 1088 284 0
1091 279 1088 0
1091 1088 1092 0
283 1091 1092 0
1094 1092 284 0
1093 283 1092 0
1093 1092 1094 0
73 1093 1094 0
1095 2041 70 0
2048 2041 1095 0
2049 2048 1095 0
1096 2050 2049 0
2043 2050 1096 0
72 2043 1096 0
1098 1093 73 0
1097 283 1093 0
1097 1093 1098 0
285 1097 1098 0
1099 1090 283 0
1095 70 1090 0
1095 1090 1099 0
2049 1095 1099 0
1100 1097 285 0
1099 283 1097 0
1099 1097 1100 0
2049 1099 1100 0
1101 1100 285 0
1096 2049 1100 0
1096 1100 1101 0
72 1096 1101 0
1103 1098 73 0
1102 285 1098 0
1102 1098 1103 0
286 1102 1103 0
1104 1101 285 0
1082 72 1101 0
1082 1101 1104 0
282 1082 1104 0
1105 1102 286 0
1104 285 1102 0
1104 1102 1105 0
282 1104 1105 0
1106 1105 286 0
1087 282 1105 0
1087 1105 1106 0
18 1087 1106 0
1108 1089 19 0
1107 284 1089 0
1107 1089 1108 0
288 1107 1108 0
1110 1094 284 0
1109 73 1094 0
1109 1094 1110 0
287 1109 1110 0
1111 1107 288 0
1110 284 1107 0
1110 1107 1111 0
287 1110 1111 0
1113 1111 288 0
1112 287 1111 0
1112 1111 1113 0
75 1112 1113 0
1115 1103 73 0
1114 286 1103 0
1114 1103 1115 0
290 1114 1115 0
1117 1106 286 0
1116 18 1106 0
1116 1106 1117 0
289 1116 1117 0
1118 1114 290 0
1117 286 1114 0
1117 1114 1118 0
289 1117 1118 0
1120 1118 290 0
1119 289 1118 0
1119 1118 1120 0
74 1119 1120 0
1122 1112 75 0
1121 287 1112 0
1121 1112 1122 0
291 1121 1122 0
1123 1109 287 0
1115 73 1109 0
1115 1109 1123 0
290 1115 1123 0
1124 1121 291 0
1123 287 1121 0
1123 1121 1124 0
290 1123 1124 0
1125 1124 291 0
1120 290 1124 0
1120 1124 1125 0
74 1120 1125 0
1127 1122 75 0
1126 291 1122 0
1126 1122 1127 0
293 1126 1127 0
1129 1125 291 0
1128 74 1125 0
1128 1125 1129 0
292 1128 1129 0
1130 1126 293 0
1129 291 1126 0
1129 1126 1130 0
292 1129 1130 0
1132 1130 293 0
1131 292 1130 0
1131 1130 1132 0
5 1131 1132 0
1134 2051 2052 0
1133 2053 2051 0
1133 2051 1134 0
20 1133 1134 0
1136 1133 20 0
1135 2053 1133 0
1135 1133 1136 0
294 1135 1136 0
2054 1135 294 0
2055 2053 1135 0
2055 1135 2054 0
1137 2054 294 0
2056 2054 1137 0
76 2056 1137 0
2057 2056 76 0
1138 2057 76 0
2058 2057 1138 0
2059 2058 1138 0
1140 1136 20 0
1139 294 1136 0
1139 1136 1140 0
296 1139 1140 0
1142 1137 294 0
1141 76 1137 0
1141 1137 1142 0
295 1141 1142 0
1143 1139 296 0
1142 294 1139 0
1142 1139 1143 0
295 1142 1143 0
1145 1143 296 0
1144 295 1143 0
1144 1143 1145 0
77 1144 1145 0
1147 1138 76 0
1146 2059 1138 0
1146 1138 1147 0
297 1146 1147 0
1148 2060 2059 0
2061 2060 1148 0
2062 2061 1148 0
1149 1146 297 0
1148 2059 1146 0
1148 1146 1149 0
2062 1148 1149 0
1150 1149 297 0
1954 2062 1149 0
1954 1149 1150 0
31 1954 1150 0
1152 1144 77 0
1151 295 1144 0
1151 1144 1152 0
298 1151 1152 0
1153 1141 295 0
1147 76 1141 0
1147 1141 1153 0
297 1147 1153 0
1154 1151 298 0
1153 295 1151 0
1153 1151 1154 0
297 1153 1154 0
1155 1154 298 0
1150 297 1154 0
1150 1154 1155 0
31 1150 1155 0
1157 1152 77 0
1156 298 1152 0
1156 1152 1157 0
299 1156 1157 0
1158 1155 298 0
492 31 1155 0
492 1155 1158 0
124 492 1158 0
1159 1156 299 0
1158 298 1156 0
1158 1156 1159 0
124 1158 1159 0
1160 1159 299 0
493 124 1159 0
493 1159 1160 0
1959 493 1160 0
1162 1131 5 0
1161 292 1131 0
1161 1131 1162 0
301 1161 1162 0
1164 1128 292 0
1163 74 1128 0
1163 1128 1164 0
300 1163 1164 0
1165 1161 301 0
1164 292 1161 0
1164 1161 1165 0
300 1164 1165 0
1167 1165 301 0
1166 300 1165 0
1166 1165 1167 0
79 1166 1167 0
1169 1119 74 0
1168 289 1119 0
1168 1119 1169 0
303 1168 1169 0
1171 1116 289 0
1170 18 1116 0
1170 1116 1171 0
302 1170 1171 0
1172 1168 303 0
1171 289 1168 0
1171 1168 1172 0
302 1171 1172 0
1174 1172 303 0
1173 302 1172 0
1173 1172 1174 0
78 1173 1174 0
1176 1166 79 0
1175 300 1166 0
1175 1166 1176 0
304 1175 1176 0
1177 1163 300 0
1169 74 1163 0
1169 1163 1177 0
303 1169 1177 0
1178 1175 304 0
1177 300 1175 0
1177 1175 1178 0
303 1177 1178 0
1179 1178 304 0
1174 303 1178 0
1174 1178 1179 0
78 1174 1179 0
1181 1176 79 0
1180 304 1176 0
1180 1176 1181 0
306 1180 1181 0
1183 1179 304 0
1182 78 1179 0
1182 1179 1183 0
305 1182 1183 0
1184 1180 306 0
1183 304 1180 0
1183 1180 1184 0
305 1183 1184 0
1186 1184 306 0
1185 305 1184 0
1185 1184 1186 0
21 1185 1186 0
1188 1086 18 0
1187 281 1086 0
1187 1086 1188 0
308 1187 1188 0
1190 1083 281 0
1189 2047 1083 0
1189 1083 1190 0
307 1189 1190 0
1191 1187 308 0
1190 281 1187 0
1190 1187 1191 0
307 1190 1191 0
1193 1191 308 0
1192 307 1191 0
1192 1191 1193 0
80 1192 1193 0
1195 1192 80 0
1194 307 1192 0
1194 1192 1195 0
309 1194 1195 0
2063 1189 307 0
2064 2047 1189 0
2064 1189 2063 0
2065 1194 309 0
2063 307 1194 0
2063 1194 2065 0
2066 2065 309 0
1197 1195 80 0
1196 309 1195 0
1196 1195 1197 0
310 1196 1197 0
2067 2066 309 0
1198 1196 310 0
2067 309 1196 0
2067 1196 1198 0
2052 2067 1198 0
1199 1198 310 0
1134 2052 1198 0
1134 1198 1199 0
20 1134 1199 0
1201 1185 21 0
1200 305 1185 0
1200 1185 1201 0
312 1200 1201 0
1203 1182 305 0
1202 78 1182 0
1202 1182 1203 0
311 1202 1203 0
1204 1200 312 0
1203 305 1200 0
1203 1200 1204 0
311 1203 1204 0
1206 1204 312 0
1205 311 1204 0
1205 1204 1206 0
81 1205 1206 0
1208 1173 78 0
1207 302 1173 0
1207 1173 1208 0
313 1207 1208 0
1209 1170 302 0
1188 18 1170 0
1188 1170 1209 0
308 1188 1209 0
1210 1207 313 0
1209 302 1207 0
1209 1207 1210 0
308 1209 1210 0
1211 1210 313 0
1193 308 1210 0
1193 1210 1211 0
80 1193 1211 0
1213 1205 81 0
1212 311 1205 0
1212 1205 1213 0
314 1212 1213 0
1214 1202 311 0
1208 78 1202 0
1208 1202 1214 0
313 1208 1214 0
1215 1212 314 0
1214 311 1212 0
1214 1212 1215 0
313 1214 1215 0
1216 1215 314 0
1211 313 1215 0
1211 1215 1216 0
80 1211 1216 0
1218 1213 81 0
1217 314 1213 0
1217 1213 1218 0
315 1217 1218 0
1219 1216 314 0
1197 80 1216 0
1197 1216 1219 0
310 1197 1219 0
1220 1217 315 0
1219 314 1217 0
1219 1217 1220 0
310 1219 1220 0
1221 1220 315 0
1199 310 1220 0
1199 1220 1221 0
20 1199 1221 0
1223 1201 21 0
1222 312 1201 0
1222 1201 1223 0
317 1222 1223 0
1225 1206 312 0
1224 81 1206 0
1224 1206 1225 0
316 1224 1225 0
1226 1222 317 0
1225 312 1222 0
1225 1222 1226 0
316 1225 1226 0
1228 1226 317 0
1227 316 1226 0
1227 1226 1228 0
82 1227 1228 0
1230 1218 81 0
1229 315 1218 0
1229 1218 1230 0
318 1229 1230 0
1231 1221 315 0
1140 20 1221 0
1140 1221 1231 0
296 1140 1231 0
1232 1229 318 0
1231 315 1229 0
1231 1229 1232 0
296 1231 1232 0
1233 1232 318 0
1145 296 1232 0
1145 1232 1233 0
77 1145 1233 0
1235 1227 82 0
1234 316 1227 0
1234 1227 1235 0
319 1234 1235 0
1236 1224 316 0
1230 81 1224 0
1230 1224 1236 0
318 1230 1236 0
1237 1234 319 0
1236 316 1234 0
1236 1234 1237 0
318 1236 1237 0
1238 1237 319 0
1233 318 1237 0
1233 1237 1238 0
77 1233 1238 0
1240 1235 82 0
1239 319 1235 0
1239 1235 1240 0
320 1239 1240 0
1241 1238 319 0
1157 77 1238 0
1157 1238 1241 0
299 1157 1241 0
1242 1239 320 0
1241 319 1239 0
1241 1239 1242 0
299 1241 1242 0
2068 1242 320 0
1160 299 1242 0
1160 1242 2068 0
1959 1160 2068 0
1244 1162 5 0
1243 301 1162 0
1243 1162 1244 0
322 1243 1244 0
1246 1167 301 0
1245 79 1167 0
1245 1167 1246 0
321 1245 1246 0
1247 1243 322 0
1246 301 1243 0
1246 1243 1247 0
321 1246 1247 0
1249 1247 322 0
1248 321 1247 0
1248 1247 1249 0
84 1248 1249 0
1251 1181 79 0
1250 306 1181 0
1250 1181 1251 0
324 1250 1251 0
1253 1186 306 0
1252 21 1186 0
1252 1186 1253 0
323 1252 1253 0
1254 1250 324 0
1253 306 1250 0
1253 1250 1254 0
323 1253 1254 0
1256 1254 324 0
1255 323 1254 0
1255 1254 1256 0
83 1255 1256 0
1258 1248 84 0
1257 321 1248 0
1257 1248 1258 0
325 1257 1258 0
1259 1245 321 0
1251 79 1245 0
1251 1245 1259 0
324 1251 1259 0
1260 1257 325 0
1259 321 1257 0
1259 1257 1260 0
324 1259 1260 0
1261 1260 325 0
1256 324 1260 0
1256 1260 1261 0
83 1256 1261 0
1263 1258 84 0
1262 325 1258 0
1262 1258 1263 0
327 1262 1263 0
1265 1261 325 0
1264 83 1261 0
1264 1261 1265 0
326 1264 1265 0
1266 1262 327 0
1265 325 1262 0
1265 1262 1266 0
326 1265 1266 0
1268 1266 327 0
1267 326 1266 0
1267 1266 1268 0
22 1267 1268 0
1270 1223 21 0
1269 317 1223 0
1269 1223 1270 0
329 1269 1270 0
1272 1228 317 0
1271 82 1228 0
1271 1228 1272 0
328 1271 1272 0
1273 1269 329 0
1272 317 1269 0
1272 1269 1273 0
328 1272 1273 0
1275 1273 329 0
1274 328 1273 0
1274 1273 1275 0
85 1274 1275 0
1277 1240 82 0
1276 320 1240 0
1276 1240 1277 0
2069 1276 1277 0
2070 2068 320 0
2071 1276 2069 0
2070 320 1276 0
2070 1276 2071 0
2072 1274 85 0
1278 328 1274 0
1278 1274 2072 0
2073 1278 2072 0
1279 1271 328 0
1277 82 1271 0
1277 1271 1279 0
2069 1277 1279 0
1280 1278 2073 0
1279 328 1278 0
1279 1278 1280 0
2069 1279 1280 0
2074 1280 2073 0
2075 2069 1280 0
2075 1280 2074 0
2076 2072 85 0
1282 1267 22 0
1281 326 1267 0
1281 1267 1282 0
331 1281 1282 0
1284 1264 326 0
1283 83 1264 0
1283 1264 1284 0
330 1283 1284 0
1285 1281 331 0
1284 326 1281 0
1284 1281 1285 0
330 1284 1285 0
1287 1285 331 0
1286 330 1285 0
1286 1285 1287 0
86 1286 1287 0
1289 1255 83 0
1288 323 1255 0
1288 1255 1289 0
332 1288 1289 0
1290 1252 323 0
1270 21 1252 0
1270 1252 1290 0
329 1270 1290 0
1291 1288 332 0
1290 323 1288 0
1290 1288 1291 0
329 1290 1291 0
1292 1291 332 0
1275 329 1291 0
1275 1291 1292 0
85 1275 1292 0
1294 1286 86 0
1293 330 1286 0
1293 1286 1294 0
333 1293 1294 0
1295 1283 330 0
1289 83 1283 0
1289 1283 1295 0
332 1289 1295 0
1296 1293 333 0
1295 330 1293 0
1295 1293 1296 0
332 1295 1296 0
1297 1296 333 0
1292 332 1296 0
1292 1296 1297 0
85 1292 1297 0
1299 1294 86 0
1298 333 1294 0
1298 1294 1299 0
2077 1298 1299 0
1300 1297 333 0
2076 85 1297 0
2076 1297 1300 0
2078 2076 1300 0
2079 1298 2077 0
1300 333 1298 0
1300 1298 2079 0
2078 1300 2079 0
1302 1282 22 0
1301 331 1282 0
1301 1282 1302 0
335 1301 1302 0
1304 1287 331 0
1303 86 1287 0
1303 1287 1304 0
334 1303 1304 0
1305 1301 335 0
1304 331 1301 0
1304 1301 1305 0
334 1304 1305 0
1307 1305 335 0
1306 334 1305 0
1306 1305 1307 0
87 1306 1307 0
1308 1299 86 0
2080 2077 1299 0
2080 1299 1308 0
2081 2080 1308 0
2082 1306 87 0
1309 334 1306 0
1309 1306 2082 0
2083 1309 2082 0
1310 1303 334 0
1308 86 1303 0
1308 1303 1310 0
2081 1308 1310 0
2084 1309 2083 0
1310 334 1309 0
1310 1309 2084 0
2081 1310 2084 0
2085 2082 87 0
2086 1059 2037 0
1311 273 1059 0
1311 1059 2086 0
2087 1311 2086 0
1313 1056 273 0
1312 68 1056 0
1312 1056 1313 0
336 1312 1313 0
1314 1311 2087 0
1313 273 1311 0
1313 1311 1314 0
336 1313 1314 0
1316 1314 2087 0
1315 336 1314 0
1315 1314 1316 0
89 1315 1316 0
1318 1047 68 0
1317 270 1047 0
1317 1047 1318 0
338 1317 1318 0
1320 1044 270 0
1319 16 1044 0
1319 1044 1320 0
337 1319 1320 0
1321 1317 338 0
1320 270 1317 0
1320 1317 1321 0
337 1320 1321 0
1323 1321 338 0
1322 337 1321 0
1322 1321 1323 0
88 1322 1323 0
1325 1315 89 0
1324 336 1315 0
1324 1315 1325 0
339 1324 1325 0
1326 1312 336 0
1318 68 1312 0
1318 1312 1326 0
338 1318 1326 0
1327 1324 339 0
1326 336 1324 0
1326 1324 1327 0
338 1326 1327 0
1328 1327 339 0
1323 338 1327 0
1323 1327 1328 0
88 1323 1328 0
1330 1325 89 0
1329 339 1325 0
1329 1325 1330 0
341 1329 1330 0
1332 1328 339 0
1331 88 1328 0
1331 1328 1332 0
340 1331 1332 0
1333 1329 341 0
1332 339 1329 0
1332 1329 1333 0
340 1332 1333 0
1335 1333 341 0
1334 340 1333 0
1334 1333 1335 0
24 1334 1335 0
1337 1011 16 0
1336 261 1011 0
1336 1011 1337 0
343 1336 1337 0
1339 1008 261 0
1338 65 1008 0
1338 1008 1339 0
342 1338 1339 0
1340 1336 343 0
1339 261 1336 0
1339 1336 1340 0
342 1339 1340 0
1342 1340 343 0
1341 342 1340 0
1341 1340 1342 0
91 1341 1342 0
1344 999 65 0
1343 258 999 0
1343 999 1344 0
345 1343 1344 0
1346 996 258 0
1345 3 996 0
1345 996 1346 0
344 1345 1346 0
1347 1343 345 0
1346 258 1343 0
1346 1343 1347 0
344 1346 1347 0
1349 1347 345 0
1348 344 1347 0
1348 1347 1349 0
90 1348 1349 0
1351 1341 91 0
1350 342 1341 0
1350 1341 1351 0
346 1350 1351 0
1352 1338 342 0
1344 65 1338 0
1344 1338 1352 0
345 1344 1352 0
1353 1350 346 0
1352 342 1350 0
1352 1350 1353 0
345 1352 1353 0
1354 1353 346 0
1349 345 1353 0
1349 1353 1354 0
90 1349 1354 0
1356 1351 91 0
1355 346 1351 0
1355 1351 1356 0
348 1355 1356 0
1358 1354 346 0
1357 90 1354 0
1357 1354 1358 0
347 1357 1358 0
1359 1355 348 0
1358 346 1355 0
1358 1355 1359 0
347 1358 1359 0
1361 1359 348 0
1360 347 1359 0
1360 1359 1361 0
23 1360 1361 0
1363 1334 24 0
1362 340 1334 0
1362 1334 1363 0
350 1362 1363 0
1365 1331 340 0
1364 88 1331 0
1364 1331 1365 0
349 1364 1365 0
1366 1362 350 0
1365 340 1362 0
1365 1362 1366 0
349 1365 1366 0
1368 1366 350 0
1367 349 1366 0
1367 1366 1368 0
92 1367 1368 0
1370 1322 88 0
1369 337 1322 0
1369 1322 1370 0
351 1369 1370 0
1371 1319 337 0
1337 16 1319 0
1337 1319 1371 0
343 1337 1371 0
1372 1369 351 0
1371 337 1369 0
1371 1369 1372 0
343 1371 1372 0
1373 1372 351 0
1342 343 1372 0
1342 1372 1373 0
91 1342 1373 0
1375 1367 92 0
1374 349 1367 0
1374 1367 1375 0
352 1374 1375 0
1376 1364 349 0
1370 88 1364 0
1370 1364 1376 0
351 1370 1376 0
1377 1374 352 0
1376 349 1374 0
1376 1374 1377 0
351 1376 1377 0
1378 1377 352 0
1373 351 1377 0
1373 1377 1378 0
91 1373 1378 0
1380 1375 92 0
1379 352 1375 0
1379 1375 1380 0
353 1379 1380 0
1381 1378 352 0
1356 91 1378 0
1356 1378 1381 0
348 1356 1381 0
1382 1379 353 0
1381 352 1379 0
1381 1379 1382 0
348 1381 1382 0
1383 1382 353 0
1361 348 1382 0
1361 1382 1383 0
23 1361 1383 0
1385 1363 24 0
1384 350 1363 0
1384 1363 1385 0
355 1384 1385 0
1387 1368 350 0
1386 92 1368 0
1386 1368 1387 0
354 1386 1387 0
1388 1384 355 0
1387 350 1384 0
1387 1384 1388 0
354 1387 1388 0
1390 1388 355 0
1389 354 1388 0
1389 1388 1390 0
94 1389 1390 0
1392 1380 92 0
1391 353 1380 0
1391 1380 1392 0
357 1391 1392 0
1394 1383 353 0
1393 23 1383 0
1393 1383 1394 0
356 1393 1394 0
1395 1391 357 0
1394 353 1391 0
1394 1391 1395 0
356 1394 1395 0
1397 1395 357 0
1396 356 1395 0
1396 1395 1397 0
93 1396 1397 0
1399 1389 94 0
1398 354 1389 0
1398 1389 1399 0
358 1398 1399 0
1400 1386 354 0
1392 92 1386 0
1392 1386 1400 0
357 1392 1400 0
1401 1398 358 0
1400 354 1398 0
1400 1398 1401 0
357 1400 1401 0
1402 1401 358 0
1397 357 1401 0
1397 1401 1402 0
93 1397 1402 0
1404 1399 94 0
1403 358 1399 0
1403 1399 1404 0
360 1403 1404 0
1406 1402 358 0
1405 93 1402 0
1405 1402 1406 0
359 1405 1406 0
1407 1403 360 0
1406 358 1403 0
1406 1403 1407 0
359 1406 1407 0
1409 1407 360 0
1408 359 1407 0
1408 1407 1409 0
6 1408 1409 0
1411 867 3 0
1410 225 867 0
1410 867 1411 0
362 1410 1411 0
1413 864 225 0
1412 56 864 0
1412 864 1413 0
361 1412 1413 0
1414 1410 362 0
1413 225 1410 0
1413 1410 1414 0
361 1413 1414 0
1416 1414 362 0
1415 361 1414 0
1415 1414 1416 0
96 1415 1416 0
1418 855 56 0
1417 222 855 0
1417 855 1418 0
364 1417 1418 0
1420 852 222 0
1419 13 852 0
1419 852 1420 0
363 1419 1420 0
1421 1417 364 0
1420 222 1417 0
1420 1417 1421 0
363 1420 1421 0
1423 1421 364 0
1422 363 1421 0
1422 1421 1423 0
95 1422 1423 0
1425 1415 96 0
1424 361 1415 0
1424 1415 1425 0
365 1424 1425 0
1426 1412 361 0
1418 56 1412 0
1418 1412 1426 0
364 1418 1426 0
1427 1424 365 0
1426 361 1424 0
1426 1424 1427 0
364 1426 1427 0
1428 1427 365 0
1423 364 1427 0
1423 1427 1428 0
95 1423 1428 0
1430 1425 96 0
1429 365 1425 0
1429 1425 1430 0
367 1429 1430 0
1432 1428 365 0
1431 95 1428 0
1431 1428 1432 0
366 1431 1432 0
1433 1429 367 0
1432 365 1429 0
1432 1429 1433 0
366 1432 1433 0
1435 1433 367 0
1434 366 1433 0
1434 1433 1435 0
25 1434 1435 0
1437 819 13 0
1436 213 819 0
1436 819 1437 0
369 1436 1437 0
1439 816 213 0
1438 53 816 0
1438 816 1439 0
368 1438 1439 0
1440 1436 369 0
1439 213 1436 0
1439 1436 1440 0
368 1439 1440 0
1442 1440 369 0
1441 368 1440 0
1441 1440 1442 0
97 1441 1442 0
1444 807 53 0
1443 210 807 0
1443 807 1444 0
370 1443 1444 0
1445 804 210 0
1062 1 804 0
1062 804 1445 0
276 1062 1445 0
1446 1443 370 0
1445 210 1443 0
1445 1443 1446 0
276 1445 1446 0
1447 1446 370 0
1067 276 1446 0
1067 1446 1447 0
71 1067 1447 0
1449 1441 97 0
1448 368 1441 0
1448 1441 1449 0
371 1448 1449 0
1450 1438 368 0
1444 53 1438 0
1444 1438 1450 0
370 1444 1450 0
1451 1448 371 0
1450 368 1448 0
1450 1448 1451 0
370 1450 1451 0
1452 1451 371 0
1447 370 1451 0
1447 1451 1452 0
71 1447 1452 0
1454 1449 97 0
1453 371 1449 0
1453 1449 1454 0
372 1453 1454 0
1455 1452 371 0
1075 71 1452 0
1075 1452 1455 0
280 1075 1455 0
1456 1453 372 0
1455 371 1453 0
1455 1453 1456 0
280 1455 1456 0
1457 1456 372 0
1080 280 1456 0
1080 1456 1457 0
19 1080 1457 0
1459 1434 25 0
1458 366 1434 0
1458 1434 1459 0
374 1458 1459 0
1461 1431 366 0
1460 95 1431 0
1460 1431 1461 0
373 1460 1461 0
1462 1458 374 0
1461 366 1458 0
1461 1458 1462 0
373 1461 1462 0
1464 1462 374 0
1463 373 1462 0
1463 1462 1464 0
98 1463 1464 0
1466 1422 95 0
1465 363 1422 0
1465 1422 1466 0
375 1465 1466 0
1467 1419 363 0
1437 13 1419 0
1437 1419 1467 0
369 1437 1467 0
1468 1465 375 0
1467 363 1465 0
1467 1465 1468 0
369 1467 1468 0
1469 1468 375 0
1442 369 1468 0
1442 1468 1469 0
97 1442 1469 0
1471 1463 98 0
1470 373 1463 0
1470 1463 1471 0
376 1470 1471 0
1472 1460 373 0
1466 95 1460 0
1466 1460 1472 0
375 1466 1472 0
1473 1470 376 0
1472 373 1470 0
1472 1470 1473 0
375 1472 1473 0
1474 1473 376 0
1469 375 1473 0
1469 1473 1474 0
97 1469 1474 0
1476 1471 98 0
1475 376 1471 0
1475 1471 1476 0
377 1475 1476 0
1477 1474 376 0
1454 97 1474 0
1454 1474 1477 0
372 1454 1477 0
1478 1475 377 0
1477 376 1475 0
1477 1475 1478 0
372 1477 1478 0
1479 1478 377 0
1457 372 1478 0
1457 1478 1479 0
19 1457 1479 0
1481 1459 25 0
1480 374 1459 0
1480 1459 1481 0
379 1480 1481 0
1483 1464 374 0
1482 98 1464 0
1482 1464 1483 0
378 1482 1483 0
1484 1480 379 0
1483 374 1480 0
1483 1480 1484 0
378 1483 1484 0
1486 1484 379 0
1485 378 1484 0
1485 1484 1486 0
99 1485 1486 0
1488 1476 98 0
1487 377 1476 0
1487 1476 1488 0
380 1487 1488 0
1489 1479 377 0
1108 19 1479 0
1108 1479 1489 0
288 1108 1489 0
1490 1487 380 0
1489 377 1487 0
1489 1487 1490 0
288 1489 1490 0
1491 1490 380 0
1113 288 1490 0
1113 1490 1491 0
75 1113 1491 0
1493 1485 99 0
1492 378 1485 0
1492 1485 1493 0
381 1492 1493 0
1494 1482 378 0
1488 98 1482 0
1488 1482 1494 0
380 1488 1494 0
1495 1492 381 0
1494 378 1492 0
1494 1492 1495 0
380 1494 1495 0
1496 1495 381 0
1491 380 1495 0
1491 1495 1496 0
75 1491 1496 0
1498 1493 99 0
1497 381 1493 0
1497 1493 1498 0
382 1497 1498 0
1499 1496 381 0
1127 75 1496 0
1127 1496 1499 0
293 1127 1499 0
1500 1497 382 0
1499 381 1497 0
1499 1497 1500 0
293 1499 1500 0
1501 1500 382 0
1132 293 1500 0
1132 1500 1501 0
5 1132 1501 0
1503 1408 6 0
1502 359 1408 0
1502 1408 1503 0
384 1502 1503 0
1505 1405 359 0
1504 93 1405 0
1504 1405 1505 0
383 1504 1505 0
1506 1502 384 0
1505 359 1502 0
1505 1502 1506 0
383 1505 1506 0
1508 1506 384 0
1507 383 1506 0
1507 1506 1508 0
101 1507 1508 0
1510 1396 93 0
1509 356 1396 0
1509 1396 1510 0
386 1509 1510 0
1512 1393 356 0
1511 23 1393 0
1511 1393 1512 0
385 1511 1512 0
1513 1509 386 0
1512 356 1509 0
1512 1509 1513 0
385 1512 1513 0
1515 1513 386 0
1514 385 1513 0
1514 1513 1515 0
100 1514 1515 0
1517 1507 101 0
1516 383 1507 0
1516 1507 1517 0
387 1516 1517 0
1518 1504 383 0
1510 93 1504 0
1510 1504 1518 0
386 1510 1518 0
1519 1516 387 0
1518 383 1516 0
1518 1516 1519 0
386 1518 1519 0
1520 1519 387 0
1515 386 1519 0
1515 1519 1520 0
100 1515 1520 0
1522 1517 101 0
1521 387 1517 0
1521 1517 1522 0
389 1521 1522 0
1524 1520 387 0
1523 100 1520 0
1523 1520 1524 0
388 1523 1524 0
1525 1521 389 0
1524 387 1521 0
1524 1521 1525 0
388 1524 1525 0
1527 1525 389 0
1526 388 1525 0
1526 1525 1527 0
26 1526 1527 0
1529 1360 23 0
1528 347 1360 0
1528 1360 1529 0
391 1528 1529 0
1531 1357 347 0
1530 90 1357 0
1530 1357 1531 0
390 1530 1531 0
1532 1528 391 0
1531 347 1528 0
1531 1528 1532 0
390 1531 1532 0
1534 1532 391 0
1533 390 1532 0
1533 1532 1534 0
102 1533 1534 0
1536 1348 90 0
1535 344 1348 0
1535 1348 1536 0
392 1535 1536 0
1537 1345 344 0
1411 3 1345 0
1411 1345 1537 0
362 1411 1537 0
1538 1535 392 0
1537 344 1535 0
1537 1535 1538 0
362 1537 1538 0
1539 1538 392 0
1416 362 1538 0
1416 1538 1539 0
96 1416 1539 0
1541 1533 102 0
1540 390 1533 0
1540 1533 1541 0
393 1540 1541 0
1542 1530 390 0
1536 90 1530 0
1536 1530 1542 0
392 1536 1542 0
1543 1540 393 0
1542 390 1540 0
1542 1540 1543 0
392 1542 1543 0
1544 1543 393 0
1539 392 1543 0
1539 1543 1544 0
96 1539 1544 0
1546 1541 102 0
1545 393 1541 0
1545 1541 1546 0
394 1545 1546 0
1547 1544 393 0
1430 96 1544 0
1430 1544 1547 0
367 1430 1547 0
1548 1545 394 0
1547 393 1545 0
1547 1545 1548 0
367 1547 1548 0
1549 1548 394 0
1435 367 1548 0
1435 1548 1549 0
25 1435 1549 0
1551 1526 26 0
1550 388 1526 0
1550 1526 1551 0
396 1550 1551 0
1553 1523 388 0
1552 100 1523 0
1552 1523 1553 0
395 1552 1553 0
1554 1550 396 0
1553 388 1550 0
1553 1550 1554 0
395 1553 1554 0
1556 1554 396 0
1555 395 1554 0
1555 1554 1556 0
103 1555 1556 0
1558 1514 100 0
1557 385 1514 0
1557 1514 1558 0
397 1557 1558 0
1559 1511 385 0
1529 23 1511 0
1529 1511 1559 0
391 1529 1559 0
1560 1557 397 0
1559 385 1557 0
1559 1557 1560 0
391 1559 1560 0
1561 1560 397 0
1534 391 1560 0
1534 1560 1561 0
102 1534 1561 0
1563 1555 103 0
1562 395 1555 0
1562 1555 1563 0
398 1562 1563 0
1564 1552 395 0
1558 100 1552 0
1558 1552 1564 0
397 1558 1564 0
1565 1562 398 0
1564 395 1562 0
1564 1562 1565 0
397 1564 1565 0
1566 1565 398 0
1561 397 1565 0
1561 1565 1566 0
102 1561 1566 0
1568 1563 103 0
1567 398 1563 0
1567 1563 1568 0
399 1567 1568 0
1569 1566 398 0
1546 102 1566 0
1546 1566 1569 0
394 1546 1569 0
1570 1567 399 0
1569 398 1567 0
1569 1567 1570 0
394 1569 1570 0
1571 1570 399 0
1549 394 1570 0
1549 1570 1571 0
25 1549 1571 0
1573 1551 26 0
1572 396 1551 0
1572 1551 1573 0
401 1572 1573 0
1575 1556 396 0
1574 103 1556 0
1574 1556 1575 0
400 1574 1575 0
1576 1572 401 0
1575 396 1572 0
1575 1572 1576 0
400 1575 1576 0
1578 1576 401 0
1577 400 1576 0
1577 1576 1578 0
104 1577 1578 0
1580 1568 103 0
1579 399 1568 0
1579 1568 1580 0
402 1579 1580 0
1581 1571 399 0
1481 25 1571 0
1481 1571 1581 0
379 1481 1581 0
1582 1579 402 0
1581 399 1579 0
1581 1579 1582 0
379 1581 1582 0
1583 1582 402 0
1486 379 1582 0
1486 1582 1583 0
99 1486 1583 0
1585 1577 104 0
1584 400 1577 0
1584 1577 1585 0
403 1584 1585 0
1586 1574 400 0
1580 103 1574 0
1580 1574 1586 0
402 1580 1586 0
1587 1584 403 0
1586 400 1584 0
1586 1584 1587 0
402 1586 1587 0
1588 1587 403 0
1583 402 1587 0
1583 1587 1588 0
99 1583 1588 0
1590 1585 104 0
1589 403 1585 0
1589 1585 1590 0
404 1589 1590 0
1591 1588 403 0
1498 99 1588 0
1498 1588 1591 0
382 1498 1591 0
1592 1589 404 0
1591 403 1589 0
1591 1589 1592 0
382 1591 1592 0
1593 1592 404 0
1501 382 1592 0
1501 1592 1593 0
5 1501 1593 0
1595 1503 6 0
1594 384 1503 0
1594 1503 1595 0
406 1594 1595 0
1597 1508 384 0
1596 101 1508 0
1596 1508 1597 0
405 1596 1597 0
1598 1594 406 0
1597 384 1594 0
1597 1594 1598 0
405 1597 1598 0
1600 1598 406 0
1599 405 1598 0
1599 1598 1600 0
106 1599 1600 0
1602 1522 101 0
1601 389 1522 0
1601 1522 1602 0
408 1601 1602 0
1604 1527 389 0
1603 26 1527 0
1603 1527 1604 0
407 1603 1604 0
1605 1601 408 0
1604 389 1601 0
1604 1601 1605 0
407 1604 1605 0
1607 1605 408 0
1606 407 1605 0
1606 1605 1607 0
105 1606 1607 0
1609 1599 106 0
1608 405 1599 0
1608 1599 1609 0
409 1608 1609 0
1610 1596 405 0
1602 101 1596 0
1602 1596 1610 0
408 1602 1610 0
1611 1608 409 0
1610 405 1608 0
1610 1608 1611 0
408 1610 1611 0
1612 1611 409 0
1607 408 1611 0
1607 1611 1612 0
105 1607 1612 0
1614 1609 106 0
1613 409 1609 0
1613 1609 1614 0
411 1613 1614 0
1616 1612 409 0
1615 105 1612 0
1615 1612 1616 0
410 1615 1616 0
1617 1613 411 0
1616 409 1613 0
1616 1613 1617 0
410 1616 1617 0
1619 1617 411 0
1618 410 1617 0
1618 1617 1619 0
27 1618 1619 0
1621 1573 26 0
1620 401 1573 0
1620 1573 1621 0
413 1620 1621 0
1623 1578 401 0
1622 104 1578 0
1622 1578 1623 0
412 1622 1623 0
1624 1620 413 0
1623 401 1620 0
1623 1620 1624 0
412 1623 1624 0
1626 1624 413 0
1625 412 1624 0
1625 1624 1626 0
107 1625 1626 0
1628 1590 104 0
1627 404 1590 0
1627 1590 1628 0
414 1627 1628 0
1629 1593 404 0
1244 5 1593 0
1244 1593 1629 0
322 1244 1629 0
1630 1627 414 0
1629 404 1627 0
1629 1627 1630 0
322 1629 1630 0
1631 1630 414 0
1249 322 1630 0
1249 1630 1631 0
84 1249 1631 0
1633 1625 107 0
1632 412 1625 0
1632 1625 1633 0
415 1632 1633 0
1634 1622 412 0
1628 104 1622 0
1628 1622 1634 0
414 1628 1634 0
1635 1632 415 0
1634 412 1632 0
1634 1632 1635 0
414 1634 1635 0
1636 1635 415 0
1631 414 1635 0
1631 1635 1636 0
84 1631 1636 0
1638 1633 107 0
1637 415 1633 0
1637 1633 1638 0
416 1637 1638 0
1639 1636 415 0
1263 84 1636 0
1263 1636 1639 0
327 1263 1639 0
1640 1637 416 0
1639 415 1637 0
1639 1637 1640 0
327 1639 1640 0
1641 1640 416 0
1268 327 1640 0
1268 1640 1641 0
22 1268 1641 0
1643 1618 27 0
1642 410 1618 0
1642 1618 1643 0
418 1642 1643 0
1645 1615 410 0
1644 105 1615 0
1644 1615 1645 0
417 1644 1645 0
1646 1642 418 0
1645 410 1642 0
1645 1642 1646 0
417 1645 1646 0
1648 1646 418 0
1647 417 1646 0
1647 1646 1648 0
108 1647 1648 0
1650 1606 105 0
1649 407 1606 0
1649 1606 1650 0
419 1649 1650 0
1651 1603 407 0
1621 26 1603 0
1621 1603 1651 0
413 1621 1651 0
1652 1649 419 0
1651 407 1649 0
1651 1649 1652 0
413 1651 1652 0
1653 1652 419 0
1626 413 1652 0
1626 1652 1653 0
107 1626 1653 0
1655 1647 108 0
1654 417 1647 0
1654 1647 1655 0
420 1654 1655 0
1656 1644 417 0
1650 105 1644 0
1650 1644 1656 0
419 1650 1656 0
1657 1654 420 0
1656 417 1654 0
1656 1654 1657 0
419 1656 1657 0
1658 1657 420 0
1653 419 1657 0
1653 1657 1658 0
107 1653 1658 0
1660 1655 108 0
1659 420 1655 0
1659 1655 1660 0
421 1659 1660 0
1661 1658 420 0
1638 107 1658 0
1638 1658 1661 0
416 1638 1661 0
1662 1659 421 0
1661 420 1659 0
1661 1659 1662 0
416 1661 1662 0
1663 1662 421 0
1641 416 1662 0
1641 1662 1663 0
22 1641 1663 0
1665 1643 27 0
1664 418 1643 0
1664 1643 1665 0
2088 1664 1665 0
1667 1648 418 0
1666 108 1648 0
1666 1648 1667 0
422 1666 1667 0
2089 1664 2088 0
1667 418 1664 0
1667 1664 2089 0
422 1667 2089 0
2090 422 2089 0
1669 1660 108 0
1668 421 1660 0
1668 1660 1669 0
423 1668 1669 0
1670 1663 421 0
1302 22 1663 0
1302 1663 1670 0
335 1302 1670 0
1671 1668 423 0
1670 421 1668 0
1670 1668 1671 0
335 1670 1671 0
1672 1671 423 0
1307 335 1671 0
1307 1671 1672 0
87 1307 1672 0
1673 422 2090 0
1673 2090 2091 0
2092 1673 2091 0
1674 1666 422 0
1669 108 1666 0
1669 1666 1674 0
423 1669 1674 0
1675 1673 2092 0
1674 422 1673 0
1674 1673 1675 0
423 1674 1675 0
1676 1675 2092 0
1672 423 1675 0
1672 1675 1676 0
87 1672 1676 0
2093 1676 2092 0
2085 87 1676 0
2085 1676 2093 0
2094 1316 2087 0
2095 89 1316 0
2095 1316 2094 0
1678 1330 89 0
1677 341 1330 0
1677 1330 1678 0
2096 1677 1678 0
1680 1335 341 0
1679 24 1335 0
1679 1335 1680 0
424 1679 1680 0
1681 1677 2096 0
1680 341 1677 0
1680 1677 1681 0
424 1680 1681 0
2097 1681 2096 0
2098 424 1681 0
2098 1681 2097 0
1678 89 2095 0
1678 2095 2099 0
2096 1678 2099 0
1683 1385 24 0
1682 355 1385 0
1682 1385 1683 0
426 1682 1683 0
1685 1390 355 0
1684 94 1390 0
1684 1390 1685 0
425 1684 1685 0
1686 1682 426 0
1685 355 1682 0
1685 1682 1686 0
425 1685 1686 0
1688 1686 426 0
1687 425 1686 0
1687 1686 1688 0
110 1687 1688 0
1690 1404 94 0
1689 360 1404 0
1689 1404 1690 0
428 1689 1690 0
1692 1409 360 0
1691 6 1409 0
1691 1409 1692 0
427 1691 1692 0
1693 1689 428 0
1692 360 1689 0
1692 1689 1693 0
427 1692 1693 0
1695 1693 428 0
1694 427 1693 0
1694 1693 1695 0
109 1694 1695 0
1697 1687 110 0
1696 425 1687 0
1696 1687 1697 0
429 1696 1697 0
1698 1684 425 0
1690 94 1684 0
1690 1684 1698 0
428 1690 1698 0
1699 1696 429 0
1698 425 1696 0
1698 1696 1699 0
428 1698 1699 0
1700 1699 429 0
1695 428 1699 0
1695 1699 1700 0
109 1695 1700 0
2100 1697 110 0
2101 429 1697 0
2101 1697 2100 0
2102 1700 429 0
2103 109 1700 0
2103 1700 2102 0
2102 429 2101 0
1701 424 2098 0
1701 2098 2104 0
2105 1701 2104 0
1702 1679 424 0
1683 24 1679 0
1683 1679 1702 0
426 1683 1702 0
1703 1701 2105 0
1702 424 1701 0
1702 1701 1703 0
426 1702 1703 0
2106 1703 2105 0
1688 426 1703 0
1688 1703 2106 0
110 1688 2106 0
110 2106 2107 0
2100 110 2107 0
1705 1595 6 0
1704 406 1595 0
1704 1595 1705 0
431 1704 1705 0
1707 1600 406 0
1706 106 1600 0
1706 1600 1707 0
430 1706 1707 0
1708 1704 431 0
1707 406 1704 0
1707 1704 1708 0
430 1707 1708 0
1710 1708 431 0
1709 430 1708 0
1709 1708 1710 0
111 1709 1710 0
1712 1614 106 0
1711 411 1614 0
1711 1614 1712 0
2108 1711 1712 0
1713 1619 411 0
2109 27 1619 0
2109 1619 1713 0
2110 2109 1713 0
2111 1711 2108 0
1713 411 1711 0
1713 1711 2111 0
2110 1713 2111 0
2112 1709 111 0
2113 430 1709 0
2113 1709 2112 0
1714 1706 430 0
1712 106 1706 0
1712 1706 1714 0
2108 1712 1714 0
1714 430 2113 0
1714 2113 2114 0
2108 1714 2114 0
2115 2112 111 0
2116 1665 27 0
2117 2088 1665 0
2117 1665 2116 0
2116 27 2109 0
1715 109 2103 0
1715 2103 2118 0
432 1715 2118 0
432 2118 2119 0
2120 432 2119 0
1717 1694 109 0
1716 427 1694 0
1716 1694 1717 0
433 1716 1717 0
1718 1691 427 0
1705 6 1691 0
1705 1691 1718 0
431 1705 1718 0
1719 1716 433 0
1718 427 1716 0
1718 1716 1719 0
431 1718 1719 0
1720 1719 433 0
1710 431 1719 0
1710 1719 1720 0
111 1710 1720 0
2121 432 2120 0
1721 1715 432 0
1717 109 1715 0
1717 1715 1721 0
433 1717 1721 0
1722 2121 2122 0
1721 432 2121 0
1721 2121 1722 0
433 1721 1722 0
2123 1722 2122 0
1720 433 1722 0
1720 1722 2123 0
111 1720 2123 0
2115 111 2123 0
1723 2124 2125 0
2126 2124 1723 0
112 2126 1723 0
1724 2127 2128 0
2129 2127 1724 0
434 2129 1724 0
2130 2129 434 0
1725 2130 434 0
1723 2125 2130 0
1723 2130 1725 0
112 1723 1725 0
1727 1724 2128 0
1726 434 1724 0
1726 1724 1727 0
436 1726 1727 0
1729 1725 434 0
1728 112 1725 0
1728 1725 1729 0
435 1728 1729 0
1730 1726 436 0
1729 434 1726 0
1729 1726 1730 0
435 1729 1730 0
1732 1730 436 0
1731 435 1730 0
1731 1730 1732 0
28 1731 1732 0
437 2131 2132 0
2133 2131 437 0
2134 2133 437 0
2135 437 2132 0
438 2135 2136 0
1733 2134 437 0
1727 2128 2134 0
1727 2134 1733 0
436 1727 1733 0
1734 2135 438 0
1733 437 2135 0
1733 2135 1734 0
436 1733 1734 0
1735 1734 438 0
1732 436 1734 0
1732 1734 1735 0
28 1732 1735 0
2137 438 2136 0
1737 1735 438 0
1736 28 1735 0
1736 1735 1737 0
439 1736 1737 0
1737 438 2137 0
1737 2137 2138 0
439 1737 2138 0
2139 439 2138 0
440 2140 2141 0
440 2141 2142 0
1738 440 2142 0
1738 2142 2143 0
114 1738 2143 0
442 2144 2145 0
1740 2036 2146 0
1739 10 2036 0
1739 2036 1740 0
441 1739 1740 0
1741 2144 442 0
1740 2146 2144 0
1740 2144 1741 0
441 1740 1741 0
1743 1741 442 0
1742 441 1741 0
1742 1741 1743 0
113 1742 1743 0
1745 1738 114 0
1744 440 1738 0
1744 1738 1745 0
443 1744 1745 0
1746 2140 440 0
2145 2140 1746 0
442 2145 1746 0
1747 1744 443 0
1746 440 1744 0
1746 1744 1747 0
442 1746 1747 0
1748 1747 443 0
1743 442 1747 0
1743 1747 1748 0
113 1743 1748 0
1750 1745 114 0
1749 443 1745 0
1749 1745 1750 0
445 1749 1750 0
1752 1748 443 0
1751 113 1748 0
1751 1748 1752 0
444 1751 1752 0
1753 1749 445 0
1752 443 1749 0
1752 1749 1753 0
444 1752 1753 0
1755 1753 445 0
1754 444 1753 0
1754 1753 1755 0
29 1754 1755 0
1757 665 10 0
1756 173 665 0
1756 665 1757 0
447 1756 1757 0
1759 662 173 0
1758 43 662 0
1758 662 1759 0
446 1758 1759 0
1760 1756 447 0
1759 173 1756 0
1759 1756 1760 0
446 1759 1760 0
1762 1760 447 0
1761 446 1760 0
1761 1760 1762 0
115 1761 1762 0
1764 657 43 0
1763 171 657 0
1763 657 1764 0
448 1763 1764 0
1765 654 171 0
670 0 654 0
670 654 1765 0
176 670 1765 0
1766 1763 448 0
1765 171 1763 0
1765 1763 1766 0
176 1765 1766 0
1767 1766 448 0
675 176 1766 0
675 1766 1767 0
45 675 1767 0
1769 1761 115 0
1768 446 1761 0
1768 1761 1769 0
449 1768 1769 0
1770 1758 446 0
1764 43 1758 0
1764 1758 1770 0
448 1764 1770 0
1771 1768 449 0
1770 446 1768 0
1770 1768 1771 0
448 1770 1771 0
1772 1771 449 0
1767 448 1771 0
1767 1771 1772 0
45 1767 1772 0
1774 1769 115 0
1773 449 1769 0
1773 1769 1774 0
450 1773 1774 0
1775 1772 449 0
689 45 1772 0
689 1772 1775 0
181 689 1775 0
1776 1773 450 0
1775 449 1773 0
1775 1773 1776 0
181 1775 1776 0
1777 1776 450 0
694 181 1776 0
694 1776 1777 0
12 694 1777 0
1779 1754 29 0
1778 444 1754 0
1778 1754 1779 0
452 1778 1779 0
1781 1751 444 0
1780 113 1751 0
1780 1751 1781 0
451 1780 1781 0
1782 1778 452 0
1781 444 1778 0
1781 1778 1782 0
451 1781 1782 0
1784 1782 452 0
1783 451 1782 0
1783 1782 1784 0
116 1783 1784 0
1786 1742 113 0
1785 441 1742 0
1785 1742 1786 0
453 1785 1786 0
1787 1739 441 0
1757 10 1739 0
1757 1739 1787 0
447 1757 1787 0
1788 1785 453 0
1787 441 1785 0
1787 1785 1788 0
447 1787 1788 0
1789 1788 453 0
1762 447 1788 0
1762 1788 1789 0
115 1762 1789 0
1791 1783 116 0
1790 451 1783 0
1790 1783 1791 0
454 1790 1791 0
1792 1780 451 0
1786 113 1780 0
1786 1780 1792 0
453 1786 1792 0
1793 1790 454 0
1792 451 1790 0
1792 1790 1793 0
453 1792 1793 0
1794 1793 454 0
1789 453 1793 0
1789 1793 1794 0
115 1789 1794 0
1796 1791 116 0
1795 454 1791 0
1795 1791 1796 0
455 1795 1796 0
1797 1794 454 0
1774 115 1794 0
1774 1794 1797 0
450 1774 1797 0
1798 1795 455 0
1797 454 1795 0
1797 1795 1798 0
450 1797 1798 0
1799 1798 455 0
1777 450 1798 0
1777 1798 1799 0
12 1777 1799 0
1801 1779 29 0
1800 452 1779 0
1800 1779 1801 0
457 1800 1801 0
1803 1784 452 0
1802 116 1784 0
1802 1784 1803 0
456 1802 1803 0
1804 1800 457 0
1803 452 1800 0
1803 1800 1804 0
456 1803 1804 0
1806 1804 457 0
1805 456 1804 0
1805 1804 1806 0
117 1805 1806 0
1808 1796 116 0
1807 455 1796 0
1807 1796 1808 0
458 1807 1808 0
1809 1799 455 0
744 12 1799 0
744 1799 1809 0
195 744 1809 0
1810 1807 458 0
1809 455 1807 0
