#!ascii - generated by CreateLabelFiles project 
2153 4102
-7.72939 -23.6773 -25.5245 0
-7.27802 -24.5604 -26.1785 0
-8.79815 -24.0266 -27.1631 0
-6.78266 -24.6307 -27.292 0
-11.8255 -22.9858 -28.1314 0
-10.5845 -23.1207 -27.4426 0
-10.2408 -23.7703 -28.0803 0
-11.2715 -24.2379 -28.8723 0
-9.56576 -24.3844 -29.0329 0
-13.3067 -22.2189 -29.8384 0
-12.6878 -22.4973 -29.1215 0
-13.6481 -22.6362 -31.0883 0
-13.4912 -22.4733 -30.5054 0
-13.7463 -22.7641 -29.9201 0
-13.8452 -23.3216 -29.7626 0
-13.5533 -23.3513 -29.7362 0
-12.4049 -23.5943 -29.4806 0
-11.61 -24.3402 -29.9004 0
-12.8507 -22.9521 -29.1054 0
-13.1754 -23.3991 -29.4794 0
-13.0919 -24.0286 -29.523 0
-11.6828 -24.8329 -29.9359 0
-11.0473 -24.788 -30.4063 0
-12.8791 -24.657 -29.2456 0
-12.4377 -24.6936 -29.6474 0
-11.6944 -25.3528 -29.8628 0
-11.2967 -25.9277 -29.5871 0
-10.8214 -25.8307 -30.2409 0
-15.1266 -22.2576 -31.3067 0
-14.2217 -22.5048 -31.2544 0
-16.1447 -22.0852 -30.6867 0
-15.6285 -22.171 -31.065 0
-15.1943 -22.7658 -30.5037 0
-14.9898 -23.3128 -29.4444 0
-14.5676 -23.4011 -29.8144 0
-16.5387 -21.9101 -30.2722 0
-11.6483 -26.0282 -28.9053 0
-10.4617 -26.2945 -29.2653 0
-13.1313 -24.6205 -28.9387 0
-12.4473 -25.3951 -28.7976 0
-11.7507 -25.8924 -28.1966 0
-11.4911 -25.3861 -27.4301 0
-10.7774 -26.0571 -27.7637 0
-14.0664 -23.3743 -30.022 0
-13.6005 -23.9668 -29.2886 0
-14.1089 -22.9729 -30.7128 0
-14.2482 -23.4489 -30.1585 0
-13.9067 -24.0381 -28.9894 0
-12.3221 -24.8183 -27.6898 0
-11.3468 -25.0713 -26.7872 0
-13.2624 -24.5459 -28.562 0
-13.3659 -24.5274 -28.2286 0
-13.4407 -24.5026 -27.8981 0
-9.55953 -26.8057 -28.9377 0
-9.12201 -26.8449 -29.6663 0
-9.84663 -26.5087 -27.537 0
-9.76011 -26.6545 -28.1913 0
-8.55995 -27.4915 -28.463 0
-7.44599 -28.2781 -28.0149 0
-7.04359 -28.2229 -28.2088 0
-7.95233 -28.085 -28.2341 0
-6.19034 -24.4076 -28.5456 0
-8.93795 -24.5666 -30.3344 0
-7.48929 -24.4788 -29.5818 0
-5.79167 -24.4436 -29.6848 0
-5.59939 -23.6028 -30.7168 0
-10.5175 -25.1393 -31.0302 0
-10.1149 -24.8573 -30.8546 0
-9.61162 -26.1424 -30.9006 0
-10.1809 -25.6256 -30.8828 0
-9.81497 -25.1459 -32.0871 0
-9.24342 -24.8314 -33.1642 0
-9.53108 -24.184 -33.2238 0
-7.24557 -23.8617 -31.9968 0
-5.59564 -22.7697 -31.8054 0
-8.88104 -24.3068 -31.7076 0
-8.75341 -23.9165 -32.8836 0
-8.48456 -23.5308 -33.9219 0
-5.48191 -22.3646 -32.7042 0
-7.70977 -23.9272 -34.454 0
-7.02236 -22.8652 -33.8833 0
-5.44131 -21.9528 -33.5161 0
-4.96755 -21.6524 -34.1229 0
-7.84496 -27.0073 -30.0927 0
-8.79494 -26.6026 -30.5893 0
-6.13834 -28.3312 -28.8124 0
-6.72897 -27.4055 -29.2769 0
-6.50139 -26.7237 -30.3974 0
-5.49033 -26.8787 -31.1162 0
-6.40238 -26.0135 -31.6089 0
-5.83418 -29.1388 -28.8388 0
-4.81577 -27.8124 -30.8155 0
-4.70412 -26.8438 -32.1562 0
-5.27697 -28.5713 -29.6824 0
-4.46249 -28.7218 -30.9563 0
-4.53257 -27.0111 -33.7309 0
-5.03448 -26.1894 -33.7019 0
-4.12041 -27.6206 -33.896 0
-4.34703 -27.0501 -35.2174 0
-3.98068 -26.3723 -36.1948 0
-5.84002 -22.7383 -34.5296 0
-4.47432 -21.9342 -34.0418 0
-8.06127 -24.9572 -34.7393 0
-7.01641 -23.9912 -34.6007 0
-6.15296 -23.8297 -34.9593 0
-6.22321 -24.8125 -35.3523 0
-4.80985 -23.4808 -35.4384 0
-8.67554 -25.3816 -33.0622 0
-8.47326 -24.9216 -34.0278 0
-8.65712 -26.0756 -31.6629 0
-7.65903 -25.7581 -32.4871 0
-6.65164 -25.4828 -33.0271 0
-6.64606 -25.1443 -34.8909 0
-5.56975 -25.3273 -35.4021 0
-7.61574 -25.136 -34.5339 0
-6.84004 -25.1763 -34.2701 0
-5.84206 -25.6513 -33.9386 0
-4.93489 -25.6644 -35.7007 0
-4.13702 -24.9583 -35.8845 0
-5.36321 -26.2214 -35.0415 0
-4.42474 -25.9654 -36.0688 0
-3.56978 -25.8347 -36.8285 0
-3.65831 -22.6224 -33.5115 0
-4.26229 -24.0429 -35.0546 0
-4.33753 -23.216 -34.383 0
-2.71813 -23.9045 -32.7603 0
-2.03681 -25.1458 -32.2889 0
-3.3439 -24.883 -36.2433 0
-3.80216 -24.5886 -35.5394 0
-3.06914 -25.4726 -36.6111 0
-2.72907 -26.3412 -35.1624 0
-2.17345 -27.5682 -33.5586 0
-2.24707 -26.1206 -32.5252 0
-1.24232 -26.0775 -31.7141 0
-3.12765 -25.3029 -34.2259 0
-2.00494 -26.7344 -33.3042 0
-1.6684 -28.1883 -32.0605 0
-0.609593 -26.9081 -31.1146 0
-0.667358 -27.9734 -30.887 0
-0.146896 -27.4561 -31.0613 0
-3.32942 -28.0734 -36.4303 0
-3.81276 -28.5283 -34.8034 0
-3.78974 -28.04 -34.1855 0
-2.09534 -27.8706 -37.5023 0
-2.82145 -27.5183 -36.997 0
0.657177 -32.9474 -34.7409 0
-0.145858 -33.0055 -34.5057 0
-0.195889 -33.0141 -34.032 0
-0.120931 -32.9398 -33.615 0
-0.772218 -32.4858 -33.5646 0
-1.75298 -28.8662 -36.8743 0
-1.81576 -29.4974 -37.2827 0
-1.68466 -30.2832 -36.7432 0
-1.57239 -30.652 -35.5608 0
-1.44282 -31.4776 -34.8521 0
-1.09232 -31.7856 -33.9676 0
2.24202 -32.3904 -36.253 0
1.62128 -32.4363 -35.6891 0
3.56627 -31.8026 -37.286 0
2.88561 -32.1237 -37.0024 0
3.34121 -30.9912 -37.4309 0
8.0739 -30.1722 -35.1815 0
7.53989 -29.6277 -35.3667 0
8.62872 -30.8682 -35.0929 0
9.06387 -30.4647 -34.1811 0
9.58973 -29.9191 -33.2624 0
9.97955 -30.1021 -33.0202 0
10.4596 -29.861 -32.0139 0
10.8617 -30.1286 -31.7386 0
11.6438 -30.0774 -30.5491 0
11.5057 -29.766 -30.8062 0
11.255 -30.6654 -30.1056 0
11.1166 -30.874 -28.9314 0
11.5588 -30.355 -28.1404 0
11.6616 -28.9947 -25.9907 0
5.0855 -29.2843 -36.9516 0
4.74795 -30.1807 -37.223 0
5.82457 -29.3258 -36.8103 0
6.56155 -29.2195 -36.3537 0
7.2371 -29.3143 -36.0736 0
14.2272 -27.9214 -15.1512 0
13.813 -28.6671 -15.3701 0
10.8043 -28.2822 -19.7007 0
9.87289 -28.9613 -18.3462 0
9.26401 -29.3447 -17.3606 0
9.89831 -30.0408 -17.1492 0
10.4394 -30.0557 -18.8139 0
10.1688 -30.8906 -18.6922 0
9.82421 -30.5334 -17.9554 0
13.3574 -29.4529 -15.6048 0
12.2222 -28.7037 -15.2864 0
12.5492 -29.5323 -15.5038 0
11.3971 -28.8486 -15.3987 0
10.6661 -29.112 -15.6813 0
10.1999 -29.5787 -16.3939 0
12.2336 -29.6585 -25.0821 0
12.074 -28.9454 -23.922 0
12.1998 -29.5344 -24.0678 0
12.1364 -29.4577 -23.0566 0
11.9466 -30.3502 -27.2003 0
12.3358 -30.3288 -26.2531 0
10.9923 -30.0684 -19.6115 0
11.2482 -29.2063 -19.9951 0
11.4394 -28.4991 -20.6443 0
11.6395 -27.9693 -21.4454 0
11.8972 -28.5624 -21.6454 0
11.9444 -29.0146 -21.8892 0
13.8688 -28.4967 -14.5212 0
15.1492 -26.8985 -14.2908 0
17.4727 -23.6294 -11.7968 0
17.9942 -22.6362 -11.8277 0
18.871 -21.8691 -11.163 0
15.7621 -26.2934 -13.286 0
16.3904 -25.426 -12.1958 0
15.2663 -27.2846 -13.4968 0
14.4769 -28.1175 -13.6208 0
16.9112 -24.5406 -11.8937 0
17.764 -21.4562 -11.1433 0
17.2099 -21.0192 -10.321 0
16.1662 -20.3395 -10.1103 0
16.2158 -19.5969 -9.4571 0
16.1028 -18.6285 -9.4686 0
22.1093 -6.87647 -26.6919 0
22.7842 -6.2963 -25.6178 0
23.8477 -6.16893 -24.4644 0
25.2018 -6.11043 -23.0976 0
26.6751 -6.23473 -21.5491 0
26.6266 -7.06469 -21.1827 0
26.5186 -7.18731 -20.7702 0
24.377 -7.3455 -19.9611 0
23.1577 -6.80769 -19.5007 0
19.9702 -5.86175 -18.3279 0
17.6247 -5.3854 -17.7008 0
22.1143 -6.21154 -18.9879 0
12.674 -3.30116 -13.7959 0
12.9598 -3.70683 -13.4484 0
12.6101 -3.00396 -14.4 0
12.6336 -3.56658 -15.5748 0
12.579 -4.45942 -16.0389 0
13.3264 -4.1847 -16.404 0
14.8973 -4.86649 -17.0071 0
16.5854 -5.58864 -17.5693 0
13.684 -4.2941 -13.1303 0
23.054 -8.35369 -12.9524 0
23.1459 -8.68807 -12.1311 0
23.0352 -7.96489 -13.5854 0
21.7606 -8.07053 -13.8841 0
20.4868 -8.27348 -14.2671 0
21.5892 -7.54832 -14.3008 0
21.3422 -6.84493 -14.55 0
20.0732 -6.84841 -14.6351 0
17.0402 -4.67258 -13.4568 0
18.5196 -5.54093 -14.2365 0
19.8274 -5.92586 -14.6047 0
18.2158 -4.72621 -13.8122 0
16.0373 -4.85181 -12.7371 0
15.0411 -4.97354 -12.2319 0
17.8458 -4.01992 -13.4026 0
17.3913 -3.41939 -13.053 0
16.1077 -3.47621 -12.8664 0
14.9553 -3.51706 -12.767 0
13.7915 -3.57471 -12.9004 0
23.2574 -9.04018 -11.3276 0
23.4964 -9.93147 -10.8953 0
23.6558 -10.7705 -10.4615 0
23.0113 -11.6657 -10.7993 0
23.2048 -12.4697 -10.8198 0
23.2476 -13.3405 -10.9455 0
23.1241 -14.3506 -11.0829 0
22.7533 -15.5571 -11.1438 0
21.9641 -16.676 -11.425 0
20.2424 -16.9688 -11.346 0
18.5494 -15.943 -11.1192 0
16.9702 -15.7239 -10.9191 0
17.1427 -15.8127 -10.2557 0
16.4265 -16.5293 -9.7249 0
15.6334 -17.6793 -10.2711 0
15.611 -18.3373 -9.7642 0
21.3325 -7.59672 -27.7204 0
12.9059 -14.8027 -28.2059 0
13.7479 -14.1168 -28.5656 0
20.5218 -8.61055 -28.5164 0
19.5861 -9.55884 -28.8217 0
18.4826 -10.5068 -29.0704 0
17.0037 -11.8318 -29.1803 0
17.1628 -11.4369 -29.1233 0
15.8567 -12.4223 -29.0437 0
14.3672 -13.4686 -29.2325 0
14.7781 -13.2829 -28.8221 0
5.84232 -19.0904 -24.7108 0
7.15094 -19.2248 -24.9215 0
-4.9643 -16.8432 -28.4785 0
-4.50874 -17.4334 -27.0627 0
-4.94993 -18.1745 -26.7543 0
-4.48859 -18.4816 -25.2083 0
-4.70368 -19.3349 -24.5149 0
5.66373 -18.4625 -24.0074 0
2.61239 -20.893 -23.7553 0
4.16796 -19.2906 -23.7032 0
2.32455 -20.518 -23.1329 0
-1.83931 -21.93 -22.8237 0
-0.0130636 -21.0877 -22.5734 0
-2.10814 -21.117 -22.8185 0
-3.56692 -20.3748 -23.5352 0
12.0952 -15.499 -27.8472 0
11.5043 -16.5721 -27.8098 0
11.4436 -16.4106 -27.2758 0
11.6195 -16.2252 -26.8118 0
9.78395 -18.264 -26.105 0
10.6655 -17.1618 -26.1617 0
9.71147 -18.017 -25.5684 0
8.82993 -18.5047 -25.0524 0
7.99787 -18.7169 -24.6467 0
-5.95576 -16.9461 -29.3372 0
-6.94591 -17.0402 -29.7875 0
-8.18679 -17.1493 -29.7917 0
-9.41943 -17.2947 -29.6738 0
-14.2223 -19.3278 -31.324 0
-13.1317 -18.7837 -30.7377 0
-16.973 -20.7803 -30.8248 0
-16.3946 -20.3536 -31.2873 0
-17.0247 -21.4396 -30.7387 0
-14.777 -19.2735 -31.0911 0
-15.6607 -19.9104 -31.366 0
-12.0803 -18.2445 -30.1077 0
-11.3241 -18.2585 -30.1848 0
-10.4185 -17.5841 -29.818 0
-16.7978 -21.6775 -29.8334 0
-16.099 -22.0262 -29.2422 0
-14.3185 -23.7503 -28.3226 0
-15.1518 -23.122 -29.1486 0
-15.9603 -22.4236 -29.7287 0
-13.4568 -24.2972 -27.5834 0
-10.3857 -25.6083 -26.3563 0
-11.4173 -24.975 -26.4226 0
-12.442 -24.67 -26.9498 0
-9.66438 -26.3863 -26.8178 0
-7.12559 -29.2063 -28.1223 0
-7.70651 -29.0029 -28.5276 0
-8.99981 -27.3259 -27.5956 0
-8.39008 -28.1004 -28.2473 0
-6.36807 -29.7198 -28.4364 0
-5.78825 -29.9739 -29.5358 0
-4.92961 -29.4713 -29.8896 0
-3.87467 -28.3741 -32.4124 0
-4.23221 -29.4095 -31.3079 0
488 1947 1948 0
488 1948 1949 0
127 488 1949 0
126 1950 1951 0
489 488 127 0
1951 1947 488 0
1951 488 489 0
126 1951 489 0
491 489 127 0
490 126 489 0
490 489 491 0
8 490 491 0
492 1952 1953 0
492 1953 1954 0
128 492 1954 0
128 1954 1955 0
494 1955 1956 0
493 128 1955 0
493 1955 494 0
7 493 494 0
496 490 8 0
495 126 490 0
495 490 496 0
130 495 496 0
497 1950 126 0
1957 1950 497 0
129 1957 497 0
498 495 130 0
497 126 495 0
497 495 498 0
129 497 498 0
500 498 130 0
499 129 498 0
499 498 500 0
32 499 500 0
502 499 32 0
501 129 499 0
501 499 502 0
131 501 502 0
503 1957 129 0
1958 1957 503 0
1959 1958 503 0
1960 501 131 0
503 129 501 0
503 501 1960 0
1959 503 1960 0
1961 1960 131 0
505 502 32 0
504 131 502 0
504 502 505 0
132 504 505 0
1962 1961 131 0
506 504 132 0
1962 131 504 0
1962 504 506 0
1956 1962 506 0
507 506 132 0
494 1956 506 0
494 506 507 0
7 494 507 0
509 496 8 0
508 130 496 0
508 496 509 0
134 508 509 0
511 500 130 0
510 32 500 0
510 500 511 0
133 510 511 0
512 508 134 0
511 130 508 0
511 508 512 0
133 511 512 0
514 512 134 0
513 133 512 0
513 512 514 0
34 513 514 0
516 505 32 0
515 132 505 0
515 505 516 0
136 515 516 0
518 507 132 0
517 7 507 0
517 507 518 0
135 517 518 0
519 515 136 0
518 132 515 0
518 515 519 0
135 518 519 0
521 519 136 0
520 135 519 0
520 519 521 0
33 520 521 0
523 513 34 0
522 133 513 0
522 513 523 0
137 522 523 0
524 510 133 0
516 32 510 0
516 510 524 0
136 516 524 0
525 522 137 0
524 133 522 0
524 522 525 0
136 524 525 0
526 525 137 0
521 136 525 0
521 525 526 0
33 521 526 0
528 523 34 0
527 137 523 0
527 523 528 0
139 527 528 0
530 526 137 0
529 33 526 0
529 526 530 0
138 529 530 0
531 527 139 0
530 137 527 0
530 527 531 0
138 530 531 0
533 531 139 0
532 138 531 0
532 531 533 0
0 532 533 0
535 532 0 0
534 138 532 0
534 532 535 0
141 534 535 0
537 529 138 0
536 33 529 0
536 529 537 0
140 536 537 0
538 534 141 0
537 138 534 0
537 534 538 0
140 537 538 0
540 538 141 0
539 140 538 0
539 538 540 0
36 539 540 0
542 520 33 0
541 135 520 0
541 520 542 0
143 541 542 0
544 517 135 0
543 7 517 0
543 517 544 0
142 543 544 0
545 541 143 0
544 135 541 0
544 541 545 0
142 544 545 0
547 545 143 0
546 142 545 0
546 545 547 0
35 546 547 0
549 539 36 0
548 140 539 0
548 539 549 0
144 548 549 0
550 536 140 0
542 33 536 0
542 536 550 0
143 542 550 0
551 548 144 0
550 140 548 0
550 548 551 0
143 550 551 0
552 551 144 0
547 143 551 0
547 551 552 0
35 547 552 0
554 549 36 0
553 144 549 0
553 549 554 0
146 553 554 0
556 552 144 0
555 35 552 0
555 552 556 0
145 555 556 0
557 553 146 0
556 144 553 0
556 553 557 0
145 556 557 0
559 557 146 0
558 145 557 0
558 557 559 0
10 558 559 0
561 493 7 0
560 128 493 0
560 493 561 0
148 560 561 0
563 492 128 0
562 1952 492 0
562 492 563 0
147 562 563 0
564 560 148 0
563 128 560 0
563 560 564 0
147 563 564 0
566 564 148 0
565 147 564 0
565 564 566 0
38 565 566 0
150 1963 1964 0
149 1965 1966 0
1967 1963 150 0
149 1966 1967 0
568 1967 150 0
567 149 1967 0
567 1967 568 0
37 567 568 0
570 565 38 0
569 147 565 0
569 565 570 0
151 569 570 0
571 562 147 0
1964 1952 562 0
1964 562 571 0
150 1964 571 0
572 569 151 0
571 147 569 0
571 569 572 0
150 571 572 0
573 572 151 0
568 150 572 0
568 572 573 0
37 568 573 0
575 570 38 0
574 151 570 0
574 570 575 0
153 574 575 0
577 573 151 0
576 37 573 0
576 573 577 0
152 576 577 0
578 574 153 0
577 151 574 0
577 574 578 0
152 577 578 0
580 578 153 0
579 152 578 0
579 578 580 0
9 579 580 0
582 558 10 0
581 145 558 0
581 558 582 0
155 581 582 0
584 555 145 0
583 35 555 0
583 555 584 0
154 583 584 0
585 581 155 0
584 145 581 0
584 581 585 0
154 584 585 0
587 585 155 0
586 154 585 0
586 585 587 0
39 586 587 0
589 546 35 0
588 142 546 0
588 546 589 0
156 588 589 0
590 543 142 0
561 7 543 0
561 543 590 0
148 561 590 0
591 588 156 0
590 142 588 0
590 588 591 0
148 590 591 0
592 591 156 0
566 148 591 0
566 591 592 0
38 566 592 0
594 586 39 0
593 154 586 0
593 586 594 0
157 593 594 0
595 583 154 0
589 35 583 0
589 583 595 0
156 589 595 0
596 593 157 0
595 154 593 0
595 593 596 0
156 595 596 0
597 596 157 0
592 156 596 0
592 596 597 0
38 592 597 0
599 594 39 0
598 157 594 0
598 594 599 0
158 598 599 0
600 597 157 0
575 38 597 0
575 597 600 0
153 575 600 0
601 598 158 0
600 157 598 0
600 598 601 0
153 600 601 0
602 601 158 0
580 153 601 0
580 601 602 0
9 580 602 0
604 582 10 0
603 155 582 0
603 582 604 0
160 603 604 0
606 587 155 0
605 39 587 0
605 587 606 0
159 605 606 0
607 603 160 0
606 155 603 0
606 603 607 0
159 606 607 0
609 607 160 0
608 159 607 0
608 607 609 0
41 608 609 0
611 599 39 0
610 158 599 0
610 599 611 0
162 610 611 0
613 602 158 0
612 9 602 0
612 602 613 0
161 612 613 0
614 610 162 0
613 158 610 0
613 610 614 0
161 613 614 0
616 614 162 0
615 161 614 0
615 614 616 0
40 615 616 0
618 608 41 0
617 159 608 0
617 608 618 0
163 617 618 0
619 605 159 0
611 39 605 0
611 605 619 0
162 611 619 0
620 617 163 0
619 159 617 0
619 617 620 0
162 619 620 0
621 620 163 0
616 162 620 0
616 620 621 0
40 616 621 0
623 618 41 0
622 163 618 0
622 618 623 0
165 622 623 0
625 621 163 0
624 40 621 0
624 621 625 0
164 624 625 0
626 622 165 0
625 163 622 0
625 622 626 0
164 625 626 0
628 626 165 0
627 164 626 0
627 626 628 0
3 627 628 0
166 1968 1969 0
629 1968 166 0
1970 1968 629 0
1971 1970 629 0
631 629 166 0
630 1971 629 0
630 629 631 0
11 630 631 0
632 630 11 0
1972 1971 630 0
1972 630 632 0
167 1972 632 0
1973 1972 167 0
1974 1973 167 0
634 632 11 0
633 167 632 0
633 632 634 0
169 633 634 0
636 1974 167 0
635 1975 1974 0
635 1974 636 0
168 635 636 0
637 633 169 0
636 167 633 0
636 633 637 0
168 636 637 0
639 637 169 0
638 168 637 0
638 637 639 0
43 638 639 0
170 1976 1977 0
640 1976 170 0
1978 1976 640 0
1979 1978 640 0
641 640 170 0
1980 1979 640 0
1980 640 641 0
42 1980 641 0
643 638 43 0
642 168 638 0
642 638 643 0
171 642 643 0
644 635 168 0
1977 1975 635 0
1977 635 644 0
170 1977 644 0
645 642 171 0
644 168 642 0
644 642 645 0
170 644 645 0
646 645 171 0
641 170 645 0
641 645 646 0
42 641 646 0
648 643 43 0
647 171 643 0
647 643 648 0
173 647 648 0
649 646 171 0
1981 42 646 0
1981 646 649 0
172 1981 649 0
650 647 173 0
649 171 647 0
649 647 650 0
172 649 650 0
652 650 173 0
651 172 650 0
651 650 652 0
2 651 652 0
654 627 3 0
653 164 627 0
653 627 654 0
175 653 654 0
656 624 164 0
655 40 624 0
655 624 656 0
174 655 656 0
657 653 175 0
656 164 653 0
656 653 657 0
174 656 657 0
659 657 175 0
658 174 657 0
658 657 659 0
45 658 659 0
661 615 40 0
660 161 615 0
660 615 661 0
177 660 661 0
663 612 161 0
662 9 612 0
662 612 663 0
176 662 663 0
664 660 177 0
663 161 660 0
663 660 664 0
176 663 664 0
666 664 177 0
665 176 664 0
665 664 666 0
44 665 666 0
668 658 45 0
667 174 658 0
667 658 668 0
178 667 668 0
669 655 174 0
661 40 655 0
661 655 669 0
177 661 669 0
670 667 178 0
669 174 667 0
669 667 670 0
177 669 670 0
671 670 178 0
666 177 670 0
666 670 671 0
44 666 671 0
673 668 45 0
672 178 668 0
672 668 673 0
180 672 673 0
675 671 178 0
674 44 671 0
674 671 675 0
179 674 675 0
676 672 180 0
675 178 672 0
675 672 676 0
179 675 676 0
678 676 180 0
677 179 676 0
677 676 678 0
12 677 678 0
680 579 9 0
679 152 579 0
679 579 680 0
182 679 680 0
682 576 152 0
681 37 576 0
681 576 682 0
181 681 682 0
683 679 182 0
682 152 679 0
682 679 683 0
181 682 683 0
685 683 182 0
684 181 683 0
684 683 685 0
46 684 685 0
686 567 37 0
1982 149 567 0
1982 567 686 0
183 1982 686 0
1983 1965 149 0
1984 1982 183 0
1983 149 1982 0
687 1984 183 0
1985 1984 687 0
1986 1985 687 0
689 684 46 0
688 181 684 0
688 684 689 0
184 688 689 0
690 681 181 0
686 37 681 0
686 681 690 0
183 686 690 0
691 688 184 0
690 181 688 0
690 688 691 0
183 690 691 0
692 691 184 0
687 183 691 0
687 691 692 0
1986 687 692 0
694 689 46 0
693 184 689 0
693 689 694 0
185 693 694 0
695 692 184 0
1969 1986 692 0
1969 692 695 0
166 1969 695 0
696 693 185 0
695 184 693 0
695 693 696 0
166 695 696 0
697 696 185 0
631 166 696 0
631 696 697 0
11 631 697 0
699 677 12 0
698 179 677 0
698 677 699 0
187 698 699 0
701 674 179 0
700 44 674 0
700 674 701 0
186 700 701 0
702 698 187 0
701 179 698 0
701 698 702 0
186 701 702 0
704 702 187 0
703 186 702 0
703 702 704 0
47 703 704 0
706 665 44 0
705 176 665 0
705 665 706 0
188 705 706 0
707 662 176 0
680 9 662 0
680 662 707 0
182 680 707 0
708 705 188 0
707 176 705 0
707 705 708 0
182 707 708 0
709 708 188 0
685 182 708 0
685 708 709 0
46 685 709 0
711 703 47 0
710 186 703 0
710 703 711 0
189 710 711 0
712 700 186 0
706 44 700 0
706 700 712 0
188 706 712 0
713 710 189 0
712 186 710 0
712 710 713 0
188 712 713 0
714 713 189 0
709 188 713 0
709 713 714 0
46 709 714 0
716 711 47 0
715 189 711 0
715 711 716 0
190 715 716 0
717 714 189 0
694 46 714 0
694 714 717 0
185 694 717 0
718 715 190 0
717 189 715 0
717 715 718 0
185 717 718 0
719 718 190 0
697 185 718 0
697 718 719 0
11 697 719 0
721 699 12 0
720 187 699 0
720 699 721 0
192 720 721 0
723 704 187 0
722 47 704 0
722 704 723 0
191 722 723 0
724 720 192 0
723 187 720 0
723 720 724 0
191 723 724 0
726 724 192 0
725 191 724 0
725 724 726 0
48 725 726 0
728 716 47 0
727 190 716 0
727 716 728 0
193 727 728 0
729 719 190 0
634 11 719 0
634 719 729 0
169 634 729 0
730 727 193 0
729 190 727 0
729 727 730 0
169 729 730 0
731 730 193 0
639 169 730 0
639 730 731 0
43 639 731 0
733 725 48 0
732 191 725 0
732 725 733 0
194 732 733 0
734 722 191 0
728 47 722 0
728 722 734 0
193 728 734 0
735 732 194 0
734 191 732 0
734 732 735 0
193 734 735 0
736 735 194 0
731 193 735 0
731 735 736 0
43 731 736 0
738 733 48 0
737 194 733 0
737 733 738 0
195 737 738 0
739 736 194 0
648 43 736 0
648 736 739 0
173 648 739 0
740 737 195 0
739 194 737 0
739 737 740 0
173 739 740 0
741 740 195 0
652 173 740 0
652 740 741 0
2 652 741 0
743 654 3 0
742 175 654 0
742 654 743 0
197 742 743 0
745 659 175 0
744 45 659 0
744 659 745 0
196 744 745 0
746 742 197 0
745 175 742 0
745 742 746 0
196 745 746 0
748 746 197 0
747 196 746 0
747 746 748 0
50 747 748 0
750 673 45 0
749 180 673 0
749 673 750 0
199 749 750 0
752 678 180 0
751 12 678 0
751 678 752 0
198 751 752 0
753 749 199 0
752 180 749 0
752 749 753 0
198 752 753 0
755 753 199 0
754 198 753 0
754 753 755 0
49 754 755 0
757 747 50 0
756 196 747 0
756 747 757 0
200 756 757 0
758 744 196 0
750 45 744 0
750 744 758 0
199 750 758 0
759 756 200 0
758 196 756 0
758 756 759 0
199 758 759 0
760 759 200 0
755 199 759 0
755 759 760 0
49 755 760 0
762 757 50 0
761 200 757 0
761 757 762 0
202 761 762 0
764 760 200 0
763 49 760 0
763 760 764 0
201 763 764 0
765 761 202 0
764 200 761 0
764 761 765 0
201 764 765 0
767 765 202 0
766 201 765 0
766 765 767 0
14 766 767 0
769 721 12 0
768 192 721 0
768 721 769 0
204 768 769 0
771 726 192 0
770 48 726 0
770 726 771 0
203 770 771 0
772 768 204 0
771 192 768 0
771 768 772 0
203 771 772 0
774 772 204 0
773 203 772 0
773 772 774 0
52 773 774 0
776 738 48 0
775 195 738 0
775 738 776 0
206 775 776 0
778 741 195 0
777 2 741 0
777 741 778 0
205 777 778 0
779 775 206 0
778 195 775 0
778 775 779 0
205 778 779 0
781 779 206 0
780 205 779 0
780 779 781 0
51 780 781 0
783 773 52 0
782 203 773 0
782 773 783 0
207 782 783 0
784 770 203 0
776 48 770 0
776 770 784 0
206 776 784 0
785 782 207 0
784 203 782 0
784 782 785 0
206 784 785 0
786 785 207 0
781 206 785 0
781 785 786 0
51 781 786 0
788 783 52 0
787 207 783 0
787 783 788 0
209 787 788 0
790 786 207 0
789 51 786 0
789 786 790 0
208 789 790 0
791 787 209 0
790 207 787 0
790 787 791 0
208 790 791 0
793 791 209 0
792 208 791 0
792 791 793 0
13 792 793 0
795 766 14 0
794 201 766 0
794 766 795 0
211 794 795 0
797 763 201 0
796 49 763 0
796 763 797 0
210 796 797 0
798 794 211 0
797 201 794 0
797 794 798 0
210 797 798 0
800 798 211 0
799 210 798 0
799 798 800 0
53 799 800 0
802 754 49 0
801 198 754 0
801 754 802 0
212 801 802 0
803 751 198 0
769 12 751 0
769 751 803 0
204 769 803 0
804 801 212 0
803 198 801 0
803 801 804 0
204 803 804 0
805 804 212 0
774 204 804 0
774 804 805 0
52 774 805 0
807 799 53 0
806 210 799 0
806 799 807 0
213 806 807 0
808 796 210 0
802 49 796 0
802 796 808 0
212 802 808 0
809 806 213 0
808 210 806 0
808 806 809 0
212 808 809 0
810 809 213 0
805 212 809 0
805 809 810 0
52 805 810 0
812 807 53 0
811 213 807 0
811 807 812 0
214 811 812 0
813 810 213 0
788 52 810 0
788 810 813 0
209 788 813 0
814 811 214 0
813 213 811 0
813 811 814 0
209 813 814 0
815 814 214 0
793 209 814 0
793 814 815 0
13 793 815 0
817 795 14 0
816 211 795 0
816 795 817 0
216 816 817 0
819 800 211 0
818 53 800 0
818 800 819 0
215 818 819 0
820 816 216 0
819 211 816 0
819 816 820 0
215 819 820 0
822 820 216 0
821 215 820 0
821 820 822 0
55 821 822 0
824 812 53 0
823 214 812 0
823 812 824 0
218 823 824 0
826 815 214 0
825 13 815 0
825 815 826 0
217 825 826 0
827 823 218 0
826 214 823 0
826 823 827 0
217 826 827 0
829 827 218 0
828 217 827 0
828 827 829 0
54 828 829 0
831 821 55 0
830 215 821 0
830 821 831 0
219 830 831 0
832 818 215 0
824 53 818 0
824 818 832 0
218 824 832 0
833 830 219 0
832 215 830 0
832 830 833 0
218 832 833 0
834 833 219 0
829 218 833 0
829 833 834 0
54 829 834 0
836 831 55 0
835 219 831 0
835 831 836 0
221 835 836 0
838 834 219 0
837 54 834 0
837 834 838 0
220 837 838 0
839 835 221 0
838 219 835 0
838 835 839 0
220 838 839 0
841 839 221 0
840 220 839 0
840 839 841 0
1 840 841 0
843 840 1 0
842 220 840 0
842 840 843 0
223 842 843 0
845 837 220 0
844 54 837 0
844 837 845 0
222 844 845 0
846 842 223 0
845 220 842 0
845 842 846 0
222 845 846 0
848 846 223 0
847 222 846 0
847 846 848 0
57 847 848 0
850 828 54 0
849 217 828 0
849 828 850 0
225 849 850 0
852 825 217 0
851 13 825 0
851 825 852 0
224 851 852 0
853 849 225 0
852 217 849 0
852 849 853 0
224 852 853 0
855 853 225 0
854 224 853 0
854 853 855 0
56 854 855 0
857 847 57 0
856 222 847 0
856 847 857 0
226 856 857 0
858 844 222 0
850 54 844 0
850 844 858 0
225 850 858 0
859 856 226 0
858 222 856 0
858 856 859 0
225 858 859 0
860 859 226 0
855 225 859 0
855 859 860 0
56 855 860 0
862 857 57 0
861 226 857 0
861 857 862 0
228 861 862 0
864 860 226 0
863 56 860 0
863 860 864 0
227 863 864 0
865 861 228 0
864 226 861 0
864 861 865 0
227 864 865 0
1987 865 228 0
1988 227 865 0
1988 865 1987 0
867 792 13 0
866 208 792 0
866 792 867 0
230 866 867 0
869 789 208 0
868 51 789 0
868 789 869 0
229 868 869 0
870 866 230 0
869 208 866 0
869 866 870 0
229 869 870 0
872 870 230 0
871 229 870 0
871 870 872 0
59 871 872 0
874 780 51 0
873 205 780 0
873 780 874 0
232 873 874 0
876 777 205 0
875 2 777 0
875 777 876 0
231 875 876 0
877 873 232 0
876 205 873 0
876 873 877 0
231 876 877 0
878 877 232 0
1989 231 877 0
1989 877 878 0
58 1989 878 0
880 871 59 0
879 229 871 0
879 871 880 0
233 879 880 0
881 868 229 0
874 51 868 0
874 868 881 0
232 874 881 0
882 879 233 0
881 229 879 0
881 879 882 0
232 881 882 0
1990 882 233 0
878 232 882 0
878 882 1990 0
58 878 1990 0
883 880 59 0
1991 233 880 0
1991 880 883 0
1992 1991 883 0
884 1990 233 0
1993 58 1990 0
1993 1990 884 0
1994 1993 884 0
884 233 1991 0
884 1991 1995 0
1994 884 1995 0
1996 227 1988 0
886 863 227 0
885 56 863 0
885 863 886 0
1997 885 886 0
886 227 1996 0
886 1996 1998 0
1997 886 1998 0
888 854 56 0
887 224 854 0
887 854 888 0
234 887 888 0
889 851 224 0
867 13 851 0
867 851 889 0
230 867 889 0
890 887 234 0
889 224 887 0
889 887 890 0
230 889 890 0
891 890 234 0
872 230 890 0
872 890 891 0
59 872 891 0
892 885 1997 0
888 56 885 0
888 885 892 0
234 888 892 0
893 1999 2000 0
892 1997 1999 0
892 1999 893 0
234 892 893 0
894 893 2000 0
891 234 893 0
891 893 894 0
59 891 894 0
2001 894 2000 0
883 59 894 0
883 894 2001 0
1992 883 2001 0
896 651 2 0
895 172 651 0
895 651 896 0
235 895 896 0
898 1981 172 0
897 42 1981 0
897 1981 898 0
2002 897 898 0
2003 895 235 0
898 172 895 0
898 895 2003 0
2002 898 2003 0
899 2003 235 0
2004 2003 899 0
2005 2004 899 0
2006 1980 42 0
2007 897 2002 0
2006 42 897 0
2006 897 2007 0
2008 58 1993 0
2009 1989 58 0
2010 231 1989 0
2011 875 231 0
896 2 875 0
896 875 2011 0
235 896 2011 0
2011 231 2010 0
235 2011 2012 0
899 235 2012 0
899 2012 2013 0
2005 899 2013 0
2009 58 2008 0
901 843 1 0
900 223 843 0
900 843 901 0
237 900 901 0
903 848 223 0
902 57 848 0
902 848 903 0
236 902 903 0
904 900 237 0
903 223 900 0
903 900 904 0
236 903 904 0
906 904 237 0
905 236 904 0
905 904 906 0
61 905 906 0
908 862 57 0
907 228 862 0
907 862 908 0
238 907 908 0
910 1987 228 0
909 2014 1987 0
909 1987 910 0
2015 909 910 0
911 907 238 0
910 228 907 0
910 907 911 0
2015 910 911 0
913 911 238 0
912 2015 911 0
912 911 913 0
60 912 913 0
915 905 61 0
914 236 905 0
914 905 915 0
239 914 915 0
916 902 236 0
908 57 902 0
908 902 916 0
238 908 916 0
917 914 239 0
916 236 914 0
916 914 917 0
238 916 917 0
918 917 239 0
913 238 917 0
913 917 918 0
60 913 918 0
920 915 61 0
919 239 915 0
919 915 920 0
241 919 920 0
922 918 239 0
921 60 918 0
921 918 922 0
240 921 922 0
923 919 241 0
922 239 919 0
922 919 923 0
240 922 923 0
925 923 241 0
924 240 923 0
924 923 925 0
15 924 925 0
927 924 15 0
926 240 924 0
926 924 927 0
242 926 927 0
929 921 240 0
928 60 921 0
928 921 929 0
2016 928 929 0
2017 926 242 0
929 240 926 0
929 926 2017 0
2016 929 2017 0
2018 2017 242 0
930 912 60 0
2019 2015 912 0
2019 912 930 0
2020 2019 930 0
2021 909 2015 0
2022 2014 909 0
2022 909 2021 0
2023 928 2016 0
930 60 928 0
930 928 2023 0
2020 930 2023 0
932 927 15 0
931 242 927 0
931 927 932 0
243 931 932 0
2024 2018 242 0
933 931 243 0
2024 242 931 0
2024 931 933 0
2025 2024 933 0
934 933 243 0
2026 2025 933 0
2026 933 934 0
62 2026 934 0
2027 2026 62 0
2028 2027 62 0
935 16 2029 0
935 2029 2030 0
244 935 2030 0
244 2030 2031 0
936 244 2031 0
936 2031 2032 0
63 936 2032 0
63 2032 2033 0
2034 63 2033 0
245 2034 2035 0
245 2035 2036 0
938 2036 2037 0
937 245 2036 0
937 2036 938 0
18 937 938 0
941 939 16 0
940 246 939 0
940 939 941 0
248 940 941 0
944 942 246 0
943 64 942 0
943 942 944 0
247 943 944 0
945 940 248 0
944 246 940 0
944 940 945 0
247 944 945 0
947 945 248 0
946 247 945 0
946 945 947 0
66 946 947 0
950 948 64 0
949 249 948 0
949 948 950 0
251 949 950 0
953 951 249 0
952 4 951 0
952 951 953 0
250 952 953 0
954 949 251 0
953 249 949 0
953 949 954 0
250 953 954 0
956 954 251 0
955 250 954 0
955 954 956 0
65 955 956 0
958 946 66 0
957 247 946 0
957 946 958 0
252 957 958 0
959 943 247 0
950 64 943 0
950 943 959 0
251 950 959 0
960 957 252 0
959 247 957 0
959 957 960 0
251 959 960 0
961 960 252 0
956 251 960 0
956 960 961 0
65 956 961 0
963 958 66 0
962 252 958 0
962 958 963 0
254 962 963 0
965 961 252 0
964 65 961 0
964 961 965 0
253 964 965 0
966 962 254 0
965 252 962 0
965 962 966 0
253 965 966 0
968 966 254 0
967 253 966 0
967 966 968 0
17 967 968 0
970 937 18 0
969 245 937 0
969 937 970 0
256 969 970 0
972 2034 245 0
971 63 2034 0
971 2034 972 0
255 971 972 0
973 969 256 0
972 245 969 0
972 969 973 0
255 972 973 0
975 973 256 0
974 255 973 0
974 973 975 0
67 974 975 0
977 936 63 0
976 244 936 0
976 936 977 0
257 976 977 0
978 935 244 0
941 16 935 0
941 935 978 0
248 941 978 0
979 976 257 0
978 244 976 0
978 976 979 0
248 978 979 0
980 979 257 0
947 248 979 0
947 979 980 0
66 947 980 0
982 974 67 0
981 255 974 0
981 974 982 0
258 981 982 0
983 971 255 0
977 63 971 0
977 971 983 0
257 977 983 0
984 981 258 0
983 255 981 0
983 981 984 0
257 983 984 0
985 984 258 0
980 257 984 0
980 984 985 0
66 980 985 0
987 982 67 0
986 258 982 0
986 982 987 0
259 986 987 0
988 985 258 0
963 66 985 0
963 985 988 0
254 963 988 0
989 986 259 0
988 258 986 0
988 986 989 0
254 988 989 0
990 989 259 0
968 254 989 0
968 989 990 0
17 968 990 0
992 970 18 0
991 256 970 0
991 970 992 0
261 991 992 0
994 975 256 0
993 67 975 0
993 975 994 0
260 993 994 0
995 991 261 0
994 256 991 0
994 991 995 0
260 994 995 0
997 995 261 0
996 260 995 0
996 995 997 0
69 996 997 0
999 987 67 0
998 259 987 0
998 987 999 0
263 998 999 0
1001 990 259 0
1000 17 990 0
1000 990 1001 0
262 1000 1001 0
1002 998 263 0
1001 259 998 0
1001 998 1002 0
262 1001 1002 0
1004 1002 263 0
1003 262 1002 0
1003 1002 1004 0
68 1003 1004 0
1006 996 69 0
1005 260 996 0
1005 996 1006 0
264 1005 1006 0
1007 993 260 0
999 67 993 0
999 993 1007 0
263 999 1007 0
1008 1005 264 0
1007 260 1005 0
1007 1005 1008 0
263 1007 1008 0
1009 1008 264 0
1004 263 1008 0
1004 1008 1009 0
68 1004 1009 0
1011 1006 69 0
1010 264 1006 0
1010 1006 1011 0
266 1010 1011 0
1013 1009 264 0
1012 68 1009 0
1012 1009 1013 0
265 1012 1013 0
1014 1010 266 0
1013 264 1010 0
1013 1010 1014 0
265 1013 1014 0
1016 1014 266 0
1015 265 1014 0
1015 1014 1016 0
5 1015 1016 0
1019 1017 4 0
1018 267 1017 0
1018 1017 1019 0
269 1018 1019 0
1022 1020 267 0
1021 70 1020 0
1021 1020 1022 0
268 1021 1022 0
1023 1018 269 0
1022 267 1018 0
1022 1018 1023 0
268 1022 1023 0
1025 1023 269 0
1024 268 1023 0
1024 1023 1025 0
72 1024 1025 0
1028 1026 70 0
1027 270 1026 0
1027 1026 1028 0
272 1027 1028 0
1031 1029 270 0
1030 19 1029 0
1030 1029 1031 0
271 1030 1031 0
1032 1027 272 0
1031 270 1027 0
1031 1027 1032 0
271 1031 1032 0
1034 1032 272 0
1033 271 1032 0
1033 1032 1034 0
71 1033 1034 0
1036 1024 72 0
1035 268 1024 0
1035 1024 1036 0
273 1035 1036 0
1037 1021 268 0
1028 70 1021 0
1028 1021 1037 0
272 1028 1037 0
1038 1035 273 0
1037 268 1035 0
1037 1035 1038 0
272 1037 1038 0
1039 1038 273 0
1034 272 1038 0
1034 1038 1039 0
71 1034 1039 0
1041 1036 72 0
1040 273 1036 0
1040 1036 1041 0
275 1040 1041 0
1043 1039 273 0
1042 71 1039 0
1042 1039 1043 0
274 1042 1043 0
1044 1040 275 0
1043 273 1040 0
1043 1040 1044 0
274 1043 1044 0
1046 1044 275 0
1045 274 1044 0
1045 1044 1046 0
20 1045 1046 0
1049 1047 19 0
1048 276 1047 0
1048 1047 1049 0
278 1048 1049 0
1052 1050 276 0
1051 73 1050 0
1051 1050 1052 0
277 1051 1052 0
1053 1048 278 0
1052 276 1048 0
1052 1048 1053 0
277 1052 1053 0
1055 1053 278 0
1054 277 1053 0
1054 1053 1055 0
74 1054 1055 0
1058 1056 73 0
1057 279 1056 0
1057 1056 1058 0
280 1057 1058 0
1060 1059 279 0
535 0 1059 0
535 1059 1060 0
141 535 1060 0
1061 1057 280 0
1060 279 1057 0
1060 1057 1061 0
141 1060 1061 0
1062 1061 280 0
540 141 1061 0
540 1061 1062 0
36 540 1062 0
1064 1054 74 0
1063 277 1054 0
1063 1054 1064 0
281 1063 1064 0
1065 1051 277 0
1058 73 1051 0
1058 1051 1065 0
280 1058 1065 0
1066 1063 281 0
1065 277 1063 0
1065 1063 1066 0
280 1065 1066 0
1067 1066 281 0
1062 280 1066 0
1062 1066 1067 0
36 1062 1067 0
1069 1064 74 0
1068 281 1064 0
1068 1064 1069 0
282 1068 1069 0
1070 1067 281 0
554 36 1067 0
554 1067 1070 0
146 554 1070 0
1071 1068 282 0
1070 281 1068 0
1070 1068 1071 0
146 1070 1071 0
1072 1071 282 0
559 146 1071 0
559 1071 1072 0
10 559 1072 0
1074 1045 20 0
1073 274 1045 0
1073 1045 1074 0
284 1073 1074 0
1076 1042 274 0
1075 71 1042 0
1075 1042 1076 0
283 1075 1076 0
1077 1073 284 0
1076 274 1073 0
1076 1073 1077 0
283 1076 1077 0
1079 1077 284 0
1078 283 1077 0
1078 1077 1079 0
75 1078 1079 0
1081 1033 71 0
1080 271 1033 0
1080 1033 1081 0
285 1080 1081 0
1082 1030 271 0
1049 19 1030 0
1049 1030 1082 0
278 1049 1082 0
1083 1080 285 0
1082 271 1080 0
1082 1080 1083 0
278 1082 1083 0
1084 1083 285 0
1055 278 1083 0
1055 1083 1084 0
74 1055 1084 0
1086 1078 75 0
1085 283 1078 0
1085 1078 1086 0
286 1085 1086 0
1087 1075 283 0
1081 71 1075 0
1081 1075 1087 0
285 1081 1087 0
1088 1085 286 0
1087 283 1085 0
1087 1085 1088 0
285 1087 1088 0
1089 1088 286 0
1084 285 1088 0
1084 1088 1089 0
74 1084 1089 0
1091 1086 75 0
1090 286 1086 0
1090 1086 1091 0
287 1090 1091 0
1092 1089 286 0
1069 74 1089 0
1069 1089 1092 0
282 1069 1092 0
1093 1090 287 0
1092 286 1090 0
1092 1090 1093 0
282 1092 1093 0
1094 1093 287 0
1072 282 1093 0
1072 1093 1094 0
10 1072 1094 0
1096 1074 20 0
1095 284 1074 0
1095 1074 1096 0
289 1095 1096 0
1098 1079 284 0
1097 75 1079 0
1097 1079 1098 0
288 1097 1098 0
1099 1095 289 0
1098 284 1095 0
1098 1095 1099 0
288 1098 1099 0
1101 1099 289 0
1100 288 1099 0
1100 1099 1101 0
76 1100 1101 0
1103 1091 75 0
1102 287 1091 0
1102 1091 1103 0
290 1102 1103 0
1104 1094 287 0
604 10 1094 0
604 1094 1104 0
160 604 1104 0
1105 1102 290 0
1104 287 1102 0
1104 1102 1105 0
160 1104 1105 0
1106 1105 290 0
609 160 1105 0
609 1105 1106 0
41 609 1106 0
1108 1100 76 0
1107 288 1100 0
1107 1100 1108 0
291 1107 1108 0
1109 1097 288 0
1103 75 1097 0
1103 1097 1109 0
290 1103 1109 0
1110 1107 291 0
1109 288 1107 0
1109 1107 1110 0
290 1109 1110 0
1111 1110 291 0
1106 290 1110 0
1106 1110 1111 0
41 1106 1111 0
1113 1108 76 0
1112 291 1108 0
1112 1108 1113 0
292 1112 1113 0
1114 1111 291 0
623 41 1111 0
623 1111 1114 0
165 623 1114 0
1115 1112 292 0
1114 291 1112 0
1114 1112 1115 0
165 1114 1115 0
1116 1115 292 0
628 165 1115 0
628 1115 1116 0
3 628 1116 0
1118 1015 5 0
1117 265 1015 0
1117 1015 1118 0
294 1117 1118 0
1120 1012 265 0
1119 68 1012 0
1119 1012 1120 0
293 1119 1120 0
1121 1117 294 0
1120 265 1117 0
1120 1117 1121 0
293 1120 1121 0
1123 1121 294 0
1122 293 1121 0
1122 1121 1123 0
78 1122 1123 0
1125 1003 68 0
1124 262 1003 0
1124 1003 1125 0
296 1124 1125 0
1127 1000 262 0
1126 17 1000 0
1126 1000 1127 0
295 1126 1127 0
1128 1124 296 0
1127 262 1124 0
1127 1124 1128 0
295 1127 1128 0
1130 1128 296 0
1129 295 1128 0
1129 1128 1130 0
77 1129 1130 0
1132 1122 78 0
1131 293 1122 0
1131 1122 1132 0
297 1131 1132 0
1133 1119 293 0
1125 68 1119 0
1125 1119 1133 0
296 1125 1133 0
1134 1131 297 0
1133 293 1131 0
1133 1131 1134 0
296 1133 1134 0
1135 1134 297 0
1130 296 1134 0
1130 1134 1135 0
77 1130 1135 0
1137 1132 78 0
1136 297 1132 0
1136 1132 1137 0
299 1136 1137 0
1139 1135 297 0
1138 77 1135 0
1138 1135 1139 0
298 1138 1139 0
1140 1136 299 0
1139 297 1136 0
1139 1136 1140 0
298 1139 1140 0
1142 1140 299 0
1141 298 1140 0
1141 1140 1142 0
21 1141 1142 0
1144 967 17 0
1143 253 967 0
1143 967 1144 0
301 1143 1144 0
1146 964 253 0
1145 65 964 0
1145 964 1146 0
300 1145 1146 0
1147 1143 301 0
1146 253 1143 0
1146 1143 1147 0
300 1146 1147 0
1149 1147 301 0
1148 300 1147 0
1148 1147 1149 0
79 1148 1149 0
1151 955 65 0
1150 250 955 0
1150 955 1151 0
302 1150 1151 0
1152 952 250 0
1019 4 952 0
1019 952 1152 0
269 1019 1152 0
1153 1150 302 0
1152 250 1150 0
1152 1150 1153 0
269 1152 1153 0
1154 1153 302 0
1025 269 1153 0
1025 1153 1154 0
72 1025 1154 0
1156 1148 79 0
1155 300 1148 0
1155 1148 1156 0
303 1155 1156 0
1157 1145 300 0
1151 65 1145 0
1151 1145 1157 0
302 1151 1157 0
1158 1155 303 0
1157 300 1155 0
1157 1155 1158 0
302 1157 1158 0
1159 1158 303 0
1154 302 1158 0
1154 1158 1159 0
72 1154 1159 0
1161 1156 79 0
1160 303 1156 0
1160 1156 1161 0
304 1160 1161 0
1162 1159 303 0
1041 72 1159 0
1041 1159 1162 0
275 1041 1162 0
1163 1160 304 0
1162 303 1160 0
1162 1160 1163 0
275 1162 1163 0
1164 1163 304 0
1046 275 1163 0
1046 1163 1164 0
20 1046 1164 0
1166 1141 21 0
1165 298 1141 0
1165 1141 1166 0
306 1165 1166 0
1168 1138 298 0
1167 77 1138 0
1167 1138 1168 0
305 1167 1168 0
1169 1165 306 0
1168 298 1165 0
1168 1165 1169 0
305 1168 1169 0
1171 1169 306 0
1170 305 1169 0
1170 1169 1171 0
80 1170 1171 0
1173 1129 77 0
1172 295 1129 0
1172 1129 1173 0
307 1172 1173 0
1174 1126 295 0
1144 17 1126 0
1144 1126 1174 0
301 1144 1174 0
1175 1172 307 0
1174 295 1172 0
1174 1172 1175 0
301 1174 1175 0
1176 1175 307 0
1149 301 1175 0
1149 1175 1176 0
79 1149 1176 0
1178 1170 80 0
1177 305 1170 0
1177 1170 1178 0
308 1177 1178 0
1179 1167 305 0
1173 77 1167 0
1173 1167 1179 0
307 1173 1179 0
1180 1177 308 0
1179 305 1177 0
1179 1177 1180 0
307 1179 1180 0
1181 1180 308 0
1176 307 1180 0
1176 1180 1181 0
79 1176 1181 0
1183 1178 80 0
1182 308 1178 0
1182 1178 1183 0
309 1182 1183 0
1184 1181 308 0
1161 79 1181 0
1161 1181 1184 0
304 1161 1184 0
1185 1182 309 0
1184 308 1182 0
1184 1182 1185 0
304 1184 1185 0
1186 1185 309 0
1164 304 1185 0
1164 1185 1186 0
20 1164 1186 0
1188 1166 21 0
1187 306 1166 0
1187 1166 1188 0
311 1187 1188 0
1190 1171 306 0
1189 80 1171 0
1189 1171 1190 0
310 1189 1190 0
1191 1187 311 0
1190 306 1187 0
1190 1187 1191 0
310 1190 1191 0
1193 1191 311 0
1192 310 1191 0
1192 1191 1193 0
81 1192 1193 0
1195 1183 80 0
1194 309 1183 0
1194 1183 1195 0
312 1194 1195 0
1196 1186 309 0
1096 20 1186 0
1096 1186 1196 0
289 1096 1196 0
1197 1194 312 0
1196 309 1194 0
1196 1194 1197 0
289 1196 1197 0
1198 1197 312 0
1101 289 1197 0
1101 1197 1198 0
76 1101 1198 0
1200 1192 81 0
1199 310 1192 0
1199 1192 1200 0
313 1199 1200 0
1201 1189 310 0
1195 80 1189 0
1195 1189 1201 0
312 1195 1201 0
1202 1199 313 0
1201 310 1199 0
1201 1199 1202 0
312 1201 1202 0
1203 1202 313 0
1198 312 1202 0
1198 1202 1203 0
76 1198 1203 0
1205 1200 81 0
1204 313 1200 0
1204 1200 1205 0
314 1204 1205 0
1206 1203 313 0
1113 76 1203 0
1113 1203 1206 0
292 1113 1206 0
1207 1204 314 0
1206 313 1204 0
1206 1204 1207 0
292 1206 1207 0
1208 1207 314 0
1116 292 1207 0
1116 1207 1208 0
3 1116 1208 0
1210 1118 5 0
1209 294 1118 0
1209 1118 1210 0
316 1209 1210 0
1212 1123 294 0
1211 78 1123 0
1211 1123 1212 0
315 1211 1212 0
1213 1209 316 0
1212 294 1209 0
1212 1209 1213 0
315 1212 1213 0
1215 1213 316 0
1214 315 1213 0
1214 1213 1215 0
83 1214 1215 0
1217 1137 78 0
1216 299 1137 0
1216 1137 1217 0
318 1216 1217 0
1219 1142 299 0
1218 21 1142 0
1218 1142 1219 0
317 1218 1219 0
1220 1216 318 0
1219 299 1216 0
1219 1216 1220 0
317 1219 1220 0
1222 1220 318 0
1221 317 1220 0
1221 1220 1222 0
82 1221 1222 0
1224 1214 83 0
1223 315 1214 0
1223 1214 1224 0
319 1223 1224 0
1225 1211 315 0
1217 78 1211 0
1217 1211 1225 0
318 1217 1225 0
1226 1223 319 0
1225 315 1223 0
1225 1223 1226 0
318 1225 1226 0
1227 1226 319 0
1222 318 1226 0
1222 1226 1227 0
82 1222 1227 0
1229 1224 83 0
1228 319 1224 0
1228 1224 1229 0
321 1228 1229 0
1231 1227 319 0
1230 82 1227 0
1230 1227 1231 0
320 1230 1231 0
1232 1228 321 0
1231 319 1228 0
1231 1228 1232 0
320 1231 1232 0
1234 1232 321 0
1233 320 1232 0
1233 1232 1234 0
22 1233 1234 0
1236 1188 21 0
1235 311 1188 0
1235 1188 1236 0
323 1235 1236 0
1238 1193 311 0
1237 81 1193 0
1237 1193 1238 0
322 1237 1238 0
1239 1235 323 0
1238 311 1235 0
1238 1235 1239 0
322 1238 1239 0
1241 1239 323 0
1240 322 1239 0
1240 1239 1241 0
84 1240 1241 0
1243 1205 81 0
1242 314 1205 0
1242 1205 1243 0
324 1242 1243 0
1244 1208 314 0
743 3 1208 0
743 1208 1244 0
197 743 1244 0
1245 1242 324 0
1244 314 1242 0
1244 1242 1245 0
197 1244 1245 0
1246 1245 324 0
748 197 1245 0
748 1245 1246 0
50 748 1246 0
1248 1240 84 0
1247 322 1240 0
1247 1240 1248 0
325 1247 1248 0
1249 1237 322 0
1243 81 1237 0
1243 1237 1249 0
324 1243 1249 0
1250 1247 325 0
1249 322 1247 0
1249 1247 1250 0
324 1249 1250 0
1251 1250 325 0
1246 324 1250 0
1246 1250 1251 0
50 1246 1251 0
1253 1248 84 0
1252 325 1248 0
1252 1248 1253 0
326 1252 1253 0
1254 1251 325 0
762 50 1251 0
762 1251 1254 0
202 762 1254 0
1255 1252 326 0
1254 325 1252 0
1254 1252 1255 0
202 1254 1255 0
1256 1255 326 0
767 202 1255 0
767 1255 1256 0
14 767 1256 0
1258 1233 22 0
1257 320 1233 0
1257 1233 1258 0
328 1257 1258 0
1260 1230 320 0
1259 82 1230 0
1259 1230 1260 0
327 1259 1260 0
1261 1257 328 0
1260 320 1257 0
1260 1257 1261 0
327 1260 1261 0
1263 1261 328 0
1262 327 1261 0
1262 1261 1263 0
85 1262 1263 0
1265 1221 82 0
1264 317 1221 0
1264 1221 1265 0
329 1264 1265 0
1266 1218 317 0
1236 21 1218 0
1236 1218 1266 0
323 1236 1266 0
1267 1264 329 0
1266 317 1264 0
1266 1264 1267 0
323 1266 1267 0
1268 1267 329 0
1241 323 1267 0
1241 1267 1268 0
84 1241 1268 0
1270 1262 85 0
1269 327 1262 0
1269 1262 1270 0
330 1269 1270 0
1271 1259 327 0
1265 82 1259 0
1265 1259 1271 0
329 1265 1271 0
1272 1269 330 0
1271 327 1269 0
1271 1269 1272 0
329 1271 1272 0
1273 1272 330 0
1268 329 1272 0
1268 1272 1273 0
84 1268 1273 0
1275 1270 85 0
1274 330 1270 0
1274 1270 1275 0
331 1274 1275 0
1276 1273 330 0
1253 84 1273 0
1253 1273 1276 0
326 1253 1276 0
1277 1274 331 0
1276 330 1274 0
1276 1274 1277 0
326 1276 1277 0
1278 1277 331 0
1256 326 1277 0
1256 1277 1278 0
14 1256 1278 0
1280 1258 22 0
1279 328 1258 0
1279 1258 1280 0
333 1279 1280 0
1282 1263 328 0
1281 85 1263 0
1281 1263 1282 0
332 1281 1282 0
1283 1279 333 0
1282 328 1279 0
1282 1279 1283 0
332 1282 1283 0
1285 1283 333 0
1284 332 1283 0
1284 1283 1285 0
86 1284 1285 0
1287 1275 85 0
1286 331 1275 0
1286 1275 1287 0
334 1286 1287 0
1288 1278 331 0
817 14 1278 0
817 1278 1288 0
216 817 1288 0
1289 1286 334 0
1288 331 1286 0
1288 1286 1289 0
216 1288 1289 0
1290 1289 334 0
822 216 1289 0
822 1289 1290 0
55 822 1290 0
1292 1284 86 0
1291 332 1284 0
1291 1284 1292 0
335 1291 1292 0
1293 1281 332 0
1287 85 1281 0
1287 1281 1293 0
334 1287 1293 0
1294 1291 335 0
1293 332 1291 0
1293 1291 1294 0
334 1293 1294 0
1295 1294 335 0
1290 334 1294 0
1290 1294 1295 0
55 1290 1295 0
1297 1292 86 0
1296 335 1292 0
1296 1292 1297 0
336 1296 1297 0
1298 1295 335 0
836 55 1295 0
836 1295 1298 0
221 836 1298 0
1299 1296 336 0
1298 335 1296 0
1298 1296 1299 0
221 1298 1299 0
1300 1299 336 0
841 221 1299 0
841 1299 1300 0
1 841 1300 0
337 2038 2039 0
1301 2038 337 0
2040 2038 1301 0
2037 2040 1301 0
1302 1301 337 0
938 2037 1301 0
938 1301 1302 0
18 938 1302 0
338 2041 2042 0
1303 2041 338 0
2043 2041 1303 0
2044 2043 1303 0
1304 1303 338 0
2045 2044 1303 0
2045 1303 1304 0
87 2045 1304 0
1305 2045 87 0
2046 2045 1305 0
2047 2046 1305 0
1307 1305 87 0
1306 2047 1305 0
1306 1305 1307 0
339 1306 1307 0
337 2039 2048 0
1308 1306 339 0
2048 2047 1306 0
2048 1306 1308 0
337 2048 1308 0
1309 1308 339 0
1302 337 1308 0
1302 1308 1309 0
18 1302 1309 0
1310 338 2042 0
1310 2042 2049 0
341 1310 2049 0
1312 1304 338 0
1311 87 1304 0
1311 1304 1312 0
340 1311 1312 0
1313 1310 341 0
1312 338 1310 0
1312 1310 1313 0
340 1312 1313 0
1315 1313 341 0
1314 340 1313 0
1314 1313 1315 0
88 1314 1315 0
1317 1307 87 0
1316 339 1307 0
1316 1307 1317 0
342 1316 1317 0
1318 1309 339 0
992 18 1309 0
992 1309 1318 0
261 992 1318 0
1319 1316 342 0
1318 339 1316 0
1318 1316 1319 0
261 1318 1319 0
1320 1319 342 0
997 261 1319 0
997 1319 1320 0
69 997 1320 0
1322 1314 88 0
1321 340 1314 0
1321 1314 1322 0
343 1321 1322 0
1323 1311 340 0
1317 87 1311 0
1317 1311 1323 0
342 1317 1323 0
1324 1321 343 0
1323 340 1321 0
1323 1321 1324 0
342 1323 1324 0
1325 1324 343 0
1320 342 1324 0
1320 1324 1325 0
69 1320 1325 0
1327 1322 88 0
1326 343 1322 0
1326 1322 1327 0
344 1326 1327 0
1328 1325 343 0
1011 69 1325 0
1011 1325 1328 0
266 1011 1328 0
1329 1326 344 0
1328 343 1326 0
1328 1326 1329 0
266 1328 1329 0
1330 1329 344 0
1016 266 1329 0
1016 1329 1330 0
5 1016 1330 0
1332 2050 2051 0
1331 2052 2050 0
1331 2050 1332 0
89 1331 1332 0
1333 1331 89 0
2053 2052 1331 0
2053 1331 1333 0
2054 2053 1333 0
1334 2055 2054 0
2056 2055 1334 0
2057 2056 1334 0
1336 1333 89 0
1335 2054 1333 0
1335 1333 1336 0
346 1335 1336 0
1338 1334 2054 0
1337 2057 1334 0
1337 1334 1338 0
345 1337 1338 0
1339 1335 346 0
1338 2054 1335 0
1338 1335 1339 0
345 1338 1339 0
1341 1339 346 0
1340 345 1339 0
1340 1339 1341 0
23 1340 1341 0
1343 1340 23 0
1342 345 1340 0
1342 1340 1343 0
348 1342 1343 0
1345 1337 345 0
1344 2057 1337 0
1344 1337 1345 0
347 1344 1345 0
1346 1342 348 0
1345 345 1342 0
1345 1342 1346 0
347 1345 1346 0
1348 1346 348 0
1347 347 1346 0
1347 1346 1348 0
90 1347 1348 0
1350 1347 90 0
1349 347 1347 0
1349 1347 1350 0
2058 1349 1350 0
2059 1344 347 0
2060 2057 1344 0
2060 1344 2059 0
2061 1349 2058 0
2059 347 1349 0
2059 1349 2061 0
1351 1350 90 0
2062 2058 1350 0
2062 1350 1351 0
2063 2062 1351 0
1352 2064 2058 0
2065 2064 1352 0
2066 2065 1352 0
1353 2062 2063 0
1352 2058 2062 0
1352 2062 1353 0
2066 1352 1353 0
1354 1353 2063 0
2067 2066 1353 0
2067 1353 1354 0
2068 2067 1354 0
1356 1343 23 0
1355 348 1343 0
1355 1343 1356 0
350 1355 1356 0
1358 1348 348 0
1357 90 1348 0
1357 1348 1358 0
349 1357 1358 0
1359 1355 350 0
1358 348 1355 0
1358 1355 1359 0
349 1358 1359 0
1361 1359 350 0
1360 349 1359 0
1360 1359 1361 0
91 1360 1361 0
1363 1351 90 0
1362 2063 1351 0
1362 1351 1363 0
351 1362 1363 0
1364 1354 2063 0
2049 2068 1354 0
2049 1354 1364 0
341 2049 1364 0
1365 1362 351 0
1364 2063 1362 0
1364 1362 1365 0
341 1364 1365 0
1366 1365 351 0
1315 341 1365 0
1315 1365 1366 0
88 1315 1366 0
1368 1360 91 0
1367 349 1360 0
1367 1360 1368 0
352 1367 1368 0
1369 1357 349 0
1363 90 1357 0
1363 1357 1369 0
351 1363 1369 0
1370 1367 352 0
1369 349 1367 0
1369 1367 1370 0
351 1369 1370 0
1371 1370 352 0
1366 351 1370 0
1366 1370 1371 0
88 1366 1371 0
1373 1368 91 0
1372 352 1368 0
1372 1368 1373 0
353 1372 1373 0
1374 1371 352 0
1327 88 1371 0
1327 1371 1374 0
344 1327 1374 0
1375 1372 353 0
1374 352 1372 0
1374 1372 1375 0
344 1374 1375 0
1376 1375 353 0
1330 344 1375 0
1330 1375 1376 0
5 1330 1376 0
1378 1332 2051 0
1377 89 1332 0
1377 1332 1378 0
354 1377 1378 0
1379 2069 2070 0
1378 2051 2069 0
1378 2069 1379 0
354 1378 1379 0
1381 1379 2070 0
1380 354 1379 0
1380 1379 1381 0
93 1380 1381 0
1383 1336 89 0
1382 346 1336 0
1382 1336 1383 0
356 1382 1383 0
1385 1341 346 0
1384 23 1341 0
1384 1341 1385 0
355 1384 1385 0
1386 1382 356 0
1385 346 1382 0
1385 1382 1386 0
355 1385 1386 0
1388 1386 356 0
1387 355 1386 0
1387 1386 1388 0
92 1387 1388 0
1390 1380 93 0
1389 354 1380 0
1389 1380 1390 0
357 1389 1390 0
1391 1377 354 0
1383 89 1377 0
1383 1377 1391 0
356 1383 1391 0
1392 1389 357 0
1391 354 1389 0
1391 1389 1392 0
356 1391 1392 0
1393 1392 357 0
1388 356 1392 0
1388 1392 1393 0
92 1388 1393 0
1395 1390 93 0
1394 357 1390 0
1394 1390 1395 0
359 1394 1395 0
1397 1393 357 0
1396 92 1393 0
1396 1393 1397 0
358 1396 1397 0
1398 1394 359 0
1397 357 1394 0
1397 1394 1398 0
358 1397 1398 0
1400 1398 359 0
1399 358 1398 0
1399 1398 1400 0
24 1399 1400 0
1402 1356 23 0
1401 350 1356 0
1401 1356 1402 0
361 1401 1402 0
1404 1361 350 0
1403 91 1361 0
1403 1361 1404 0
360 1403 1404 0
1405 1401 361 0
1404 350 1401 0
1404 1401 1405 0
360 1404 1405 0
1407 1405 361 0
1406 360 1405 0
1406 1405 1407 0
94 1406 1407 0
1409 1373 91 0
1408 353 1373 0
1408 1373 1409 0
362 1408 1409 0
1410 1376 353 0
1210 5 1376 0
1210 1376 1410 0
316 1210 1410 0
1411 1408 362 0
1410 353 1408 0
1410 1408 1411 0
316 1410 1411 0
1412 1411 362 0
1215 316 1411 0
1215 1411 1412 0
83 1215 1412 0
1414 1406 94 0
1413 360 1406 0
1413 1406 1414 0
363 1413 1414 0
1415 1403 360 0
1409 91 1403 0
1409 1403 1415 0
362 1409 1415 0
1416 1413 363 0
1415 360 1413 0
1415 1413 1416 0
362 1415 1416 0
1417 1416 363 0
1412 362 1416 0
1412 1416 1417 0
83 1412 1417 0
1419 1414 94 0
1418 363 1414 0
1418 1414 1419 0
364 1418 1419 0
