#!ascii - generated by CreateLabelFiles project 
1350 2463
-1.71999 52.9946 -9.13235 0
-1.66137 52.6012 -9.7822 0
-1.54678 53.6633 -7.70549 0
-1.75772 53.2938 -8.49969 0
-1.71817 53.5079 -8.41956 0
-2.51569 54.2197 -7.41499 0
-1.98928 53.8713 -8.09789 0
-3.30069 55.1531 -5.13392 0
-2.53015 54.1953 -6.51814 0
-3.41556 57.1812 -3.17052 0
-3.57008 56.2801 -3.995 0
-3.6427 57.1268 -3.91993 0
-3.85967 59.3678 -3.32947 0
-3.64321 58.2735 -3.87833 0
-3.16076 55.3054 -6.12721 0
-3.27862 56.1924 -5.84572 0
-2.62411 54.7288 -6.39641 0
-3.50216 56.8964 -4.85631 0
-3.43362 59.4356 -3.85079 0
-3.20869 58.9909 -4.61029 0
-3.58026 57.4342 -5.46175 0
-3.20785 61.1374 -3.20634 0
-3.15405 60.2965 -3.91883 0
-3.00814 61.0763 -4.0776 0
-2.6325 62.4377 -3.64471 0
-2.74499 61.6875 -4.08569 0
-3.61762 59.0326 -1.70968 0
-3.53335 58.0735 -2.39581 0
-4.05985 61.6324 -0.488206 0
-3.69822 60.2689 -1.09163 0
-3.9355 61.3311 -1.16713 0
-5.13255 63.4547 -0.645404 0
-4.1586 62.3213 -1.2118 0
-2.78017 63.2972 -2.86125 0
-2.49187 64.0748 -3.08683 0
-3.52606 61.8165 -2.70533 0
-3.11874 62.6071 -2.59565 0
-3.39141 64.1756 -2.34811 0
-4.20585 65.4342 -1.87152 0
-3.96617 66.0423 -2.05516 0
-3.88951 60.1206 -2.60608 0
-3.97606 61.044 -2.76925 0
-3.68928 59.1184 -2.49086 0
-4.03683 61.0058 -1.87359 0
-4.24018 63.1609 -1.37877 0
-4.21332 64.667 -1.66782 0
-4.69779 66.0463 -1.29462 0
-3.66732 62.6571 -1.88191 0
-4.24086 63.8999 -1.54493 0
-4.95649 64.7681 -0.842826 0
-4.8403 66.8922 -0.856974 0
-3.26321 65.8849 -2.98378 0
-2.54773 64.819 -3.52861 0
-4.27544 67.1866 -1.71645 0
-3.79881 66.6758 -2.31145 0
-3.52956 67.1534 -2.50039 0
-3.54708 68.0194 -1.89737 0
-3.20093 67.6094 -2.61496 0
-4.56198 67.5096 -0.093701 0
-4.5696 67.3707 -1.04949 0
-4.42922 67.757 0.976507 0
-4.15668 68.1529 1.03139 0
-3.72956 68.6014 1.17766 0
-3.78685 68.2265 -1.00938 0
-3.2997 68.6138 -0.955123 0
-4.21539 67.8253 -1.0712 0
-3.83053 68.4186 0.0144199 0
-3.4735 68.9285 1.13661 0
-3.02905 69.1506 0.132847 0
-2.71231 69.045 -0.678403 0
-3.35179 69.1834 0.954314 0
-3.00253 69.5036 0.949544 0
-2.95065 69.6825 0.66328 0
-1.35496 51.5383 -11.1484 0
-1.04241 50.7544 -11.8184 0
-0.362482 50.1915 -12.6546 0
-0.335428 50.5583 -12.8346 0
0.329521 49.5709 -13.9083 0
0.835313 49.6206 -15.2269 0
-1.71404 52.9938 -9.72246 0
-1.67276 52.3421 -10.4508 0
-2.22942 54.3878 -7.60948 0
-1.90714 53.5893 -8.78044 0
-1.59737 53.38 -9.28209 0
-1.34255 53.7913 -8.76648 0
-1.21714 53.0697 -9.7944 0
-3.58239 58.7814 -5.24951 0
-3.59161 56.0385 -6.52334 0
-2.508 62.321 -4.05853 0
-2.96943 60.7787 -4.57374 0
-3.53545 59.9385 -5.17693 0
-3.52665 60.8743 -5.2105 0
-3.683 58.775 -5.96062 0
-2.23612 54.434 -8.16698 0
-1.66302 54.1311 -8.61422 0
-2.89049 54.9467 -7.42258 0
-3.40653 55.907 -7.16287 0
-3.71756 57.325 -6.8974 0
-2.01716 54.5168 -8.41411 0
-1.64756 53.6979 -9.52142 0
-3.80016 59.0309 -6.50553 0
-3.09843 56.0675 -7.73269 0
-2.16483 55.2025 -8.29748 0
-2.37004 56.2666 -7.94387 0
-1.68832 54.641 -9.11157 0
-2.50653 65.5159 -3.85332 0
-2.44431 63.8501 -4.06395 0
-2.83073 68.1275 -2.68064 0
-2.86527 67.1033 -3.37339 0
-2.38068 66.3164 -4.00949 0
-2.17655 67.1447 -4.11779 0
-2.18666 65.2842 -4.62988 0
-2.209 69.4418 -0.652332 0
-2.45928 68.782 -1.79408 0
-2.41381 69.8755 0.101508 0
-2.12741 69.7953 -0.845973 0
-1.49591 69.374 -1.532 0
-2.05659 68.5609 -3.38722 0
-1.73054 67.9158 -4.13887 0
-2.26193 68.637 -2.58421 0
-1.74604 69.2704 -2.49691 0
-1.28789 69.525 -2.29582 0
-1.25545 68.6424 -4.12582 0
-1.43379 66.8821 -4.87621 0
-0.969741 69.6508 -3.03049 0
-0.593957 69.0449 -3.79104 0
-0.257599 68.1595 -4.62205 0
-3.64711 59.2303 -6.88589 0
-2.5604 57.9143 -7.31634 0
-3.53332 60.965 -5.97267 0
-3.87417 60.3242 -6.50518 0
-3.85707 61.3098 -6.63296 0
-3.31488 62.5754 -6.49405 0
-3.2693 62.1057 -6.77505 0
-2.93113 62.0897 -5.11982 0
-3.29659 61.4925 -5.41431 0
-2.40957 62.876 -4.57178 0
-2.28164 63.4377 -4.98471 0
-1.9933 64.1982 -5.2129 0
-2.91647 62.9245 -5.97293 0
-2.54716 63.8043 -6.26921 0
-3.16511 62.1156 -5.61779 0
-2.496 63.4255 -5.53705 0
-1.67973 65.0081 -5.4308 0
-1.68655 65.1919 -5.99145 0
-1.80222 64.546 -6.31293 0
-1.24759 65.908 -5.56463 0
-0.774581 66.8265 -5.71577 0
-0.0382845 67.5697 -5.66005 0
-2.78466 59.4628 -7.10524 0
-1.71502 56.6704 -8.1646 0
-2.84263 62.9244 -6.89189 0
-3.04137 61.4778 -6.97578 0
-2.73676 60.6148 -7.12226 0
-2.64873 61.464 -7.3112 0
-2.25989 59.2933 -7.37847 0
-0.950245 65.3048 -6.41215 0
-2.14617 64.164 -6.76367 0
0.0198845 66.651 -6.06679 0
-0.218924 66.1082 -6.72748 0
-0.781871 65.801 -7.30649 0
-2.49509 63.059 -7.28876 0
-2.64947 62.1788 -7.59208 0
-2.33803 63.6732 -7.11357 0
-1.85268 64.4765 -7.37616 0
-1.38459 65.3571 -7.6196 0
-2.59746 62.9571 -7.81902 0
-2.49556 61.0427 -8.02582 0
-2.03864 64.6979 -7.76626 0
-2.42709 63.8029 -7.95329 0
-2.37952 62.7514 -8.22469 0
1.26316 50.4866 -18.422 0
1.82454 50.8889 -19.652 0
1.26417 51.1309 -18.2206 0
1.93459 51.2204 -19.4515 0
1.97893 51.5767 -19.2324 0
1.01607 51.9229 -17.736 0
1.67973 51.9824 -18.9722 0
1.20717 49.8353 -16.1763 0
0.455849 50.3441 -13.9678 0
0.86174 50.0307 -15.1067 0
0.775717 50.4908 -15.0286 0
0.267547 51.3775 -13.5617 0
0.617814 50.9834 -14.7547 0
-0.792572 51.4048 -11.8206 0
-0.202979 50.8912 -12.8095 0
-1.28111 51.9378 -11.1026 0
-1.09997 52.2664 -10.8823 0
-1.0526 52.6523 -10.5503 0
-0.245096 51.7514 -12.5043 0
-0.389142 52.2922 -12.1873 0
-0.104076 51.2182 -12.7438 0
-0.850863 52.1889 -11.4683 0
-1.26196 53.0132 -10.4047 0
-0.931589 53.0681 -10.8713 0
-0.563843 52.7908 -11.8051 0
-1.29921 53.3533 -10.1173 0
-1.28503 53.7401 -9.80537 0
-1.16176 54.2194 -9.59188 0
0.851808 52.0735 -16.2839 0
0.611344 52.5481 -15.9996 0
0.806012 51.3022 -16.8959 0
0.96113 51.6235 -16.5792 0
0.88889 52.4516 -14.7501 0
0.412881 52.9362 -13.4182 0
0.606672 53.4036 -13.0977 0
0.974869 50.5292 -17.2022 0
0.75705 50.9122 -17.1875 0
1.16892 50.1495 -17.282 0
0.873546 50.6565 -15.958 0
0.443703 51.4354 -14.455 0
0.262162 52.4741 -13.7716 0
-0.112904 53.4225 -12.2435 0
0.630917 51.5889 -15.4684 0
0.297191 51.9607 -14.0853 0
-0.18099 52.4292 -12.8408 0
-0.531869 53.7695 -11.2656 0
-0.444906 54.3073 -11.0619 0
-0.687144 53.2937 -11.5184 0
-0.897368 54.0177 -10.4442 0
-1.09501 54.8118 -9.3408 0
0.879069 53.4115 -14.0727 0
0.552972 53.0747 -15.6311 0
0.303599 54.3859 -11.7865 0
0.684613 53.8945 -12.82 0
0.695098 54.4506 -12.6072 0
0.295534 55.6903 -11.5657 0
0.688606 55.1296 -12.4805 0
-0.856203 55.2806 -10.1619 0
-0.234815 54.8329 -10.9021 0
-1.26981 55.7421 -9.17812 0
-1.46405 56.7864 -8.84073 0
-1.71326 58.0266 -8.43868 0
-0.253222 56.2654 -10.6407 0
-0.556088 57.2206 -10.4981 0
-0.124376 55.4499 -10.7228 0
-1.01678 56.9598 -9.63008 0
-2.01597 59.1062 -8.57961 0
-1.76006 58.9644 -9.27891 0
-0.875363 58.0925 -10.1127 0
-2.20144 59.9801 -8.57234 0
-2.2529 60.9032 -8.5991 0
-2.26461 61.6079 -8.64968 0
1.38005 52.3755 -18.6544 0
2.21281 52.2182 -20.2261 0
2.64843 52.5002 -21.492 0
2.45902 52.8221 -21.1829 0
0.466091 53.6578 -15.2806 0
0.584294 52.8908 -17.0696 0
0.649959 55.846 -12.2339 0
0.906985 54.621 -13.5499 0
0.572103 54.2752 -14.9502 0
0.600275 54.9399 -14.6197 0
0.590439 53.9832 -16.2656 0
-1.01022 58.8385 -9.99324 0
0.0901327 57.2622 -10.913 0
-1.81519 60.4455 -9.21633 0
-1.2089 59.5539 -9.93741 0
-0.461666 58.8752 -10.7492 0
0.690632 56.0909 -13.1473 0
0.629817 55.6778 -14.3418 0
0.429147 56.6468 -12.0093 0
0.182501 57.4944 -11.8607 0
0.0292678 58.2648 -11.6173 0
0.74986 56.4116 -13.9102 0
0.852127 55.251 -15.4491 0
0.474605 57.6305 -12.4306 0
0.569113 57.0862 -13.4644 0
0.418533 56.4764 -14.6023 0
2.67178 53.716 -21.8815 0
3.1993 54.5319 -23.0038 0
3.09789 54.8133 -22.7888 0
2.45063 54.3283 -21.2502 0
2.95707 54.9296 -22.6849 0
1.89652 52.9452 -19.5446 0
2.28641 53.175 -20.7897 0
1.28147 52.8302 -18.2821 0
1.22002 53.2716 -17.8683 0
1.17344 53.7969 -17.4736 0
1.98039 53.8997 -19.9878 0
1.89473 54.272 -19.5483 0
2.08459 53.5099 -20.3482 0
1.60037 53.7548 -18.7243 0
1.09316 54.3343 -17.0745 0
1.24461 54.6569 -17.8984 0
1.76674 54.7068 -19.1482 0
1.13142 54.9339 -16.6639 0
0.869427 55.4956 -16.2393 0
0.608009 56.0599 -15.7841 0
2.83411 54.992 -22.6 0
3.69702 56.2255 -23.9858 0
3.85324 57.374 -24.9622 0
3.24011 57.0766 -24.8633 0
1.76569 55.1457 -18.696 0
2.33084 54.8673 -20.5851 0
1.22547 55.7002 -16.9266 0
1.77868 55.5922 -18.1977 0
1.96163 55.407 -19.6915 0
2.75907 55.8929 -23.6637 0
2.82539 56.8327 -24.7442 0
2.67001 55.1504 -22.347 0
2.42238 55.2744 -22.0382 0
2.15801 55.4944 -21.5948 0
2.73895 56.8062 -24.4261 0
2.81629 58.0598 -25.3889 0
2.31579 55.9818 -22.9405 0
2.53408 56.8348 -23.9324 0
2.54956 57.7372 -24.5402 0
2.49803 58.7609 -25.0136 0
2.22775 58.4806 -24.5511 0
1.47675 56.7603 -21.5119 0
1.92967 57.309 -23.1995 0
0.209479 57.2749 -17.5762 0
0.955938 56.7984 -19.6045 0
1.10235 56.8917 -20.75 0
0.626251 57.1465 -19.8833 0
1.14144 57.3301 -21.7714 0
-1.2386 60.2413 -13.4172 0
-0.717851 58.4184 -15.3955 0
-2.57258 64.1955 -10.8127 0
-1.9561 62.1626 -11.8422 0
-1.64873 61.1853 -12.7361 0
-1.96578 62.2283 -12.2793 0
-1.63701 60.2301 -13.7938 0
-0.121261 57.5364 -17.8705 0
0.041893 57.4021 -19.016 0
-0.404165 57.8822 -16.6697 0
-0.966414 58.6737 -15.7896 0
-1.52684 59.3506 -14.9121 0
-0.536378 57.8081 -18.1503 0
0.136049 57.4462 -20.176 0
-1.89905 60.1307 -14.1469 0
-1.32036 58.604 -16.136 0
-1.09101 58.2625 -17.2415 0
-1.59484 58.7549 -16.547 0
-0.871641 58.0641 -18.3462 0
-3.89506 67.4354 -9.57907 0
-3.10648 65.9335 -10.1576 0
-4.07956 67.139 -10.2331 0
-2.14368 60.0431 -14.7632 0
-2.09149 59.1569 -15.8968 0
-2.25018 62.0733 -12.7955 0
-2.2242 60.908 -13.6029 0
-2.46154 61.7901 -13.3474 0
-2.66122 63.8466 -12.5888 0
-2.69919 62.6304 -13.2195 0
-2.66723 64.085 -11.3317 0
-2.33362 63.1615 -12.0477 0
-2.87784 65.0436 -10.7163 0
-3.2141 65.7625 -10.6816 0
-3.71637 66.2607 -10.7596 0
-3.02078 64.6478 -11.9606 0
-3.31486 65.2927 -12.0244 0
-2.60703 64.0605 -11.947 0
-3.36524 65.425 -11.3235 0
-4.23023 66.7033 -10.8492 0
-4.26758 66.3278 -11.5329 0
-3.73386 65.7778 -12.1456 0
-2.49861 59.8216 -15.2717 0
-1.98144 58.5693 -16.8995 0
-2.91461 63.5577 -13.1425 0
-2.73114 61.5905 -13.9275 0
-2.83499 60.5799 -14.7706 0
-3.07223 61.3639 -14.5144 0
-2.77532 59.7192 -15.7319 0
-3.19605 65.2569 -12.7492 0
-4.1465 66.1343 -13.0402 0
-3.18949 63.2859 -13.705 0
-3.31117 62.1012 -14.3579 0
-3.22864 64.2797 -13.2028 0
-3.56345 64.8993 -13.3387 0
-3.93128 65.4235 -13.4747 0
-3.54435 62.8563 -14.3868 0
-3.39255 60.936 -15.1154 0
-3.85454 64.5727 -13.9144 0
-3.77589 63.5549 -14.4617 0
-4.06528 64.1642 -14.6551 0
-3.90654 62.2595 -15.0632 0
-4.36999 64.7137 -14.8408 0
-4.75963 65.0919 -15.0299 0
-4.62666 63.376 -15.0721 0
1.81065 59.1761 -24.8204 0
1.93263 58.2482 -23.9915 0
1.53997 57.9448 -23.4025 0
1.13501 57.8173 -22.817 0
0.926344 59.648 -24.6353 0
0.560007 59.2489 -24.1814 0
1.23632 59.8985 -25.0532 0
1.04983 58.6796 -23.7547 0
0.695969 57.7403 -22.1195 0
0.253617 58.3509 -22.4293 0
0.208078 58.9474 -23.6243 0
0.223494 57.7647 -21.2932 0
-0.246042 57.9095 -20.3928 0
-0.788329 58.1051 -19.4286 0
-1.12283 59.4589 -24.0591 0
-1.6061 59.18 -23.119 0
-0.711347 59.6565 -24.8653 0
-0.872814 59.1324 -23.1278 0
-0.324626 60.0568 -25.2746 0
0.0379826 59.6995 -24.5545 0
-0.78065 58.676 -21.8786 0
-1.41371 58.4198 -20.7791 0
-0.204853 58.7711 -22.8812 0
-0.75037 58.281 -20.6031 0
-1.35164 58.0453 -18.6272 0
-2.01145 58.4805 -20.9882 0
-2.14898 58.7667 -22.1062 0
-2.51829 58.0005 -21.3818 0
-2.6124 57.5533 -19.7646 0
-2.80494 57.4255 -20.8143 0
-1.8981 58.0893 -18.8559 0
-1.93825 58.1833 -19.8666 0
-1.88637 58.0129 -17.9161 0
-2.25488 58.4021 -17.3054 0
-2.62285 58.9251 -16.7748 0
-2.48654 57.8438 -18.751 0
-2.77269 58.1541 -18.3181 0
-2.20497 57.8962 -19.2742 0
-2.53698 58.3218 -17.7575 0
-2.94884 59.5759 -16.3768 0
-3.19619 59.3428 -16.9103 0
-3.08523 58.4684 -17.9225 0
-3.28192 60.2008 -16.0168 0
-3.59208 60.7801 -15.8881 0
-3.98628 61.2761 -15.6788 0
-3.07238 57.757 -18.9282 0
-3.9419 59.6008 -17.2871 0
-3.50761 59.0134 -17.6048 0
-4.03356 60.3195 -16.3629 0
-4.39761 61.7393 -15.5426 0
-4.7587 62.2055 -15.4582 0
-3.10906 43.8123 5.89116 0
-2.99867 43.0165 5.27199 0
-2.73727 44.3046 5.91595 0
-2.39852 44.7268 5.89054 0
-2.11792 45.1259 5.81699 0
-1.88345 45.5414 5.70556 0
-1.39845 45.914 5.6764 0
-0.892295 46.3232 5.63878 0
-0.28062 46.6787 5.64316 0
0.284923 47.2034 5.69118 0
0.981715 48.0003 5.75187 0
1.01459 48.3105 6.38274 0
1.43961 48.7511 5.55372 0
1.08585 48.6119 6.17832 0
1.1798 48.8975 5.16567 0
0.833241 49.0073 4.72927 0
0.648796 49.2082 4.25723 0
0.494605 49.4935 3.8587 0
0.504564 50.159 3.77758 0
1.33544 50.6863 3.49688 0
-2.37512 42.7147 4.63601 0
-2.33704 43.2217 4.42456 0
-2.2231 43.8638 4.38279 0
-1.96467 44.2823 3.31918 0
-1.6045 44.6465 3.20798 0
-1.31352 44.1702 2.16313 0
-1.83881 43.5878 3.53053 0
-0.767442 46.0113 1.05996 0
-0.118589 45.5317 0.0209616 0
-0.104182 45.7678 -0.292307 0
1.16142 45.8537 -0.535834 0
2.74625 46.1508 -0.428288 0
1.78299 51.3831 3.27679 0
1.15158 51.5034 2.81203 0
0.371218 51.5672 2.38635 0
-0.736028 51.5607 2.16458 0
-1.49939 51.7944 2.10807 0
-2.1391 52.2053 2.08717 0
3.01276 46.1344 -1.06038 0
2.77975 45.9945 -1.42441 0
2.24047 45.3499 -1.58235 0
1.7805 45.5052 -1.67498 0
1.61204 45.7739 -1.71605 0
1.35759 45.4801 -2.01118 0
1.54248 45.9283 -2.26118 0
1.85043 46.186 -2.88732 0
-1.18857 44.7671 2.14855 0
-1.12587 44.717 1.15711 0
-1.08301 45.626 1.22722 0
-5.42745 70.5956 0.756085 0
-5.30613 70.1962 1.15462 0
-5.42562 71.2779 0.577792 0
-4.52018 71.0735 0.488207 0
-3.95403 70.7683 0.0791478 0
-3.35825 70.9468 -0.318853 0
-2.63194 71.1851 -0.545152 0
-2.49456 71.9052 -1.25543 0
-2.93215 71.5781 -0.749708 0
-2.79923 72.2997 -1.37353 0
-2.27859 72.6014 -1.7757 0
-1.90278 72.4109 -2.29972 0
-1.50572 72.0988 -2.8428 0
-1.54381 71.5378 -3.33153 0
-2.05732 72.1288 -2.87716 0
-0.986776 71.0473 -3.84494 0
-0.39805 70.6477 -4.60368 0
-1.39037 70.4983 -4.15783 0
-1.18677 70.1576 -4.68348 0
-1.19999 69.7491 -5.16682 0
-1.32715 69.1316 -5.47434 0
-1.76177 68.0742 -6.20486 0
-2.37904 68.2939 -5.2607 0
-2.23879 68.7998 -4.88979 0
-2.7488 67.6954 -6.1659 0
-2.53977 67.9101 -5.67382 0
-2.90797 67.4488 -6.63898 0
-3.93059 67.6313 -6.47275 0
-4.41551 68.3698 -7.67391 0
-3.64988 67.5422 -7.89749 0
-4.15179 68.1345 -8.10653 0
-3.98533 67.7173 -8.50363 0
-5.74641 69.0966 -8.66965 0
-4.92524 68.4201 -8.48108 0
-2.76926 67.351 -7.75339 0
-3.88895 67.5287 -6.99049 0
-3.72158 67.716 -7.41032 0
2.046 46.54 -3.23773 0
-1.31366 52.1159 1.87106 0
1.51524 46.9957 -3.50949 0
0.635116 46.7742 -3.75901 0
0.670103 47.179 -4.05344 0
1.00101 47.7616 -4.49133 0
1.22538 48.4414 -4.80054 0
0.963624 49.1343 -4.91131 0
0.317026 49.7418 -4.60099 0
0.365918 49.381 -5.10703 0
-0.0232624 49.9009 -4.72331 0
-0.0464326 50.4731 -4.4526 0
-4.61776 68.2144 3.01423 0
-4.4357 67.9409 2.21121 0
-4.68368 68.6594 3.44393 0
-4.98196 68.8951 3.00544 0
-5.68641 69.4191 3.06093 0
-5.91604 69.5723 2.65623 0
-5.2366 69.305 2.39945 0
-6.45952 69.5161 1.73901 0
-6.20955 69.5033 2.18189 0
-6.31332 69.9043 1.50599 0
-5.16059 69.8866 1.59062 0
-2.23662 50.2823 -9.65581 0
-2.12463 49.7887 -10.4393 0
-2.02711 50.1754 -10.614 0
-1.54402 50.1695 -11.5585 0
-0.893361 49.6243 -12.4218 0
-1.78293 49.8344 -11.4498 0
-0.453894 49.4325 -5.0982 0
-0.731088 51.1106 -4.93907 0
-0.539836 51.4905 -5.39729 0
-0.612801 50.5156 -4.89049 0
-0.589078 50.1294 -4.85836 0
-1.44685 52.4012 1.80914 0
-1.57662 52.5626 1.4857 0
-1.6815 52.8422 1.20521 0
-1.81219 53.1 0.766288 0
-1.20433 53.587 -0.21919 0
-1.88595 53.4239 0.475184 0
-2.01348 53.7058 0.236925 0
-1.94279 54.89 -0.33718 0
-1.59165 54.2032 -0.352422 0
-2.28219 55.6058 -0.0988387 0
-2.83256 56.43 0.189972 0
-2.56196 56.3515 -0.563873 0
-3.46543 58.6324 1.04438 0
-3.06904 57.5551 0.594686 0
-3.31134 58.4246 0.314508 0
-3.58653 59.9523 1.44931 0
-2.186 49.8908 -9.41874 0
-1.93116 50.0988 -8.33515 0
-2.05202 50.4248 -8.59865 0
-1.49416 50.4299 -6.73046 0
-1.5934 50.5135 -6.90209 0
-1.20621 51.6183 -6.4472 0
-1.03573 51.5254 -6.14241 0
-1.11351 51.3333 -5.97631 0
-0.477528 51.9619 -5.62674 0
-1.70486 50.7054 -7.47515 0
-1.67342 50.5935 -7.14591 0
-3.56613 60.992 0.715365 0
-4.58433 62.7854 1.12081 0
-3.32706 59.7186 0.717251 0
-4.67735 62.8709 0.213703 0
-5.20372 63.6355 0.868379 0
-5.70705 64.8452 -0.0459968 0
-5.86489 64.317 0.0124197 0
-5.56989 63.6737 0.106067 0
-5.56093 65.3724 -0.145063 0
-5.11512 66.3993 -0.615577 0
-5.25853 65.838 -0.333659 0
-5.18858 66.658 0.277574 0
-4.83405 67.3964 1.08073 0
-0.592277 49.908 -12.5636 0
0.387275 49.172 -13.5791 0
1.01604 48.7914 -14.7312 0
0.932167 49.2014 -15.0272 0
1.2972 49.0133 -15.9716 0
1.26626 49.4127 -16.1744 0
1.47279 50.1161 -18.3569 0
2.1609 50.2403 -19.4307 0
1.9944 50.581 -19.5344 0
2.77204 50.8565 -20.6263 0
2.59922 51.1944 -20.7504 0
2.62663 51.5671 -20.5889 0
3.10754 51.9583 -21.8214 0
1.69658 49.3453 -17.0953 0
1.53355 49.7525 -17.1583 0
1.74239 49.7258 -18.1704 0
2.86332 52.1785 -21.7546 0
3.45824 52.8603 -22.809 0
3.11463 53.1318 -22.5239 0
3.57282 53.9538 -23.409 0
3.34657 54.2309 -23.1455 0
4.04952 56.0008 -24.012 0
4.22441 57.3812 -24.6403 0
4.14364 55.648 -23.8968 0
4.09035 57.483 -24.7815 0
3.83659 58.5634 -25.0981 0
3.53544 58.3902 -25.3546 0
3.32484 59.329 -25.6999 0
3.04673 59.1958 -25.839 0
2.7947 59.0682 -25.897 0
2.66764 58.9136 -25.4894 0
2.56476 59.9987 -25.7528 0
2.33377 59.786 -25.6168 0
2.08965 60.8935 -26.1044 0
1.84793 60.664 -25.8481 0
-5.12914 68.5528 -9.19243 0
-4.53243 67.9507 -9.71697 0
-5.20061 68.3859 -9.84679 0
-4.67818 67.6014 -10.3408 0
-4.74549 66.7372 -11.6939 0
-4.79301 67.0942 -11.0351 0
-5.27601 67.9958 -10.5206 0
-5.27548 67.5355 -11.2232 0
-4.21402 66.1993 -12.286 0
-4.6307 66.6519 -12.4803 0
-5.01498 67.076 -12.6986 0
-4.6393 66.4599 -13.1799 0
-4.36575 65.826 -13.6267 0
-4.67299 65.4022 -14.2902 0
-5.10624 65.6811 -14.4798 0
-4.81654 66.1202 -13.8005 0
-5.16563 65.3501 -15.2202 0
-5.47949 65.9365 -14.6788 0
-5.25157 64.3217 -15.5107 0
0.731711 60.5286 -25.307 0
0.393747 61.1657 -25.652 0
1.54388 60.3645 -25.5065 0
1.03796 60.8469 -25.5762 0
1.30876 61.2631 -25.9527 0
-1.45878 59.8239 -24.5259 0
-1.87278 59.3494 -23.9366 0
-1.09571 60.0781 -25.1149 0
0.0656081 60.5589 -25.5025 0
-0.730572 60.4286 -25.563 0
-0.33696 60.8879 -25.8055 0
-2.39841 58.9365 -23.1114 0
-2.73665 58.2188 -22.4162 0
-2.99896 57.6796 -21.9108 0
-2.997 57.3392 -20.3606 0
-3.54334 57.6828 -19.5627 0
-3.84462 58.7923 -18.2297 0
-3.20882 57.2915 -19.9234 0
-4.38116 59.9889 -16.9591 0
-4.81815 61.2324 -16.0321 0
-5.03225 62.7709 -15.6386 0
73 1115 1116 0
1117 1115 73 0
281 1117 73 0
1118 1117 281 0
18 1118 281 0
1119 1118 18 0
282 1119 18 0
1120 1119 282 0
74 1120 282 0
1121 1120 74 0
283 1121 74 0
1122 1121 283 0
2 1122 283 0
1123 1122 2 0
284 1123 2 0
1124 1123 284 0
75 1124 284 0
1125 1124 75 0
286 1125 75 0
285 1126 1125 0
285 1125 286 0
19 285 286 0
1127 285 19 0
1128 1126 285 0
1128 285 1127 0
287 1127 19 0
1129 1127 287 0
76 1129 287 0
1130 1129 76 0
288 1130 76 0
1131 1130 288 0
6 1131 288 0
1132 1131 6 0
289 1132 6 0
1133 1132 289 0
1134 1133 289 0
1135 73 1116 0
1136 281 73 0
1137 18 281 0
1137 281 1136 0
1136 73 1135 0
291 282 18 0
290 74 282 0
290 282 291 0
1138 290 291 0
293 283 74 0
292 2 283 0
292 283 293 0
77 292 293 0
1139 290 1138 0
293 74 290 0
293 290 1139 0
77 293 1139 0
1140 77 1139 0
291 18 1137 0
291 1137 1141 0
1138 291 1141 0
295 284 2 0
294 75 284 0
294 284 295 0
79 294 295 0
297 286 75 0
296 19 286 0
296 286 297 0
78 296 297 0
298 294 79 0
297 75 294 0
297 294 298 0
78 297 298 0
300 298 79 0
299 78 298 0
299 298 300 0
1142 299 300 0
302 287 19 0
301 76 287 0
301 287 302 0
81 301 302 0
304 288 76 0
303 6 288 0
303 288 304 0
80 303 304 0
305 301 81 0
304 76 301 0
304 301 305 0
80 304 305 0
307 305 81 0
306 80 305 0
306 305 307 0
20 306 307 0
309 299 1142 0
308 78 299 0
308 299 309 0
82 308 309 0
310 296 78 0
302 19 296 0
302 296 310 0
81 302 310 0
311 308 82 0
310 78 308 0
310 308 311 0
81 310 311 0
312 311 82 0
307 81 311 0
307 311 312 0
20 307 312 0
1143 309 1142 0
1144 82 309 0
1144 309 1143 0
314 312 82 0
313 20 312 0
313 312 314 0
83 313 314 0
314 82 1144 0
314 1144 1145 0
83 314 1145 0
1146 83 1145 0
316 289 6 0
315 1134 289 0
315 289 316 0
85 315 316 0
318 1147 1134 0
317 1148 1147 0
317 1147 318 0
84 317 318 0
319 315 85 0
318 1134 315 0
318 315 319 0
84 318 319 0
321 319 85 0
320 84 319 0
320 319 321 0
22 320 321 0
323 1149 1148 0
322 1150 1149 0
322 1149 323 0
87 322 323 0
325 1151 1150 0
324 1152 1151 0
324 1151 325 0
86 324 325 0
326 322 87 0
325 1150 322 0
325 322 326 0
86 325 326 0
328 326 87 0
327 86 326 0
327 326 328 0
21 327 328 0
330 320 22 0
329 84 320 0
329 320 330 0
88 329 330 0
331 317 84 0
323 1148 317 0
323 317 331 0
87 323 331 0
332 329 88 0
331 84 329 0
331 329 332 0
87 331 332 0
333 332 88 0
328 87 332 0
328 332 333 0
21 328 333 0
335 330 22 0
334 88 330 0
334 330 335 0
90 334 335 0
337 333 88 0
336 21 333 0
336 333 337 0
89 336 337 0
338 334 90 0
337 88 334 0
337 334 338 0
89 337 338 0
340 338 90 0
339 89 338 0
339 338 340 0
7 339 340 0
1153 83 1146 0
342 313 83 0
341 20 313 0
341 313 342 0
91 341 342 0
342 83 1153 0
342 1153 1154 0
91 342 1154 0
343 91 1154 0
343 1154 1155 0
1156 343 1155 0
345 306 20 0
344 80 306 0
344 306 345 0
92 344 345 0
346 303 80 0
316 6 303 0
316 303 346 0
85 316 346 0
347 344 92 0
346 80 344 0
346 344 347 0
85 346 347 0
348 347 92 0
321 85 347 0
321 347 348 0
22 321 348 0
350 343 1156 0
349 91 343 0
349 343 350 0
93 349 350 0
351 341 91 0
345 20 341 0
345 341 351 0
92 345 351 0
352 349 93 0
351 91 349 0
351 349 352 0
92 351 352 0
353 352 93 0
348 92 352 0
348 352 353 0
22 348 353 0
1157 350 1156 0
354 93 350 0
354 350 1157 0
94 354 1157 0
355 353 93 0
335 22 353 0
335 353 355 0
90 335 355 0
356 354 94 0
355 93 354 0
355 354 356 0
90 355 356 0
357 356 94 0
340 90 356 0
340 356 357 0
7 340 357 0
1158 94 1157 0
1159 357 94 0
1160 7 357 0
1160 357 1159 0
1159 94 1158 0
1161 77 1140 0
358 292 77 0
295 2 292 0
295 292 358 0
79 295 358 0
359 1161 1162 0
358 77 1161 0
358 1161 359 0
79 358 359 0
1163 359 1162 0
300 79 359 0
300 359 1163 0
1142 300 1163 0
361 1164 1165 0
360 1166 1164 0
360 1164 361 0
1 360 361 0
362 360 1 0
1167 1166 360 0
1167 360 362 0
1168 1167 362 0
364 362 1 0
363 1168 362 0
363 362 364 0
95 363 364 0
365 363 95 0
1169 1168 363 0
1169 363 365 0
1170 1169 365 0
367 365 95 0
366 1170 365 0
366 365 367 0
23 366 367 0
369 366 23 0
368 1170 366 0
368 366 369 0
96 368 369 0
1171 368 96 0
1172 1170 368 0
1172 368 1171 0
370 1171 96 0
1173 1171 370 0
1174 1173 370 0
372 369 23 0
371 96 369 0
371 369 372 0
98 371 372 0
374 370 96 0
373 1174 370 0
373 370 374 0
97 373 374 0
375 371 98 0
374 96 371 0
374 371 375 0
97 374 375 0
377 375 98 0
376 97 375 0
376 375 377 0
8 376 377 0
379 376 8 0
378 97 376 0
378 376 379 0
99 378 379 0
380 373 97 0
1175 1174 373 0
1175 373 380 0
1176 1175 380 0
381 378 99 0
380 97 378 0
380 378 381 0
1176 380 381 0
383 381 99 0
382 1176 381 0
382 381 383 0
24 382 383 0
1177 382 24 0
1178 1176 382 0
1178 382 1177 0
1179 1177 24 0
385 379 8 0
384 99 379 0
384 379 385 0
101 384 385 0
387 383 99 0
386 24 383 0
386 383 387 0
100 386 387 0
388 384 101 0
387 99 384 0
387 384 388 0
100 387 388 0
390 388 101 0
389 100 388 0
389 388 390 0
26 389 390 0
391 1179 24 0
1180 1179 391 0
102 1180 391 0
392 1180 102 0
1181 1180 392 0
1182 1181 392 0
394 392 102 0
393 1182 392 0
393 392 394 0
25 393 394 0
396 389 26 0
395 100 389 0
395 389 396 0
103 395 396 0
397 386 100 0
391 24 386 0
391 386 397 0
102 391 397 0
398 395 103 0
397 100 395 0
397 395 398 0
102 397 398 0
399 398 103 0
394 102 398 0
394 398 399 0
25 394 399 0
401 396 26 0
400 103 396 0
400 396 401 0
105 400 401 0
403 399 103 0
402 25 399 0
402 399 403 0
104 402 403 0
404 400 105 0
403 103 400 0
403 400 404 0
104 403 404 0
406 404 105 0
405 104 404 0
405 404 406 0
3 405 406 0
408 405 3 0
407 104 405 0
407 405 408 0
107 407 408 0
410 402 104 0
409 25 402 0
409 402 410 0
106 409 410 0
411 407 107 0
410 104 407 0
410 407 411 0
106 410 411 0
413 411 107 0
412 106 411 0
412 411 413 0
27 412 413 0
414 393 25 0
1183 1182 393 0
1183 393 414 0
1184 1183 414 0
416 412 27 0
415 106 412 0
415 412 416 0
1185 415 416 0
417 409 106 0
414 25 409 0
414 409 417 0
1184 414 417 0
418 415 1185 0
417 106 415 0
417 415 418 0
1184 417 418 0
1186 418 1185 0
1187 1184 418 0
1187 418 1186 0
420 416 27 0
419 1185 416 0
419 416 420 0
108 419 420 0
1188 419 108 0
1189 1185 419 0
1189 419 1188 0
1190 1188 108 0
422 408 3 0
421 107 408 0
421 408 422 0
110 421 422 0
424 413 107 0
423 27 413 0
423 413 424 0
109 423 424 0
425 421 110 0
424 107 421 0
424 421 425 0
109 424 425 0
427 425 110 0
426 109 425 0
426 425 427 0
29 426 427 0
429 420 27 0
428 108 420 0
428 420 429 0
112 428 429 0
431 1190 108 0
430 1191 1190 0
430 1190 431 0
111 430 431 0
432 428 112 0
431 108 428 0
431 428 432 0
111 431 432 0
434 432 112 0
433 111 432 0
433 432 434 0
28 433 434 0
436 426 29 0
435 109 426 0
435 426 436 0
113 435 436 0
437 423 109 0
429 27 423 0
429 423 437 0
112 429 437 0
438 435 113 0
437 109 435 0
437 435 438 0
112 437 438 0
439 438 113 0
434 112 438 0
434 438 439 0
28 434 439 0
441 436 29 0
440 113 436 0
440 436 441 0
115 440 441 0
443 439 113 0
442 28 439 0
442 439 443 0
114 442 443 0
444 440 115 0
443 113 440 0
443 440 444 0
114 443 444 0
446 444 115 0
445 114 444 0
445 444 446 0
10 445 446 0
30 1192 1193 0
1194 1192 30 0
447 1194 30 0
1195 1194 447 0
117 1195 447 0
116 1196 1197 0
448 1195 117 0
1197 1195 448 0
116 1197 448 0
450 448 117 0
449 116 448 0
449 448 450 0
9 449 450 0
452 445 10 0
451 114 445 0
451 445 452 0
119 451 452 0
454 442 114 0
453 28 442 0
453 442 454 0
118 453 454 0
455 451 119 0
454 114 451 0
454 451 455 0
118 454 455 0
457 455 119 0
456 118 455 0
456 455 457 0
31 456 457 0
459 433 28 0
458 111 433 0
458 433 459 0
120 458 459 0
1198 430 111 0
1199 1191 430 0
1199 430 1198 0
460 458 120 0
1198 111 458 0
1198 458 460 0
1200 1198 460 0
461 460 120 0
1193 1200 460 0
1193 460 461 0
30 1193 461 0
463 456 31 0
462 118 456 0
462 456 463 0
121 462 463 0
464 453 118 0
459 28 453 0
459 453 464 0
120 459 464 0
465 462 121 0
464 118 462 0
464 462 465 0
120 464 465 0
466 465 121 0
461 120 465 0
461 465 466 0
30 461 466 0
468 463 31 0
467 121 463 0
467 463 468 0
122 467 468 0
469 466 121 0
447 30 466 0
447 466 469 0
117 447 469 0
470 467 122 0
469 121 467 0
469 467 470 0
117 469 470 0
471 470 122 0
450 117 470 0
450 470 471 0
9 450 471 0
473 452 10 0
472 119 452 0
472 452 473 0
124 472 473 0
475 457 119 0
474 31 457 0
474 457 475 0
123 474 475 0
476 472 124 0
475 119 472 0
475 472 476 0
123 475 476 0
478 476 124 0
477 123 476 0
477 476 478 0
33 477 478 0
480 468 31 0
479 122 468 0
479 468 480 0
126 479 480 0
482 471 122 0
481 9 471 0
481 471 482 0
125 481 482 0
483 479 126 0
482 122 479 0
482 479 483 0
125 482 483 0
485 483 126 0
484 125 483 0
484 483 485 0
32 484 485 0
487 477 33 0
486 123 477 0
486 477 487 0
127 486 487 0
488 474 123 0
480 31 474 0
480 474 488 0
126 480 488 0
489 486 127 0
488 123 486 0
488 486 489 0
126 488 489 0
490 489 127 0
485 126 489 0
485 489 490 0
32 485 490 0
492 487 33 0
491 127 487 0
491 487 492 0
129 491 492 0
494 490 127 0
493 32 490 0
493 490 494 0
128 493 494 0
495 491 129 0
494 127 491 0
494 491 495 0
128 494 495 0
497 495 129 0
496 128 495 0
496 495 497 0
0 496 497 0
1201 7 1160 0
499 339 7 0
498 89 339 0
498 339 499 0
131 498 499 0
501 336 89 0
500 21 336 0
500 336 501 0
130 500 501 0
502 498 131 0
501 89 498 0
501 498 502 0
130 501 502 0
504 502 131 0
503 130 502 0
503 502 504 0
35 503 504 0
506 327 21 0
505 86 327 0
505 327 506 0
133 505 506 0
507 324 86 0
1202 1152 324 0
1202 324 507 0
132 1202 507 0
508 505 133 0
507 86 505 0
507 505 508 0
132 507 508 0
510 508 133 0
509 132 508 0
509 508 510 0
34 509 510 0
512 503 35 0
511 130 503 0
511 503 512 0
134 511 512 0
513 500 130 0
506 21 500 0
506 500 513 0
133 506 513 0
514 511 134 0
513 130 511 0
513 511 514 0
133 513 514 0
515 514 134 0
510 133 514 0
510 514 515 0
34 510 515 0
517 512 35 0
516 134 512 0
516 512 517 0
136 516 517 0
519 515 134 0
518 34 515 0
518 515 519 0
135 518 519 0
520 516 136 0
519 134 516 0
519 516 520 0
135 519 520 0
522 520 136 0
521 135 520 0
521 520 522 0
11 521 522 0
499 7 1201 0
499 1201 1203 0
131 499 1203 0
523 1204 1205 0
1203 1204 523 0
131 1203 523 0
524 523 1205 0
504 131 523 0
504 523 524 0
35 504 524 0
525 1206 1207 0
524 1205 1206 0
524 1206 525 0
35 524 525 0
526 525 1207 0
517 35 525 0
517 525 526 0
136 517 526 0
527 1208 1209 0
526 1207 1208 0
526 1208 527 0
136 526 527 0
528 527 1209 0
522 136 527 0
522 527 528 0
11 522 528 0
530 528 1209 0
529 11 528 0
529 528 530 0
137 529 530 0
530 1209 1210 0
530 1210 1211 0
137 530 1211 0
1212 137 1211 0
531 1213 1214 0
1215 1213 531 0
1216 1215 531 0
533 531 1214 0
532 1216 531 0
532 531 533 0
138 532 533 0
534 1217 1216 0
1218 1217 534 0
1219 1218 534 0
535 532 138 0
534 1216 532 0
534 532 535 0
1219 534 535 0
537 535 138 0
536 1219 535 0
536 535 537 0
36 536 537 0
539 536 36 0
538 1219 536 0
538 536 539 0
139 538 539 0
1220 538 139 0
1221 1219 538 0
1221 538 1220 0
1222 1220 139 0
541 539 36 0
540 139 539 0
540 539 541 0
140 540 541 0
1223 1222 139 0
542 540 140 0
1223 139 540 0
1223 540 542 0
1165 1223 542 0
543 542 140 0
361 1165 542 0
361 542 543 0
1 361 543 0
37 1224 1225 0
37 1225 1226 0
142 1227 1228 0
545 1226 1229 0
544 37 1226 0
544 1226 545 0
141 544 545 0
546 1227 142 0
545 1229 1227 0
545 1227 546 0
141 545 546 0
548 546 142 0
547 141 546 0
547 546 548 0
4 547 548 0
550 1212 1230 0
549 137 1212 0
549 1212 550 0
144 549 550 0
552 529 137 0
551 11 529 0
551 529 552 0
143 551 552 0
553 549 144 0
552 137 549 0
552 549 553 0
143 552 553 0
555 553 144 0
554 143 553 0
554 553 555 0
38 554 555 0
557 1231 1232 0
556 1233 1231 0
556 1231 557 0
145 556 557 0
558 1234 1233 0
550 1230 1234 0
550 1234 558 0
144 550 558 0
559 556 145 0
558 1233 556 0
558 556 559 0
144 558 559 0
560 559 145 0
555 144 559 0
555 559 560 0
38 555 560 0
562 557 1232 0
561 145 557 0
561 557 562 0
147 561 562 0
564 560 145 0
563 38 560 0
563 560 564 0
146 563 564 0
565 561 147 0
564 145 561 0
564 561 565 0
146 564 565 0
567 565 147 0
566 146 565 0
566 565 567 0
12 566 567 0
569 521 11 0
568 135 521 0
568 521 569 0
149 568 569 0
571 518 135 0
570 34 518 0
570 518 571 0
148 570 571 0
572 568 149 0
571 135 568 0
571 568 572 0
148 571 572 0
574 572 149 0
573 148 572 0
573 572 574 0
39 573 574 0
576 509 34 0
575 132 509 0
575 509 576 0
150 575 576 0
1235 1202 132 0
1236 575 150 0
1235 132 575 0
1235 575 1236 0
1237 1236 150 0
578 573 39 0
577 148 573 0
577 573 578 0
151 577 578 0
579 570 148 0
576 34 570 0
576 570 579 0
150 576 579 0
580 577 151 0
579 148 577 0
579 577 580 0
150 579 580 0
1238 580 151 0
1237 150 580 0
1237 580 1238 0
582 578 39 0
581 151 578 0
581 578 582 0
1239 581 582 0
1240 1238 151 0
1241 581 1239 0
1240 151 581 0
1240 581 1241 0
584 566 12 0
583 146 566 0
583 566 584 0
153 583 584 0
586 563 146 0
585 38 563 0
585 563 586 0
152 585 586 0
587 583 153 0
586 146 583 0
586 583 587 0
152 586 587 0
589 587 153 0
588 152 587 0
588 587 589 0
40 588 589 0
591 554 38 0
590 143 554 0
590 554 591 0
154 590 591 0
592 551 143 0
569 11 551 0
569 551 592 0
149 569 592 0
593 590 154 0
592 143 590 0
592 590 593 0
149 592 593 0
594 593 154 0
574 149 593 0
574 593 594 0
39 574 594 0
596 588 40 0
595 152 588 0
595 588 596 0
155 595 596 0
597 585 152 0
591 38 585 0
591 585 597 0
154 591 597 0
598 595 155 0
597 152 595 0
597 595 598 0
154 597 598 0
599 598 155 0
594 154 598 0
594 598 599 0
39 594 599 0
601 596 40 0
600 155 596 0
600 596 601 0
1242 600 601 0
602 599 155 0
582 39 599 0
582 599 602 0
1239 582 602 0
1243 600 1242 0
602 155 600 0
602 600 1243 0
1239 602 1243 0
604 584 12 0
603 153 584 0
603 584 604 0
157 603 604 0
606 589 153 0
605 40 589 0
605 589 606 0
156 605 606 0
607 603 157 0
606 153 603 0
606 603 607 0
156 606 607 0
609 607 157 0
608 156 607 0
608 607 609 0
41 608 609 0
610 601 40 0
1244 1242 601 0
1244 601 610 0
1245 1244 610 0
611 608 41 0
1246 156 608 0
1246 608 611 0
1247 1246 611 0
612 605 156 0
610 40 605 0
610 605 612 0
1245 610 612 0
612 156 1246 0
612 1246 1248 0
1245 612 1248 0
1249 611 41 0
1250 1247 611 0
1250 611 1249 0
614 547 4 0
613 141 547 0
613 547 614 0
159 613 614 0
616 544 141 0
615 37 544 0
615 544 616 0
158 615 616 0
617 613 159 0
616 141 613 0
616 613 617 0
158 616 617 0
619 617 159 0
618 158 617 0
618 617 619 0
43 618 619 0
621 1224 37 0
620 1251 1224 0
620 1224 621 0
161 620 621 0
160 1252 1253 0
622 620 161 0
1253 1251 620 0
1253 620 622 0
160 1253 622 0
624 622 161 0
623 160 622 0
623 622 624 0
42 623 624 0
626 618 43 0
625 158 618 0
625 618 626 0
162 625 626 0
627 615 158 0
621 37 615 0
621 615 627 0
161 621 627 0
628 625 162 0
627 158 625 0
627 625 628 0
161 627 628 0
629 628 162 0
624 161 628 0
624 628 629 0
42 624 629 0
631 626 43 0
630 162 626 0
630 626 631 0
164 630 631 0
633 629 162 0
632 42 629 0
632 629 633 0
163 632 633 0
634 630 164 0
633 162 630 0
633 630 634 0
163 633 634 0
636 634 164 0
635 163 634 0
635 634 636 0
13 635 636 0
637 1254 1255 0
637 1255 1256 0
44 637 1256 0
638 637 44 0
1257 1254 637 0
1257 637 638 0
165 1257 638 0
1258 1257 165 0
1259 1258 165 0
640 638 44 0
639 165 638 0
639 638 640 0
166 639 640 0
641 1259 165 0
562 1232 1259 0
562 1259 641 0
147 562 641 0
642 639 166 0
641 165 639 0
641 639 642 0
147 641 642 0
643 642 166 0
567 147 642 0
567 642 643 0
12 567 643 0
645 635 13 0
644 163 635 0
644 635 645 0
168 644 645 0
647 632 163 0
646 42 632 0
646 632 647 0
167 646 647 0
648 644 168 0
647 163 644 0
647 644 648 0
167 647 648 0
650 648 168 0
649 167 648 0
649 648 650 0
45 649 650 0
652 623 42 0
651 160 623 0
651 623 652 0
169 651 652 0
1260 1252 160 0
653 651 169 0
1260 160 651 0
1260 651 653 0
1261 1260 653 0
654 653 169 0
1256 1261 653 0
1256 653 654 0
44 1256 654 0
656 649 45 0
655 167 649 0
655 649 656 0
170 655 656 0
657 646 167 0
652 42 646 0
652 646 657 0
169 652 657 0
658 655 170 0
657 167 655 0
657 655 658 0
169 657 658 0
659 658 170 0
654 169 658 0
654 658 659 0
44 654 659 0
661 656 45 0
660 170 656 0
660 656 661 0
171 660 661 0
662 659 170 0
640 44 659 0
640 659 662 0
166 640 662 0
663 660 171 0
662 170 660 0
662 660 663 0
166 662 663 0
664 663 171 0
643 166 663 0
643 663 664 0
12 643 664 0
666 645 13 0
665 168 645 0
665 645 666 0
173 665 666 0
668 650 168 0
667 45 650 0
667 650 668 0
172 667 668 0
669 665 173 0
668 168 665 0
668 665 669 0
172 668 669 0
671 669 173 0
670 172 669 0
670 669 671 0
46 670 671 0
673 661 45 0
672 171 661 0
672 661 673 0
174 672 673 0
674 664 171 0
604 12 664 0
604 664 674 0
157 604 674 0
675 672 174 0
674 171 672 0
674 672 675 0
157 674 675 0
676 675 174 0
609 157 675 0
609 675 676 0
41 609 676 0
678 670 46 0
677 172 670 0
677 670 678 0
175 677 678 0
679 667 172 0
673 45 667 0
673 667 679 0
174 673 679 0
680 677 175 0
679 172 677 0
679 677 680 0
174 679 680 0
681 680 175 0
676 174 680 0
676 680 681 0
41 676 681 0
682 678 46 0
1262 175 678 0
1262 678 682 0
1263 1262 682 0
1264 681 175 0
1249 41 681 0
1249 681 1264 0
1264 175 1262 0
684 614 4 0
683 159 614 0
683 614 684 0
177 683 684 0
686 619 159 0
685 43 619 0
685 619 686 0
176 685 686 0
687 683 177 0
686 159 683 0
686 683 687 0
176 686 687 0
689 687 177 0
688 176 687 0
688 687 689 0
48 688 689 0
691 631 43 0
690 164 631 0
690 631 691 0
179 690 691 0
693 636 164 0
692 13 636 0
692 636 693 0
178 692 693 0
694 690 179 0
693 164 690 0
693 690 694 0
178 693 694 0
696 694 179 0
695 178 694 0
695 694 696 0
47 695 696 0
698 688 48 0
697 176 688 0
697 688 698 0
180 697 698 0
699 685 176 0
691 43 685 0
691 685 699 0
179 691 699 0
700 697 180 0
699 176 697 0
699 697 700 0
179 699 700 0
701 700 180 0
696 179 700 0
696 700 701 0
47 696 701 0
703 698 48 0
702 180 698 0
702 698 703 0
182 702 703 0
705 701 180 0
704 47 701 0
704 701 705 0
181 704 705 0
706 702 182 0
705 180 702 0
705 702 706 0
181 705 706 0
708 706 182 0
707 181 706 0
707 706 708 0
14 707 708 0
710 666 13 0
709 173 666 0
709 666 710 0
184 709 710 0
712 671 173 0
711 46 671 0
711 671 712 0
183 711 712 0
713 709 184 0
712 173 709 0
712 709 713 0
183 712 713 0
715 713 184 0
714 183 713 0
714 713 715 0
49 714 715 0
1265 682 46 0
1266 1263 682 0
1266 682 1265 0
1267 714 49 0
1268 183 714 0
1268 714 1267 0
1269 711 183 0
1265 46 711 0
1265 711 1269 0
1269 183 1268 0
1270 1267 49 0
717 707 14 0
716 181 707 0
716 707 717 0
186 716 717 0
719 704 181 0
718 47 704 0
718 704 719 0
185 718 719 0
720 716 186 0
719 181 716 0
719 716 720 0
185 719 720 0
722 720 186 0
721 185 720 0
721 720 722 0
50 721 722 0
724 695 47 0
723 178 695 0
723 695 724 0
187 723 724 0
725 692 178 0
710 13 692 0
710 692 725 0
184 710 725 0
726 723 187 0
725 178 723 0
725 723 726 0
184 725 726 0
727 726 187 0
715 184 726 0
715 726 727 0
49 715 727 0
729 721 50 0
728 185 721 0
728 721 729 0
188 728 729 0
730 718 185 0
724 47 718 0
724 718 730 0
187 724 730 0
731 728 188 0
730 185 728 0
730 728 731 0
187 730 731 0
732 731 188 0
727 187 731 0
727 731 732 0
49 727 732 0
733 729 50 0
1271 188 729 0
1271 729 733 0
189 1271 733 0
1272 732 188 0
1270 49 732 0
1270 732 1272 0
1273 1271 189 0
1272 188 1271 0
1274 1273 189 0
735 717 14 0
734 186 717 0
734 717 735 0
191 734 735 0
737 722 186 0
736 50 722 0
736 722 737 0
190 736 737 0
738 734 191 0
737 186 734 0
737 734 738 0
190 737 738 0
740 738 191 0
739 190 738 0
739 738 740 0
51 739 740 0
742 733 50 0
741 189 733 0
741 733 742 0
192 741 742 0
743 1274 189 0
533 1214 1274 0
533 1274 743 0
138 533 743 0
744 741 192 0
743 189 741 0
743 741 744 0
138 743 744 0
745 744 192 0
537 138 744 0
537 744 745 0
36 537 745 0
747 739 51 0
746 190 739 0
746 739 747 0
193 746 747 0
748 736 190 0
742 50 736 0
742 736 748 0
192 742 748 0
749 746 193 0
748 190 746 0
748 746 749 0
192 748 749 0
750 749 193 0
745 192 749 0
745 749 750 0
36 745 750 0
752 747 51 0
751 193 747 0
751 747 752 0
194 751 752 0
753 750 193 0
541 36 750 0
541 750 753 0
140 541 753 0
754 751 194 0
753 193 751 0
753 751 754 0
140 753 754 0
755 754 194 0
543 140 754 0
543 754 755 0
1 543 755 0
1275 142 1228 0
757 548 142 0
756 4 548 0
756 548 757 0
195 756 757 0
758 1275 1276 0
757 142 1275 0
757 1275 758 0
195 757 758 0
760 758 1276 0
759 195 758 0
759 758 760 0
52 759 760 0
760 1276 1277 0
760 1277 1278 0
52 760 1278 0
761 52 1278 0
761 1278 1279 0
1280 761 1279 0
763 684 4 0
762 177 684 0
762 684 763 0
197 762 763 0
765 689 177 0
764 48 689 0
764 689 765 0
196 764 765 0
766 762 197 0
765 177 762 0
765 762 766 0
196 765 766 0
768 766 197 0
767 196 766 0
767 766 768 0
54 767 768 0
770 703 48 0
769 182 703 0
769 703 770 0
199 769 770 0
772 708 182 0
771 14 708 0
771 708 772 0
198 771 772 0
773 769 199 0
772 182 769 0
772 769 773 0
198 772 773 0
775 773 199 0
774 198 773 0
774 773 775 0
53 774 775 0
777 767 54 0
776 196 767 0
776 767 777 0
200 776 777 0
778 764 196 0
770 48 764 0
770 764 778 0
199 770 778 0
779 776 200 0
778 196 776 0
778 776 779 0
199 778 779 0
780 779 200 0
775 199 779 0
775 779 780 0
53 775 780 0
782 777 54 0
781 200 777 0
781 777 782 0
202 781 782 0
784 780 200 0
783 53 780 0
783 780 784 0
201 783 784 0
785 781 202 0
784 200 781 0
784 781 785 0
201 784 785 0
787 785 202 0
786 201 785 0
786 785 787 0
15 786 787 0
789 735 14 0
788 191 735 0
788 735 789 0
204 788 789 0
791 740 191 0
790 51 740 0
790 740 791 0
203 790 791 0
792 788 204 0
791 191 788 0
791 788 792 0
203 791 792 0
794 792 204 0
793 203 792 0
793 792 794 0
55 793 794 0
796 752 51 0
795 194 752 0
795 752 796 0
205 795 796 0
797 755 194 0
364 1 755 0
364 755 797 0
95 364 797 0
798 795 205 0
797 194 795 0
797 795 798 0
95 797 798 0
799 798 205 0
367 95 798 0
367 798 799 0
23 367 799 0
801 793 55 0
800 203 793 0
800 793 801 0
206 800 801 0
802 790 203 0
796 51 790 0
796 790 802 0
205 796 802 0
803 800 206 0
802 203 800 0
802 800 803 0
205 802 803 0
804 803 206 0
799 205 803 0
799 803 804 0
23 799 804 0
806 801 55 0
805 206 801 0
805 801 806 0
207 805 806 0
807 804 206 0
372 23 804 0
372 804 807 0
98 372 807 0
808 805 207 0
807 206 805 0
807 805 808 0
98 807 808 0
809 808 207 0
377 98 808 0
377 808 809 0
8 377 809 0
811 786 15 0
810 201 786 0
810 786 811 0
209 810 811 0
813 783 201 0
812 53 783 0
812 783 813 0
208 812 813 0
814 810 209 0
813 201 810 0
813 810 814 0
208 813 814 0
816 814 209 0
815 208 814 0
815 814 816 0
56 815 816 0
818 774 53 0
817 198 774 0
817 774 818 0
210 817 818 0
819 771 198 0
789 14 771 0
789 771 819 0
204 789 819 0
820 817 210 0
819 198 817 0
819 817 820 0
204 819 820 0
821 820 210 0
794 204 820 0
794 820 821 0
55 794 821 0
823 815 56 0
822 208 815 0
822 815 823 0
211 822 823 0
824 812 208 0
818 53 812 0
818 812 824 0
210 818 824 0
825 822 211 0
824 208 822 0
824 822 825 0
210 824 825 0
826 825 211 0
821 210 825 0
821 825 826 0
55 821 826 0
828 823 56 0
827 211 823 0
827 823 828 0
212 827 828 0
829 826 211 0
806 55 826 0
806 826 829 0
207 806 829 0
830 827 212 0
829 211 827 0
829 827 830 0
207 829 830 0
831 830 212 0
809 207 830 0
809 830 831 0
8 809 831 0
833 811 15 0
832 209 811 0
832 811 833 0
214 832 833 0
835 816 209 0
834 56 816 0
834 816 835 0
213 834 835 0
836 832 214 0
835 209 832 0
835 832 836 0
213 835 836 0
838 836 214 0
837 213 836 0
837 836 838 0
57 837 838 0
840 828 56 0
839 212 828 0
839 828 840 0
215 839 840 0
841 831 212 0
385 8 831 0
385 831 841 0
101 385 841 0
842 839 215 0
841 212 839 0
841 839 842 0
101 841 842 0
843 842 215 0
390 101 842 0
390 842 843 0
26 390 843 0
845 837 57 0
844 213 837 0
844 837 845 0
216 844 845 0
846 834 213 0
840 56 834 0
840 834 846 0
215 840 846 0
847 844 216 0
846 213 844 0
846 844 847 0
215 846 847 0
848 847 216 0
843 215 847 0
843 847 848 0
26 843 848 0
850 845 57 0
849 216 845 0
849 845 850 0
217 849 850 0
851 848 216 0
401 26 848 0
401 848 851 0
105 401 851 0
852 849 217 0
851 216 849 0
851 849 852 0
105 851 852 0
853 852 217 0
406 105 852 0
406 852 853 0
3 406 853 0
854 1281 1282 0
854 1282 1283 0
58 854 1283 0
855 1284 1285 0
1283 1284 855 0
58 1283 855 0
219 1286 1287 0
857 855 1285 0
856 58 855 0
856 855 857 0
218 856 857 0
858 1286 219 0
857 1285 1286 0
857 1286 858 0
218 857 858 0
860 858 219 0
859 218 858 0
859 858 860 0
16 859 860 0
861 1280 1288 0
861 1288 1289 0
221 861 1289 0
863 761 1280 0
862 52 761 0
862 761 863 0
220 862 863 0
864 861 221 0
863 1280 861 0
863 861 864 0
220 863 864 0
866 864 221 0
865 220 864 0
865 864 866 0
59 865 866 0
868 759 52 0
867 195 759 0
867 759 868 0
222 867 868 0
869 756 195 0
763 4 756 0
763 756 869 0
197 763 869 0
870 867 222 0
869 195 867 0
869 867 870 0
197 869 870 0
871 870 222 0
768 197 870 0
768 870 871 0
54 768 871 0
873 865 59 0
872 220 865 0
872 865 873 0
223 872 873 0
874 862 220 0
868 52 862 0
868 862 874 0
222 868 874 0
875 872 223 0
874 220 872 0
874 872 875 0
222 874 875 0
876 875 223 0
871 222 875 0
871 875 876 0
54 871 876 0
878 873 59 0
877 223 873 0
877 873 878 0
224 877 878 0
879 876 223 0
782 54 876 0
782 876 879 0
202 782 879 0
880 877 224 0
879 223 877 0
879 877 880 0
202 879 880 0
881 880 224 0
787 202 880 0
787 880 881 0
15 787 881 0
883 859 16 0
882 218 859 0
882 859 883 0
226 882 883 0
885 856 218 0
884 58 856 0
884 856 885 0
225 884 885 0
886 882 226 0
885 218 882 0
885 882 886 0
225 885 886 0
888 886 226 0
887 225 886 0
887 886 888 0
60 887 888 0
890 854 58 0
889 1281 854 0
889 854 890 0
227 889 890 0
891 1290 1281 0
1289 1290 891 0
221 1289 891 0
892 889 227 0
891 1281 889 0
891 889 892 0
221 891 892 0
893 892 227 0
866 221 892 0
866 892 893 0
59 866 893 0
895 887 60 0
894 225 887 0
894 887 895 0
228 894 895 0
896 884 225 0
890 58 884 0
890 884 896 0
227 890 896 0
897 894 228 0
896 225 894 0
896 894 897 0
227 896 897 0
898 897 228 0
893 227 897 0
893 897 898 0
59 893 898 0
900 895 60 0
899 228 895 0
899 895 900 0
229 899 900 0
901 898 228 0
878 59 898 0
878 898 901 0
224 878 901 0
902 899 229 0
901 228 899 0
901 899 902 0
224 901 902 0
903 902 229 0
881 224 902 0
881 902 903 0
15 881 903 0
905 883 16 0
904 226 883 0
904 883 905 0
231 904 905 0
907 888 226 0
906 60 888 0
906 888 907 0
230 906 907 0
908 904 231 0
907 226 904 0
907 904 908 0
230 907 908 0
910 908 231 0
909 230 908 0
909 908 910 0
61 909 910 0
912 900 60 0
911 229 900 0
911 900 912 0
232 911 912 0
913 903 229 0
833 15 903 0
833 903 913 0
214 833 913 0
914 911 232 0
913 229 911 0
913 911 914 0
214 913 914 0
915 914 232 0
838 214 914 0
838 914 915 0
57 838 915 0
917 909 61 0
916 230 909 0
916 909 917 0
233 916 917 0
918 906 230 0
912 60 906 0
912 906 918 0
232 912 918 0
919 916 233 0
918 230 916 0
918 916 919 0
232 918 919 0
920 919 233 0
915 232 919 0
915 919 920 0
57 915 920 0
922 917 61 0
921 233 917 0
921 917 922 0
234 921 922 0
923 920 233 0
850 57 920 0
850 920 923 0
217 850 923 0
924 921 234 0
923 233 921 0
923 921 924 0
217 923 924 0
925 924 234 0
853 217 924 0
853 924 925 0
3 853 925 0
1291 219 1287 0
927 860 219 0
926 16 860 0
926 860 927 0
235 926 927 0
928 1291 1292 0
927 219 1291 0
927 1291 928 0
235 927 928 0
1293 928 1292 0
929 235 928 0
929 928 1293 0
62 929 1293 0
62 1293 1294 0
1295 62 1294 0
931 905 16 0
930 231 905 0
930 905 931 0
237 930 931 0
933 910 231 0
932 61 910 0
932 910 933 0
236 932 933 0
934 930 237 0
933 231 930 0
933 930 934 0
236 933 934 0
936 934 237 0
935 236 934 0
935 934 936 0
63 935 936 0
938 922 61 0
937 234 922 0
937 922 938 0
238 937 938 0
939 925 234 0
422 3 925 0
422 925 939 0
110 422 939 0
940 937 238 0
939 234 937 0
939 937 940 0
110 939 940 0
941 940 238 0
427 110 940 0
427 940 941 0
29 427 941 0
943 935 63 0
942 236 935 0
942 935 943 0
239 942 943 0
944 932 236 0
938 61 932 0
938 932 944 0
238 938 944 0
945 942 239 0
944 236 942 0
944 942 945 0
238 944 945 0
946 945 239 0
941 238 945 0
941 945 946 0
29 941 946 0
948 943 63 0
947 239 943 0
947 943 948 0
240 947 948 0
949 946 239 0
441 29 946 0
441 946 949 0
115 441 949 0
950 947 240 0
949 239 947 0
949 947 950 0
115 949 950 0
951 950 240 0
446 115 950 0
446 950 951 0
10 446 951 0
242 1296 1297 0
953 1295 1298 0
952 62 1295 0
952 1295 953 0
241 952 953 0
954 1296 242 0
953 1298 1296 0
953 1296 954 0
241 953 954 0
956 954 242 0
955 241 954 0
955 954 956 0
64 955 956 0
958 929 62 0
957 235 929 0
957 929 958 0
243 957 958 0
959 926 235 0
931 16 926 0
931 926 959 0
237 931 959 0
960 957 243 0
959 235 957 0
959 957 960 0
237 959 960 0
961 960 243 0
936 237 960 0
936 960 961 0
63 936 961 0
963 955 64 0
962 241 955 0
962 955 963 0
244 962 963 0
964 952 241 0
958 62 952 0
958 952 964 0
243 958 964 0
965 962 244 0
964 241 962 0
964 962 965 0
243 964 965 0
966 965 244 0
961 243 965 0
961 965 966 0
63 961 966 0
968 963 64 0
967 244 963 0
967 963 968 0
245 967 968 0
969 966 244 0
948 63 966 0
948 966 969 0
240 948 969 0
970 967 245 0
969 244 967 0
969 967 970 0
240 969 970 0
971 970 245 0
951 240 970 0
951 970 971 0
10 951 971 0
1299 242 1297 0
973 956 242 0
972 64 956 0
972 956 973 0
246 972 973 0
974 1299 1300 0
973 242 1299 0
973 1299 974 0
246 973 974 0
1301 974 1300 0
975 246 974 0
975 974 1301 0
65 975 1301 0
977 968 64 0
976 245 968 0
976 968 977 0
247 976 977 0
978 971 245 0
473 10 971 0
473 971 978 0
124 473 978 0
979 976 247 0
978 245 976 0
978 976 979 0
124 978 979 0
980 979 247 0
478 124 979 0
478 979 980 0
33 478 980 0
982 975 65 0
981 246 975 0
981 975 982 0
248 981 982 0
983 972 246 0
977 64 972 0
977 972 983 0
247 977 983 0
984 981 248 0
983 246 981 0
983 981 984 0
247 983 984 0
985 984 248 0
980 247 984 0
980 984 985 0
33 980 985 0
987 982 65 0
986 248 982 0
986 982 987 0
249 986 987 0
988 985 248 0
492 33 985 0
492 985 988 0
129 492 988 0
989 986 249 0
988 248 986 0
988 986 989 0
129 988 989 0
990 989 249 0
497 129 989 0
497 989 990 0
0 497 990 0
1302 65 1301 0
1303 987 65 0
1304 249 987 0
1304 987 1303 0
1305 990 249 0
991 0 990 0
991 990 1305 0
1306 991 1305 0
1305 249 1304 0
1303 65 1302 0
1307 991 1306 0
992 0 991 0
992 991 1307 0
250 992 1307 0
250 1307 1308 0
1309 250 1308 0
994 496 0 0
993 128 496 0
993 496 994 0
252 993 994 0
996 493 128 0
995 32 493 0
995 493 996 0
251 995 996 0
997 993 252 0
996 128 993 0
996 993 997 0
251 996 997 0
999 997 252 0
998 251 997 0
998 997 999 0
67 998 999 0
1001 484 32 0
1000 125 484 0
1000 484 1001 0
254 1000 1001 0
1003 481 125 0
1002 9 481 0
1002 481 1003 0
