#!ascii - generated by CreateLabelFiles project 
2713 5192
18.8035 62.3525 7.58228 0
17.3578 61.0283 7.31017 0
18.3684 62.4633 6.07634 0
19.3645 63.5476 5.4177 0
20.2181 62.7581 6.37563 0
17.0035 55.4467 5.86745 0
15.5179 55.9179 5.5569 0
16.3751 55.7022 5.91335 0
13.94 54.3568 5.19572 0
14.6262 55.6075 5.37698 0
15.0878 50.8895 4.79952 0
15.7067 51.3742 3.85116 0
12.2309 52.2054 5.49761 0
12.9032 53.0479 5.14767 0
11.6015 51.705 6.07329 0
11.9181 51.8119 5.85553 0
12.2066 49.9841 7.04335 0
11.1367 48.9355 7.28432 0
11.4049 48.5934 6.64828 0
10.5997 52.2258 6.46043 0
11.206 52.1045 6.34605 0
10.3179 52.5463 6.7809 0
10.9664 51.5199 7.95029 0
11.0535 49.9045 8.63897 0
11.0877 49.0464 7.82592 0
11.4655 50.4657 7.51244 0
11.0787 49.3234 8.26657 0
10.3771 48.5294 8.64549 0
13.3575 50.2657 6.3417 0
9.41189 53.3338 6.48732 0
9.74143 53.0368 7.04556 0
9.61016 53.1799 6.48427 0
9.50638 53.0216 7.43671 0
9.76977 52.834 7.53659 0
9.97259 52.5982 7.50381 0
10.2094 52.1062 8.01632 0
10.1618 52.3795 7.4275 0
10.4888 51.6229 8.52575 0
10.0069 52.1431 8.53869 0
10.7927 51.4196 8.53922 0
10.8699 50.4636 9.31305 0
9.09066 53.6114 5.89606 0
9.12857 53.5441 6.27736 0
8.47379 54.3637 5.22611 0
8.49405 54.2427 5.66041 0
8.78302 53.7914 5.97778 0
9.18747 53.4594 6.725 0
9.1705 53.239 7.15776 0
8.03436 55.5536 4.49341 0
8.06254 55.3436 5.0338 0
8.25537 54.7363 5.35224 0
7.71381 57.0089 3.84001 0
7.77792 56.7468 4.53962 0
7.93416 56.0474 4.78798 0
8.07872 55.0921 5.60658 0
7.99785 54.771 6.14875 0
8.82039 53.487 6.87455 0
8.53835 54.0772 6.15306 0
8.51498 53.8365 6.65884 0
7.14171 58.3079 3.26305 0
7.17754 58.0341 4.03793 0
7.47804 57.3824 4.27764 0
6.54846 59.4876 2.73612 0
6.47753 59.1348 3.50371 0
6.87196 58.6073 3.80767 0
7.22204 57.7101 4.82963 0
6.98818 57.0405 5.35431 0
7.27195 56.4696 5.5772 0
6.0524 60.6445 1.97075 0
5.7804 60.1068 2.65319 0
6.16511 59.7098 3.12686 0
6.37439 61.8886 1.32754 0
5.82053 61.2382 1.94009 0
5.80191 60.6874 2.32315 0
5.65568 59.6179 3.42954 0
5.54606 59.0636 4.19637 0
5.95311 58.6795 4.63804 0
6.6601 57.5622 5.11021 0
6.45542 58.768 4.3015 0
6.30251 58.1276 4.91113 0
6.17633 57.4817 5.5467 0
7.84725 55.3918 6.00815 0
7.81609 56.4406 5.23505 0
7.58142 55.9082 5.77647 0
7.78614 63.4061 1.14364 0
7.03618 62.6941 1.59955 0
6.30496 61.8681 1.74162 0
8.42528 65.1063 1.62647 0
7.97738 64.4734 2.128 0
7.77937 63.5677 1.83991 0
6.00461 61.7887 2.14771 0
5.19518 60.8715 2.79032 0
4.99088 60.226 2.99619 0
7.78941 66.2805 2.02363 0
7.66551 65.463 2.65191 0
7.82284 65.1422 2.37985 0
7.34502 67.5542 2.60579 0
7.1976 66.3942 3.20401 0
7.51875 66.0017 3.01036 0
7.47039 64.6783 3.2892 0
6.63077 63.6792 3.77541 0
6.52732 63.1575 3.39093 0
5.54951 61.6951 2.64685 0
4.50039 59.9784 3.43173 0
7.31502 63.6199 2.60615 0
6.21531 62.3759 2.94584 0
4.90052 61.5022 3.31198 0
4.01153 59.313 4.17376 0
4.28848 58.8642 4.38161 0
3.96999 60.6013 4.01843 0
3.88293 59.9416 3.98297 0
3.52229 58.6539 4.92519 0
2.94864 57.8698 5.44138 0
3.27278 57.5787 5.60144 0
6.36868 68.1949 2.76116 0
6.36605 67.1947 3.35625 0
6.72637 66.66 3.28973 0
5.55486 68.8822 3.03515 0
5.40212 67.8425 3.39922 0
5.94502 67.5144 3.4668 0
6.28328 66.1216 4.10431 0
6.06983 65.1964 4.90241 0
6.40558 64.8301 4.75745 0
4.98275 70.0175 3.4087 0
4.73794 69.1639 3.48897 0
5.04753 68.4129 3.52932 0
4.41297 70.6574 3.93616 0
4.21493 70.0195 3.86953 0
4.43586 69.6488 3.65358 0
4.48898 67.9504 4.05488 0
4.23104 66.6774 4.87639 0
4.69695 66.2972 4.89541 0
5.67659 65.5824 4.96615 0
5.67549 64.363 5.69722 0
5.3473 66.8279 4.13825 0
5.22425 65.9493 4.95991 0
4.82788 65.0288 5.71675 0
4.81429 63.5925 6.37467 0
4.85056 63.0916 6.1185 0
4.13925 64.2503 6.49959 0
4.49461 63.9669 6.4486 0
3.75185 62.6369 6.95707 0
3.19246 61.2607 7.45991 0
3.1315 60.8352 7.06996 0
2.65833 58.1377 5.28136 0
4.16261 61.1737 4.12108 0
3.16633 59.5481 4.7336 0
2.46494 58.6008 5.30279 0
2.36348 59.3342 5.48851 0
1.95719 57.9457 5.85286 0
6.8941 64.2568 4.30238 0
5.56367 62.6224 4.23207 0
6.91999 65.3248 3.76461 0
6.60844 64.577 4.51244 0
6.02577 63.5895 5.24982 0
3.29162 60.7732 5.23829 0
2.33652 59.9577 5.70336 0
4.4181 61.6519 4.66858 0
4.60647 62.1485 5.19631 0
4.83349 62.5408 5.77062 0
2.38032 60.4216 6.00178 0
1.83671 58.9906 6.08194 0
3.44629 61.7943 6.11978 0
2.65638 60.6925 6.47464 0
2.30081 59.6068 6.96952 0
5.23468 59.3491 3.74918 0
5.44926 58.4113 4.93588 0
5.44214 60.4952 2.68233 0
5.15067 59.7443 3.39441 0
4.84513 59.0306 4.10118 0
4.98036 57.0791 5.82617 0
5.21258 57.7157 5.38114 0
4.84929 58.0387 5.0133 0
4.58837 58.4601 4.66802 0
4.27009 57.904 5.31314 0
3.70085 57.362 5.92573 0
3.76332 70.9152 4.76357 0
3.61695 70.5475 4.39694 0
3.96273 70.3296 4.14773 0
3.55857 71.6331 5.17242 0
3.21905 71.0382 4.99192 0
3.29058 70.7242 4.68758 0
3.53182 69.4163 4.93243 0
3.01483 68.235 5.44169 0
3.22093 67.8936 5.22244 0
3.46866 72.4424 5.30546 0
3.07808 71.5287 5.7159 0
3.20168 71.3241 5.3023 0
3.11239 72.9835 5.64799 0
2.78137 72.168 6.40892 0
2.97701 71.7656 6.11535 0
2.77833 70.572 6.43268 0
2.04001 69.8174 6.77987 0
2.25183 69.4039 6.44134 0
2.74975 68.5832 5.70089 0
2.29318 67.1599 5.88486 0
3.08403 69.97 5.67496 0
2.47777 68.9688 6.06282 0
1.83097 68.116 6.45475 0
1.81858 66.2271 6.48113 0
2.08801 65.8165 6.37656 0
1.35709 67.4065 7.01878 0
1.54089 66.7968 6.66795 0
1.30024 65.4975 7.0278 0
0.801627 64.8371 7.58344 0
1.12247 64.3331 7.64141 0
3.28471 73.8081 6.38703 0
2.60373 73.3361 6.79255 0
2.71255 72.6584 6.70525 0
2.10369 72.8826 7.33953 0
1.40408 72.5132 7.64269 0
1.70868 71.6504 7.7553 0
0.994626 73.4142 7.38656 0
0.8082 71.9549 8.09849 0
0.214185 71.4851 8.59304 0
0.603221 70.5063 8.69037 0
0.751025 65.4701 7.82376 0
0.233947 64.1724 8.25933 0
1.39779 67.9909 7.59395 0
1.04582 66.7846 7.58593 0
0.74914 66.2014 8.19837 0
0.89264 66.9211 8.97132 0
1.82381 70.2497 7.09805 0
1.57425 69.1335 7.33748 0
2.25791 71.4748 6.94215 0
1.72767 70.8837 7.41613 0
1.21775 70.3529 7.99496 0
0.90453 68.0474 8.65644 0
0.640009 67.5125 9.33443 0
1.17137 68.5601 7.96827 0
0.83242 69.1276 8.22908 0
0.688522 69.7656 8.47122 0
0.430767 69.1537 9.12282 0
3.14439 61.7244 7.78898 0
2.44793 60.4677 7.97759 0
3.92538 64.4943 6.70216 0
3.57372 63.3144 7.3978 0
2.86596 62.2237 7.8804 0
2.54392 62.6497 7.95003 0
3.8846 67.1114 4.95914 0
3.99362 65.6739 5.76594 0
3.88954 68.8354 4.34242 0
3.42104 67.5391 4.97311 0
3.01512 66.4185 5.7371 0
2.82807 63.9026 7.37807 0
2.1998 63.0435 7.95065 0
3.47822 64.8005 6.70596 0
2.95805 65.1072 6.53973 0
2.46911 65.4669 6.44891 0
1.82125 63.4065 7.82507 0
1.97327 64.5941 7.08706 0
1.45267 63.8272 7.70482 0
8.21148 65.9729 20.5985 0
8.98403 65.6156 21.1554 0
9.78018 66.0521 21.1481 0
9.60464 65.5715 21.7075 0
8.93163 65.0896 22.8873 0
9.33223 65.4516 23.5997 0
9.2963 65.2646 22.263 0
10.0568 65.7494 22.3067 0
8.569 64.6109 26.3989 0
9.23567 65.1515 24.7109 0
8.86458 64.7232 25.4784 0
9.00115 64.507 25.7012 0
9.69217 64.6398 25.209 0
9.06955 64.1428 25.7732 0
10.0627 65.9129 23.6774 0
9.65127 65.6445 24.2299 0
10.7615 66.2702 22.3646 0
10.4369 66.0346 22.9872 0
10.791 66.3717 23.7017 0
11.535 66.5443 23.5348 0
11.1542 66.3873 24.2082 0
10.232 65.3521 24.8895 0
10.4391 64.8512 24.9288 0
9.94159 65.6033 24.6617 0
10.6989 65.9372 24.5542 0
11.4593 66.1941 24.4329 0
11.1183 65.2241 24.6629 0
10.5481 64.2849 24.7961 0
12.135 66.3867 24.1794 0
11.7139 65.9551 24.5486 0
11.7291 65.4783 24.2934 0
12.3432 65.6447 23.8731 0
11.6299 64.9047 23.8006 0
14.9297 71.7521 15.8101 0
12.8654 66.2988 23.695 0
12.6617 65.7907 23.0378 0
12.4703 66.855 23.7268 0
12.6633 66.6085 23.7627 0
13.1505 66.8575 23.229 0
13.4484 67.5719 22.868 0
13.5239 67.0398 22.3855 0
11.827 66.9188 22.964 0
12.2078 66.9649 23.4931 0
11.0537 66.5239 21.7727 0
11.4516 66.7546 22.3864 0
12.1219 67.2032 22.3681 0
12.3906 67.7728 21.9306 0
12.7541 67.9659 22.5024 0
13.2294 67.807 22.8423 0
13.7506 68.391 22.5586 0
12.7369 67.289 23.1468 0
13.0178 67.9674 22.7547 0
13.3049 68.5766 22.3173 0
14.0341 68.9508 22.0774 0
14.2217 68.6359 21.8516 0
13.549 69.0055 21.7565 0
13.809 69.0144 21.9666 0
14.3187 69.3803 21.4906 0
14.4751 69.537 20.6628 0
14.7572 69.3608 20.5974 0
9.82171 66.5926 20.6504 0
10.5161 66.4485 21.1877 0
9.9031 66.989 20.0752 0
10.6703 67.2966 20.0615 0
14.1493 69.5079 20.4491 0
14.5799 69.65 19.7538 0
13.1578 68.7923 21.2919 0
13.6803 69.1732 20.8861 0
13.7762 69.3277 20.0531 0
13.4221 69.1663 19.6606 0
13.9116 69.5343 19.2589 0
11.8638 67.4756 21.2543 0
12.4968 68.2642 21.3985 0
11.1978 66.9621 21.2144 0
11.2508 67.4031 20.6717 0
11.3948 67.671 20.0249 0
12.7699 68.6716 19.8351 0
12.8931 68.8709 19.0787 0
12.6046 68.4752 20.6045 0
12.0714 68.1425 19.9636 0
12.2994 68.6392 18.5256 0
12.962 69.1993 18.3818 0
11.6271 68.0877 18.6241 0
14.8937 69.9137 19.0967 0
15.2816 69.7423 19.0962 0
14.0951 69.8547 18.5918 0
14.4661 70.0091 18.955 0
15.1127 70.2308 18.4218 0
15.1947 70.6768 17.8813 0
15.6765 70.4825 17.9265 0
13.5295 69.7899 18.2953 0
14.6603 70.8326 17.8072 0
15.1874 71.1319 17.3671 0
14.0693 70.3243 18.0392 0
14.0474 70.7806 17.5423 0
15.2275 71.4912 16.8805 0
15.7685 71.303 16.9172 0
14.5767 71.5741 16.7807 0
15.1458 71.7116 16.308 0
15.5986 71.6588 15.932 0
12.9826 65.8689 22.0457 0
12.3695 65.1753 22.1805 0
14.0054 67.1972 21.4599 0
13.5221 66.5246 21.7934 0
13.4075 65.797 21.0285 0
13.6009 65.8971 20.0048 0
13.0296 65.2122 20.2142 0
14.8016 68.8331 20.9609 0
14.3923 68.0146 21.1995 0
15.228 69.3035 19.6151 0
15.0158 69.0811 20.2935 0
15.0489 68.5342 19.5825 0
15.2819 68.3328 18.3391 0
14.7313 67.9041 18.7705 0
13.8424 66.7554 19.6501 0
13.2226 66.3427 18.9038 0
14.1607 67.3086 20.3731 0
14.2156 67.4494 19.2554 0
14.3226 67.4119 18.0398 0
13.1119 66.3891 17.8036 0
12.5756 65.8839 18.1635 0
14.4944 67.2793 16.9193 0
13.7775 66.8183 17.3554 0
13.2182 66.1175 16.681 0
13.4981 65.8219 15.6095 0
12.7369 65.5036 15.9696 0
15.9358 69.7859 18.3761 0
15.5859 69.5499 18.9852 0
16.0901 70.5572 17.2593 0
16.0436 70.1323 17.8162 0
16.2739 69.6513 17.5064 0
16.6587 69.4451 16.611 0
16.4496 69.2201 17.0994 0
16.2004 71.1002 16.2945 0
16.1535 70.8047 16.8171 0
15.6721 71.0249 15.3243 0
15.988 71.1246 15.8666 0
16.2685 70.4479 15.6776 0
16.2797 70.0363 14.8874 0
16.535 69.972 15.3137 0
16.7712 69.6331 16.2049 0
17.2115 69.0704 15.7817 0
16.4323 70.2007 16.5642 0
16.8233 69.83 15.7799 0
16.8396 69.6069 14.8625 0
17.5591 68.8753 14.9503 0
17.3413 68.56 15.2788 0
16.8325 69.557 14.0133 0
17.1882 69.208 14.4616 0
17.4758 69.09 14.0181 0
17.3984 69.3205 13.1871 0
17.3462 68.8838 13.4889 0
14.2306 66.3352 15.2019 0
13.8186 65.5278 14.5773 0
15.1155 67.6783 16.544 0
14.6988 67.072 15.8583 0
14.9011 66.9293 14.8384 0
15.5722 67.3008 14.5342 0
15.0872 66.8434 13.893 0
15.7654 68.676 17.9382 0
15.5116 68.1994 17.2487 0
15.7596 69.1603 18.5757 0
16.2736 68.9482 17.5757 0
16.7356 68.5348 16.5812 0
16.0178 67.7993 15.2005 0
16.1951 67.6797 14.2528 0
15.7626 68.0381 16.2056 0
16.4368 68.1136 15.8964 0
17.072 68.2676 15.598 0
16.7489 68.042 14.0213 0
16.3143 67.6606 13.3856 0
17.1634 68.3254 14.6676 0
17.2162 68.4204 13.7952 0
17.2901 68.4845 12.982 0
13.9002 65.6665 13.5658 0
13.1529 65.2441 13.8719 0
15.2122 66.8131 12.9902 0
14.5406 66.3382 13.247 0
13.8574 66.0434 12.5629 0
13.9511 66.117 11.6925 0
13.1953 65.5718 11.9565 0
16.4363 67.6619 12.5692 0
15.8285 67.2407 12.7612 0
17.3652 68.5388 12.266 0
17.0357 68.0882 12.4197 0
16.632 67.5989 11.8192 0
16.7705 67.5568 11.1134 0
16.1849 67.0871 11.2007 0
14.7094 66.4242 11.4926 0
14.1199 66.0889 10.9203 0
15.3004 66.8168 12.1193 0
15.448 66.7424 11.326 0
15.6996 66.7795 10.6503 0
14.37 66.0796 10.2156 0
13.611 65.5616 10.4259 0
15.9342 66.8038 9.9809 0
15.1862 66.4802 10.094 0
14.6856 66.0459 9.53856 0
14.9237 66.1853 8.89973 0
14.2183 65.5519 9.01829 0
8.64625 74.5312 6.94837 0
7.85968 74.2376 7.13746 0
8.23771 74.0054 7.45431 0
4.30082 74.9281 6.3324 0
3.96522 74.4747 5.98846 0
7.47099 74.5925 6.75068 0
7.15102 74.0978 7.33592 0
7.79641 75.1951 6.25677 0
7.02726 74.9673 6.37737 0
6.61193 75.084 6.04104 0
6.31788 74.6283 6.56468 0
6.90023 75.5514 5.82624 0
6.20405 75.1331 5.94068 0
6.85228 75.9488 5.9439 0
5.67095 75.162 5.79972 0
5.4124 74.6644 6.07714 0
5.88456 75.6629 5.69853 0
4.89802 75.1687 5.70693 0
3.92105 74.1129 5.6823 0
6.38912 73.9467 7.56701 0
6.75156 73.6511 7.98162 0
5.62949 74.166 6.66093 0
6.02697 74.129 7.1037 0
5.91703 73.62 7.4101 0
5.30313 73.0996 7.23896 0
5.80828 73.0954 7.71489 0
4.57612 74.1406 5.83287 0
5.18325 74.1675 6.22659 0
3.83853 73.7902 5.60332 0
3.77694 73.4594 5.5467 0
3.82696 73.015 5.5544 0
4.8282 73.096 6.67326 0
4.84297 72.5118 6.66431 0
4.9761 73.6509 6.48705 0
4.31361 73.1046 6.09617 0
3.83375 72.5072 5.55952 0
4.34098 71.9719 6.05498 0
4.87163 71.9109 6.65385 0
3.84102 72.0244 5.44724 0
3.85771 71.5299 5.2903 0
3.97353 71.1292 5.06735 0
15.6267 66.8795 8.87225 0
15.1221 66.5544 8.36268 0
16.6219 67.0984 9.87236 0
16.1223 66.9407 9.34991 0
16.277 67.2508 8.76919 0
16.812 67.839 8.71668 0
16.3179 67.8372 8.22279 0
17.1646 68.1301 11.0772 0
16.83 67.5977 10.4668 0
17.4503 68.9113 12.1203 0
17.3658 68.5465 11.6325 0
17.2876 68.5716 10.9813 0
17.2974 69.0447 10.864 0
17.1365 68.7247 10.3453 0
17.1679 68.1355 9.28299 0
17.2147 68.6481 8.74375 0
16.9914 67.7295 9.85092 0
17.2399 68.5316 9.8609 0
17.1982 69.0091 9.76145 0
17.2712 69.1039 8.66486 0
17.0722 68.8209 8.04939 0
16.9964 69.3771 9.655 0
17.1568 69.2991 9.1913 0
17.0618 69.5468 8.60426 0
16.7865 69.7723 8.47724 0
16.8937 69.6032 7.85734 0
17.2396 69.771 12.9399 0
17.4001 69.3459 12.5394 0
16.4986 69.6528 13.7356 0
16.9458 69.883 13.3278 0
17.0391 70.1283 12.7087 0
16.458 69.6629 12.5292 0
16.8466 69.738 12.1418 0
15.9277 70.1265 14.5089 0
16.2039 69.8219 14.1453 0
15.3138 71.0432 14.909 0
15.6241 70.4891 14.7958 0
15.5332 70.2187 14.1211 0
15.024 70.2649 13.9085 0
15.2821 69.9355 13.6044 0
16.0055 69.4355 12.9035 0
15.861 69.1898 12.365 0
16.1422 69.7011 13.4741 0
15.5828 69.6455 13.29 0
15.0389 69.6595 13.1132 0
15.2572 69.2847 12.2448 0
15.6552 69.053 11.8623 0
14.4647 69.8596 13.0042 0
14.8248 69.5014 12.6413 0
14.5809 69.4263 12.2065 0
13.9302 69.7541 12.1668 0
14.3492 69.3468 11.772 0
16.5199 69.7545 9.00423 0
16.3244 69.6243 8.2677 0
16.7778 69.2641 10.1488 0
16.6258 69.564 9.59474 0
16.2431 69.7257 9.51242 0
15.8626 69.4816 10.0028 0
15.6826 69.5304 9.37614 0
17.1806 68.9358 11.3503 0
16.9793 69.0298 10.7266 0
17.405 69.3269 11.9194 0
17.0585 69.3868 11.7541 0
16.6037 69.199 11.5964 0
16.0934 69.184 10.5422 0
15.4703 69.1575 10.471 0
16.6263 69.1153 10.6252 0
16.3398 68.922 11.0768 0
16.0036 68.9818 11.4644 0
15.0913 69.0399 10.9136 0
14.8788 69.1065 10.3527 0
15.3684 69.0462 11.3921 0
14.7253 69.1884 11.3457 0
14.0996 69.3702 11.2631 0
15.8491 69.424 8.05921 0
16.1515 69.5001 7.45723 0
15.1054 69.313 9.25442 0
15.4858 69.3804 8.66121 0
15.2919 69.3152 7.94256 0
14.7186 69.2263 7.83742 0
15.0988 69.3598 7.19757 0
14.2913 69.2903 10.2576 0
14.6867 69.1889 9.75558 0
13.2895 69.3618 11.2692 0
13.8663 69.4007 10.7302 0
13.6737 69.4336 10.1711 0
12.9775 69.6575 10.1039 0
13.476 69.3946 9.55377 0
14.3262 69.223 8.44202 0
14.1455 69.2081 7.73047 0
14.5149 69.2222 9.13912 0
13.9175 69.2815 9.02994 0
13.305 69.3457 8.92553 0
13.4822 69.0467 7.69442 0
13.9103 69.1271 7.03877 0
12.6208 69.4235 8.92741 0
13.0749 69.1433 8.30196 0
12.8244 68.8831 7.66574 0
12.1879 68.9422 7.65875 0
12.6024 68.767 6.99759 0
11.7759 69.242 8.30419 0
11.5887 68.9668 7.59936 0
12.1065 69.6907 9.47783 0
11.9522 69.4796 8.9309 0
11.3147 69.4565 8.95623 0
10.7985 69.6172 9.60699 0
10.6504 69.3212 9.00135 0
12.3514 69.6142 10.6634 0
12.2608 69.8335 10.0475 0
12.7329 69.4596 11.781 0
12.4839 69.3854 11.2757 0
11.9554 69.714 11.0958 0
11.6735 70.1303 11.3794 0
11.5056 70.067 10.8824 0
10.9423 69.8137 10.1615 0
10.3157 69.9249 10.201 0
11.6025 69.8565 10.0868 0
11.2445 69.9892 10.5064 0
10.91 70.3517 10.8786 0
9.96987 70.5024 10.5779 0
9.71059 69.9199 10.175 0
10.7312 71.1812 11.1692 0
10.2775 70.7137 10.909 0
9.7036 71.0716 10.878 0
9.74875 71.7018 10.9689 0
9.31034 71.3805 10.7438 0
13.4897 70.1183 12.5841 0
13.0978 69.8046 12.1848 0
14.2373 70.2453 13.2948 0
13.8309 70.1935 12.9649 0
13.2518 70.5278 12.8327 0
13.1613 70.9725 12.9414 0
12.6809 70.7504 12.6355 0
14.8045 70.7136 14.1382 0
14.5677 70.3827 13.7008 0
15.007 71.1831 14.5276 0
14.568 71.2874 14.2681 0
13.5781 71.0259 13.3138 0
13.1039 71.3988 13.0512 0
14.05 70.6272 13.5596 0
13.9869 71.281 13.6598 0
13.1693 72.0499 13.0004 0
12.7254 71.8655 12.7622 0
10.1985 72.1042 11.2229 0
9.80015 72.3249 11.0457 0
11.1782 71.5336 11.4456 0
10.6083 71.9477 11.4007 0
10.7145 72.4918 11.4346 0
11.3477 72.6423 11.4153 0
10.9401 72.8006 11.169 0
11.9083 70.2626 11.8577 0
11.4901 70.825 11.6417 0
12.4476 69.9718 12.0624 0
12.2261 70.4939 12.3167 0
12.1556 71.0062 12.4059 0
11.4734 72.2808 11.9133 0
11.7233 72.6399 11.6972 0
11.3973 71.606 11.9093 0
11.7962 71.5672 12.1426 0
12.2469 71.6688 12.4386 0
12.0332 73.0482 11.3528 0
10.1814 72.7892 10.6711 0
9.66346 72.4813 10.5393 0
11.4341 73.1448 10.6265 0
10.8401 73.0056 10.6093 0
12.1033 73.5294 9.86395 0
10.9733 68.9281 7.58995 0
11.4003 68.8009 6.91588 0
9.98546 69.1924 9.04267 0
10.4825 69.0508 8.33781 0
10.3783 68.9302 7.65067 0
9.80555 68.987 7.72068 0
10.2672 68.8704 7.00727 0
9.13846 69.9862 10.1503 0
9.52934 69.4607 9.64401 0
8.91815 71.6982 10.6157 0
9.00583 70.903 10.4104 0
8.67095 70.3914 10.1324 0
8.16767 70.8092 10.1615 0
8.37665 69.8386 9.76157 0
9.32288 68.8751 8.37688 0
9.25704 68.8883 7.72246 0
9.42099 69.0746 9.01145 0
8.8145 68.9114 9.05312 0
8.24905 69.2659 9.10963 0
8.69998 68.8966 7.76337 0
9.16839 69.0216 7.11077 0
7.65029 69.707 9.20207 0
8.15109 68.9683 8.48376 0
8.14298 69.0496 7.82593 0
7.58811 69.3152 7.85266 0
8.08185 69.1322 7.19333 0
9.62198 72.5802 9.92903 0
9.24306 72.1533 10.3149 0
9.45729 72.8073 9.52463 0
9.35348 73.1083 9.02223 0
8.85031 72.5291 9.60101 0
9.13895 73.3211 8.57695 0
8.8782 73.4958 8.15633 0
8.36853 72.861 8.77411 0
8.59513 73.7567 7.77584 0
7.84717 73.5384 8.04171 0
7.01404 69.568 8.60279 0
6.94454 69.4938 7.90118 0
7.37526 70.5733 9.7379 0
7.19447 70.0671 9.19612 0
6.76883 70.332 9.07476 0
6.5918 71.113 9.4834 0
6.33384 70.5563 8.89124 0
8.2573 71.465 10.1745 0
7.85323 71.0009 9.96122 0
8.67669 71.8708 10.3242 0
8.4077 72.0269 10.0799 0
8.16786 72.194 9.75368 0
7.08937 71.4454 9.58868 0
6.74479 71.6568 9.369 0
7.44695 71.2578 9.80999 0
7.59311 71.8093 9.70647 0
7.86471 72.2877 9.38648 0
6.9318 72.1505 9.14935 0
6.34971 71.9243 9.2109 0
7.54878 72.3922 9.03789 0
7.31378 72.8413 8.70425 0
7.0646 73.3213 8.36598 0
6.48103 69.7538 7.70472 0
6.8889 69.5406 7.17364 0
5.94117 70.7851 8.67355 0
6.1104 70.0758 8.22171 0
6.06753 70.1154 7.42674 0
5.69245 70.4742 7.07599 0
6.00429 70.2612 6.60404 0
6.15017 72.3705 8.82843 0
5.83034 71.5966 9.06698 0
6.53283 73.0865 8.38043 0
6.08094 72.8061 8.24164 0
5.68362 72.3473 7.77288 0
5.50782 70.7794 7.46505 0
5.28804 70.7118 6.6517 0
5.65749 71.064 8.27648 0
5.5041 71.4058 7.70616 0
5.19674 71.6619 7.19747 0
4.84081 70.9382 6.16672 0
5.11093 70.6833 5.71872 0
4.86216 71.4292 6.4093 0
4.37148 71.0382 5.64452 0
4.35522 70.9493 4.68175 0
15.266 67.0398 7.82737 0
14.631 66.348 7.94673 0
16.3541 68.3593 7.65155 0
15.8319 67.7764 7.71257 0
15.3335 67.5339 7.21749 0
15.4271 67.7826 6.50431 0
14.8981 66.922 6.6138 0
16.9454 68.9341 7.32094 0
16.8416 68.5864 7.45297 0
16.7361 69.523 7.02506 0
16.9094 69.2565 7.19543 0
17.0315 69.0674 6.51485 0
17.0998 69.2118 5.65584 0
16.9871 68.8261 5.84957 0
15.9665 68.3897 6.32455 0
15.5027 67.9559 5.71063 0
16.5012 68.4723 6.87295 0
16.5829 68.5742 6.08017 0
16.5315 68.6962 5.25149 0
15.4815 68.1048 4.94559 0
14.9667 67.3405 5.11832 0
16.4459 68.793 4.41812 0
15.9617 68.5817 4.70156 0
15.4159 68.1602 4.12292 0
15.2984 68.2877 3.35871 0
14.8155 67.6979 3.59731 0
15.9435 69.5444 6.68088 0
16.4393 69.5836 6.82255 0
14.9019 69.4438 6.43814 0
15.4542 69.5195 6.53785 0
15.7264 69.6368 5.90432 0
15.482 69.7256 5.10989 0
15.9724 69.7449 5.24715 0
13.7085 69.2206 6.29777 0
14.3198 69.3506 6.35376 0
12.4267 68.8865 6.27624 0
13.0642 69.0538 6.28333 0
13.498 69.3257 5.54741 0
13.2596 69.4142 4.7621 0
13.8512 69.5263 4.80472 0
14.96 69.667 4.96573 0
15.1954 69.7726 4.29609 0
14.6669 69.5323 5.67554 0
14.4162 69.6096 4.87755 0
14.1549 69.6737 4.07682 0
14.8276 69.8273 3.44789 0
15.3063 69.8483 3.57598 0
13.8537 69.8544 3.34777 0
14.3724 69.889 3.41635 0
14.5032 69.9896 2.71674 0
14.1592 70.6498 2.22085 0
14.5986 70.6201 2.27313 0
15.6378 68.738 3.01037 0
15.0615 68.4894 2.52571 0
16.6391 69.0618 4.16966 0
16.2226 68.8956 3.55038 0
15.9172 69.0698 2.66414 0
15.9303 69.4215 2.47305 0
15.6631 69.2661 1.89754 0
16.9343 69.4891 5.50244 0
16.9443 69.3312 4.80663 0
16.6891 69.5728 6.18139 0
16.4426 69.6723 5.38098 0
16.1595 69.7516 4.57287 0
16.1513 69.5385 3.1176 0
15.7809 69.8695 2.36683 0
16.5347 69.412 3.95605 0
16.1759 69.6462 3.84702 0
15.756 69.7992 3.72649 0
15.38 70.0035 2.23683 0
15.4001 70.1704 1.61036 0
15.361 69.8348 2.8755 0
14.9907 70.3343 2.24217 0
14.6265 71.0516 1.80197 0
14.7309 68.7331 1.79458 0
14.2461 68.2445 2.22437 0
15.404 69.4726 1.2155 0
15.117 69.1128 1.45395 0
14.1648 69.1738 1.39434 0
13.5496 69.5651 1.00372 0
13.2096 68.929 1.25014 0
15.0155 70.5533 1.21237 0
15.3021 69.9361 1.09577 0
14.2392 71.4848 1.40833 0
14.6234 71.0606 1.33387 0
14.6358 70.9203 0.867525 0
14.1169 71.0759 0.51626 0
14.3715 70.5986 0.340471 0
13.9134 69.9531 0.689426 0
12.9775 69.5835 0.522227 0
15.0133 69.7383 0.63219 0
14.3383 70.0371 0.274163 0
13.6558 70.243 -0.0976609 0
12.3035 69.3786 0.0535943 0
12.1108 68.8974 0.203737 0
12.7751 70.1081 -0.417672 0
12.5632 69.8415 -0.139678 0
11.5815 68.8171 -0.598 0
10.8128 67.9201 -1.28247 0
10.9438 67.6553 -1.1638 0
11.2307 68.7796 6.26085 0
11.8198 68.8865 6.24968 0
10.096 68.7947 6.38453 0
10.6494 68.6891 6.29892 0
11.0534 68.7098 5.62212 0
10.823 68.8681 4.88001 0
11.4166 68.979 4.82939 0
9.05989 69.1634 6.48114 0
9.58704 69.0607 6.44618 0
8.0469 69.4242 6.51273 0
8.55005 69.2579 6.50227 0
8.95954 69.3757 5.83208 0
8.73745 69.5728 5.14185 0
9.22788 69.456 5.11406 0
10.2543 69.0053 4.96863 0
10.6044 69.2841 4.16989 0
9.95966 68.8887 5.73302 0
9.73628 69.2753 5.04785 0
9.50517 69.5833 4.33707 0
10.2993 69.8025 3.53218 0
10.8764 69.6638 3.4288 0
9.2104 69.9078 3.63754 0
9.73603 69.8576 3.59083 0
9.96973 70.2475 2.89091 0
9.49116 70.4936 2.2014 0
10.0359 70.499 2.15809 0
6.91768 69.8791 6.3141 0
7.46857 69.6466 6.46888 0
5.92692 70.3705 5.67223 0
6.42343 70.1881 6.05447 0
6.87442 70.1684 5.46275 0
6.70773 70.1524 4.70211 0
7.23027 70.0137 4.90677 0
5.01592 70.6236 4.76896 0
5.40571 70.4465 5.23965 0
4.68361 70.7557 4.28667 0
4.98988 70.3907 4.06512 0
5.34408 70.0955 3.83455 0
6.20047 70.1643 4.49489 0
6.57473 70.0324 3.97202 0
5.81047 70.3413 4.81781 0
5.71666 70.2023 4.13049 0
5.69404 69.8218 3.56907 0
6.27633 69.8233 3.33052 0
6.76296 69.8101 3.5154 0
5.93082 69.4321 3.26209 0
6.13 69.235 2.79102 0
6.4916 69.0371 2.55047 0
8.95394 70.4892 2.24355 0
8.90606 70.6397 1.54338 0
8.69987 69.9961 3.69048 0
8.88346 70.2648 2.95887 0
8.49204 70.3373 2.32577 0
7.96014 70.2406 2.32416 0
8.06659 70.3079 1.76153 0
8.2375 69.7491 5.12061 0
8.49142 69.7678 4.4233 0
7.97192 69.7234 5.81121 0
7.76785 69.8418 5.06406 0
7.54575 69.9381 4.29775 0
7.79866 70.0853 2.93769 0
7.41733 70.1341 2.30775 0
8.15036 69.9149 3.67535 0
7.67524 69.988 3.61689 0
7.19563 69.9951 3.55466 0
7.11102 69.795 2.41813 0
7.26112 69.851 1.87887 0
6.89389 69.8524 2.88262 0
6.71585 69.5545 2.40439 0
6.77934 68.8237 2.13093 0
8.43693 70.6241 1.02701 0
8.88517 70.7765 0.964064 0
7.58997 70.2844 1.18159 0
8.03445 70.46 1.11768 0
7.94682 70.5439 0.589519 0
7.58709 70.2174 0.212233 0
7.96236 70.5704 0.163427 0
7.20191 69.2867 1.57787 0
7.43756 69.8092 1.41475 0
7.23823 68.4941 2.03292 0
7.56218 68.072 1.79111 0
7.8477 67.3125 1.54424 0
7.73448 69.356 0.62119 0
8.25958 68.6913 0.51098 0
7.48293 69.7703 0.935968 0
7.87542 68.4071 1.10062 0
8.21605 66.6458 1.35683 0
8.65474 66.7956 0.775744 0
8.7006 67.742 0.385752 0
8.57429 65.8985 1.17257 0
8.59051 64.9947 0.930547 0
8.40513 63.9692 0.745801 0
10.6646 68.3189 -1.35212 0
10.5399 66.6138 -2.25992 0
12.7694 70.4314 -0.424757 0
11.7581 69.6971 -0.817239 0
10.7389 68.5228 -1.40216 0
10.6671 68.6822 -1.47714 0
10.193 66.5192 -2.32231 0
13.5911 71.3693 0.701765 0
13.3605 70.9239 0.14712 0
13.7187 71.6567 1.48655 0
13.684 71.5677 1.12278 0
13.0666 71.5875 0.842232 0
12.5633 71.6534 0.795378 0
12.3272 71.2975 0.287699 0
11.5181 70.245 -0.923899 0
10.5145 68.789 -1.4613 0
12.4886 70.7023 -0.268037 0
11.9963 70.82 -0.307677 0
11.5272 70.8806 -0.372684 0
10.4747 68.728 -1.37051 0
9.90432 66.639 -1.83553 0
11.0515 70.9315 -0.410566 0
10.7529 70.1999 -0.913023 0
10.137 68.5391 -1.32415 0
9.77594 68.2798 -1.29361 0
9.67058 66.42 -1.5783 0
13.6303 70.6631 2.19328 0
13.6901 71.3558 1.79812 0
13.2913 69.7823 3.29198 0
13.525 70.0315 2.63652 0
13.0484 70.6193 2.1703 0
12.4649 70.5579 2.14123 0
12.524 71.323 1.7797 0
12.6449 69.2798 4.76149 0
13.0194 69.5103 3.96643 0
12.2432 69.0207 5.54708 0
12.0176 69.1278 4.78773 0
11.7851 69.2421 4.01222 0
12.3245 69.9221 2.60376 0
11.8762 70.3086 2.07978 0
12.6845 69.7121 3.27726 0
12.0782 69.5895 3.29539 0
11.469 69.5446 3.33847 0
11.2829 70.348 2.13405 0
11.3666 70.7393 1.65508 0
11.1276 70.0618 2.73659 0
10.6907 70.4884 2.225 0
10.1256 70.6852 1.61958 0
9.9944 69.7305 -0.830969 0
9.65413 67.9986 -1.11801 0
11.2802 71.2037 0.127866 0
10.64 70.6932 -0.383718 0
10.199 70.4394 -0.360012 0
10.3527 70.77 0.166688 0
9.7437 70.1505 -0.351221 0
12.5963 71.7036 1.14785 0
11.9975 71.5249 0.697677 0
13.1472 71.6804 1.46426 0
12.5673 71.6817 1.4412 0
11.9924 71.492 1.35621 0
10.8913 71.2481 0.617938 0
10.2037 71.1487 0.441929 0
11.431 71.4046 0.628026 0
11.4374 71.4082 0.979291 0
11.4209 71.2128 1.3028 0
10.142 71.0417 0.737212 0
9.52088 71.0534 0.288182 0
10.8292 70.9397 1.26129 0
10.1447 70.8399 1.1022 0
9.51221 70.8069 1.03766 0
9.55888 67.6016 -0.937967 0
9.36344 65.8638 -1.21707 0
9.44251 69.8871 -0.290238 0
9.60579 69.0192 -0.630141 0
9.46568 67.1139 -0.757161 0
9.28615 66.596 -0.507972 0
8.94363 65.0697 -0.783818 0
8.84462 70.9526 0.11445 0
9.13094 70.4921 -0.0831658 0
8.85199 70.9034 0.522289 0
8.40551 70.7845 0.15767 0
8.3627 70.1369 -0.0217002 0
9.3742 68.1033 -0.311844 0
9.072 66.0387 -0.251194 0
9.10841 69.6539 -0.249145 0
8.78741 69.3446 -0.213389 0
8.71939 68.6617 0.041965 0
8.83472 65.3544 0.0483458 0
8.48623 64.1686 -0.170358 0
8.96486 66.5989 0.243353 0
8.6504 64.6599 0.380367 0
7.86578 63.0522 0.605091 0
10.2791 64.6249 -3.02215 0
10.5561 65.0751 -2.8632 0
9.82408 64.6166 -2.65633 0
10.0233 64.527 -2.94209 0
9.89957 63.1001 -3.05442 0
9.65103 62.2019 -2.80436 0
10.0686 62.3654 -2.91631 0
9.52467 64.7272 -2.15274 0
9.68479 64.7072 -2.39189 0
9.14336 64.5383 -1.71415 0
9.33702 64.6581 -1.93186 0
8.91954 63.3771 -2.09476 0
8.47695 62.2891 -1.69977 0
8.72998 62.2601 -1.98015 0
9.33251 62.2139 -2.56012 0
9.44186 61.507 -2.46691 0
9.32858 63.1957 -2.63939 0
8.99347 62.2278 -2.24784 0
8.72446 61.3775 -1.81278 0
9.22655 60.8393 -1.96572 0
9.61246 60.8888 -2.26982 0
8.58841 60.7879 -1.20604 0
8.86253 60.7494 -1.63273 0
9.01788 60.1318 -1.39057 0
9.13265 59.7076 -0.419915 0
9.33775 59.591 -0.778527 0
8.74085 64.0513 -1.23908 0
8.94517 64.3367 -1.48956 0
8.20945 63.4337 -0.626083 0
8.49862 63.7472 -0.954785 0
7.87751 62.8752 -0.801979 0
7.22679 61.896 -0.126446 0
7.57904 62.0619 -0.567832 0
7.49727 62.7084 0.273358 0
7.87024 63.1121 -0.191918 0
6.98657 62.3142 0.793455 0
6.40807 61.643 1.01916 0
6.30104 60.9916 1.37133 0
6.8719 61.6177 0.2767 0
6.76788 60.9323 0.525605 0
7.11024 62.3158 -0.0167256 0
6.54814 61.3076 0.76533 0
6.36917 60.3887 1.66966 0
6.91584 60.238 1.52967 0
7.18706 60.5847 1.04261 0
6.67033 59.8186 2.063 0
7.02247 59.3101 2.42811 0
7.2713 58.6718 2.64671 0
8.92939 59.8172 0.00784264 0
9.3115 59.2801 0.625991 0
8.36603 60.9102 -0.725302 0
8.52917 60.3144 -0.495861 0
8.71713 59.9252 0.506506 0
8.41893 59.8498 0.903701 0
8.81578 59.2962 1.40049 0
8.19271 62.3004 -1.34208 0
8.09679 61.3637 -1.11159 0
8.45132 63.2272 -1.5013 0
7.89293 62.1974 -0.965511 0
7.46496 61.2549 -0.328279 0
8.07739 60.3904 0.502971 0
8.15236 59.7582 1.35547 0
8.05313 60.881 -0.338196 0
7.78339 60.8244 0.119168 0
7.51958 60.745 0.604619 0
7.91564 59.5891 1.85336 0
8.20904 58.9743 2.19666 0
7.59917 60.1943 1.51511 0
7.57944 59.1429 2.22506 0
7.53324 58.0182 2.93485 0
9.15428 58.3816 1.43362 0
9.37994 58.3047 1.11709 0
8.58305 58.3132 2.08326 0
8.87698 58.3836 1.71294 0
8.92201 57.4171 2.16295 0
8.68778 56.3906 2.99217 0
8.94568 56.371 2.7499 0
8.05893 57.7597 2.85067 0
8.30943 58.0972 2.4719 0
7.76893 57.3191 3.23492 0
7.92838 56.5513 3.56531 0
8.01947 55.7538 3.94057 0
8.45083 56.2671 3.24621 0
8.56117 55.3204 3.79276 0
8.39455 57.2169 2.76791 0
8.22273 56.0615 3.55791 0
8.17668 55.0328 4.35112 0
8.61821 54.5752 4.548 0
8.82937 54.6564 4.35375 0
8.47478 54.466 4.81696 0
8.76719 53.9492 5.23829 0
9.10213 53.6391 5.57978 0
8.6964 63.8797 25.5675 0
8.02667 64.0353 26.5187 0
10.2724 63.7588 24.5253 0
9.50752 63.7995 25.0327 0
11.267 64.3644 23.1508 0
10.8426 64.1042 23.9427 0
9.98773 63.2438 24.2118 0
9.58938 62.8776 23.4851 0
8.84675 63.125 24.0885 0
7.22106 63.5515 25.563 0
6.11718 63.4286 25.7794 0
8.33419 63.6328 25.2707 0
7.99725 63.3621 24.6661 0
7.69585 63.0494 24.0186 0
7.42385 62.6167 23.3001 0
6.609 62.976 24.0123 0
5.30049 62.5227 23.0508 0
12.1174 64.4413 21.4938 0
11.6825 64.485 22.3929 0
12.4254 64.7838 19.5418 0
12.424 64.5096 20.4595 0
11.7854 63.7356 20.9273 0
11.3114 63.1132 20.3062 0
11.081 63.014 21.1698 0
11.9416 65.397 17.4337 0
12.2349 65.1115 18.5249 0
12.2878 64.8859 15.2708 0
12.0667 65.1959 16.3373 0
11.2387 64.9517 16.8604 0
10.5873 64.4516 16.2566 0
10.6037 64.4279 17.3397 0
11.2889 63.4972 19.3284 0
10.8681 62.4061 19.5209 0
11.7345 64.3754 18.9692 0
10.882 64.0541 18.3423 0
10.1339 63.7335 17.7184 0
10.1926 61.9163 18.9161 0
10.2737 61.5006 19.7431 0
9.34947 63.5329 17.2043 0
9.82093 62.6579 18.0206 0
9.5528 61.3791 18.4216 0
8.7183 61.0731 17.9945 0
8.99282 60.3752 18.7996 0
12.3647 65.1636 13.1584 0
12.3545 64.9747 14.1904 0
12.6673 64.793 11.452 0
12.4825 65.0728 12.2655 0
11.7334 64.989 12.7209 0
11.1697 64.7917 12.3755 0
11.054 64.3872 13.2921 0
13.1795 65.0217 10.032 0
12.9019 64.8619 10.709 0
13.638 65.7473 8.84742 0
13.454 65.1453 9.36063 0
12.7074 64.6545 9.73264 0
12.0984 64.5822 9.59605 0
12.0152 64.1322 10.0993 0
11.4095 64.563 11.5389 0
10.5835 64.5875 12.0629 0
12.1871 64.3164 11.0631 0
11.7446 64.0618 10.7634 0
11.2563 63.8504 10.5122 0
10.0396 64.207 11.8083 0
9.772 64.257 12.5859 0
10.5859 64.1007 10.3422 0
10.3639 63.9522 11.044 0
9.49055 63.9626 11.563 0
8.89209 63.9235 11.3309 0
8.63681 63.8991 12.0501 0
8.15521 62.0738 17.2049 0
7.82734 60.8587 17.5726 0
9.07844 64.1794 16.3474 0
8.55498 63.2273 16.7944 0
7.97856 62.7886 16.4038 0
7.92227 63.3375 15.5926 0
7.35704 62.415 15.935 0
10.7146 64.3521 15.2274 0
9.86402 64.3791 15.787 0
11.6077 64.5215 14.7479 0
10.928 64.1888 14.2489 0
10.2465 64.1662 13.8392 0
8.61143 64.0432 14.9551 0
8.1257 63.6382 14.5472 0
9.17758 64.3975 15.3514 0
9.34196 64.406 14.3893 0
9.56861 64.2248 13.4532 0
8.33586 63.7812 13.6022 0
7.74955 63.123 14.0441 0
9.02432 64.0152 13.0962 0
8.46569 63.8614 12.8029 0
7.99238 63.5164 12.4932 0
7.10632 60.5892 17.1502 0
7.2741 59.8836 18.0257 0
6.91027 61.9393 15.4085 0
6.88637 61.3717 16.31 0
7.19002 62.256 14.5042 0
7.60692 63.0681 12.18 0
7.47429 62.9438 12.9244 0
6.06038 62.1095 22.4381 0
8.2081 62.2761 22.6963 0
7.16775 62.1268 22.6404 0
6.85423 61.5472 21.9274 0
7.55774 60.9439 21.459 0
6.47546 60.8638 21.2932 0
10.1032 63.1519 22.6417 0
9.20255 62.5286 22.7335 0
10.9318 63.7987 22.554 0
10.6342 63.0603 21.9016 0
10.3332 62.3238 21.2176 0
8.56207 61.154 21.5259 0
8.2397 60.3908 20.9224 0
8.89622 61.8536 22.1269 0
9.47685 61.7088 21.358 0
9.98644 61.5144 20.5773 0
8.7902 60.0909 20.1485 0
7.90415 59.6302 20.2997 0
9.63852 60.6756 19.9499 0
9.02464 60.0618 19.5003 0
8.29879 59.5815 19.1452 0
5.33494 61.0955 20.9411 0
6.04083 60.3584 20.596 0
5.5436 59.8694 20.018 0
6.73988 59.6592 20.2324 0
6.41173 58.967 19.4985 0
7.25505 59.2257 19.8168 0
7.41475 59.1593 19.3845 0
7.4833 59.2955 18.8064 0
6.58167 59.1723 18.4335 0
13.9975 66.4524 7.65489 0
13.8357 66.1599 8.30715 0
14.2247 66.8446 6.21128 0
14.1305 66.7002 6.95277 0
13.3413 66.5096 7.33307 0
12.6562 66.307 7.19646 0
12.5395 66.2139 7.93144 0
14.2527 67.117 4.66358 0
14.2626 66.9714 5.44111 0
14.0399 67.4817 3.1576 0
14.1664 67.2847 3.90408 0
13.4149 66.9894 4.27156 0
12.6427 66.742 4.0707 0
12.6545 66.7486 4.88524 0
12.7347 66.3842 6.43244 0
11.9859 66.0814 7.05869 0
13.4962 66.7151 5.81545 0
12.7231 66.5641 5.6621 0
11.9089 66.4594 5.53826 0
11.4777 65.5763 6.7994 0
11.4224 65.4911 7.53178 0
11.3504 65.9233 5.28331 0
11.4601 65.7287 6.06858 0
10.9731 65.1191 6.56197 0
10.5227 64.6331 6.25443 0
10.535 64.4935 6.98323 0
13.2805 68.0042 1.94708 0
13.7841 67.6122 2.48202 0
12.3808 68.3613 0.832324 0
12.867 68.1543 1.31906 0
12.4552 67.3889 1.42426 0
11.7048 66.6084 1.08495 0
12.1224 66.4582 1.73388 0
11.2332 67.7884 -0.460289 0
11.8778 68.2575 0.170908 0
10.7048 66.5363 -2.00353 0
10.9067 67.3277 -1.16437 0
10.8022 66.7438 -1.25456 0
10.7118 66.0078 -1.7641 0
10.7995 66.3649 -1.05824 0
11.3307 66.6694 0.33641 0
11.0132 65.8119 0.677213 0
11.5088 67.3786 0.133158 0
10.8222 66.5104 -0.338736 0
10.6332 65.7709 -0.819615 0
10.6355 65.161 0.246036 0
10.9875 65.0372 1.04773 0
10.6944 65.08 -1.30256 0
10.6111 65.1696 -0.560431 0
10.6249 64.5344 -0.20675 0
10.7017 63.8679 -0.717099 0
10.5846 63.8573 0.123458 0
10.5182 64.5425 5.4986 0
10.0797 63.9891 5.93115 0
11.3014 65.8609 4.44719 0
10.8581 65.2184 4.98705 0
10.3718 64.5618 4.6511 0
10.2797 64.5052 3.75569 0
9.95451 63.9032 4.28232 0
12.6014 66.6354 3.25925 0
11.9483 66.3258 3.89112 0
13.1693 67.0979 2.75094 0
12.415 66.5746 2.48309 0
11.6656 65.838 2.22679 0
10.8567 64.8658 3.2466 0
10.3691 64.186 2.86247 0
11.3469 65.6592 3.58646 0
11.4109 65.3057 2.70526 0
11.13 65.0645 1.91094 0
10.598 63.863 1.93832 0
10.008 63.5352 2.41051 0
10.7801 64.5098 1.50133 0
10.4902 63.8314 1.03169 0
10.4199 63.1492 0.538991 0
9.8153 63.3879 5.64655 0
9.75479 63.4578 6.37462 0
9.81667 63.3262 3.92668 0
9.87196 63.3755 4.83905 0
9.64271 62.8185 5.32776 0
9.70625 62.1603 4.89033 0
9.36084 62.2957 5.73919 0
10.1418 63.0341 2.01085 0
9.875 63.2971 2.97549 0
10.5778 62.7212 0.164898 0
10.3749 62.7532 1.0858 0
10.4043 62.6375 1.65768 0
11.227 62.231 1.50281 0
10.9356 62.4238 2.33728 0
10.1189 62.3101 4.07313 0
10.0853 61.6528 4.46633 0
9.94237 62.7852 3.54476 0
10.5369 62.4863 3.18281 0
11.3777 62.1528 2.92743 0
10.7979 61.2066 4.29337 0
10.2601 60.9726 5.07651 0
12.1426 61.7295 2.77918 0
11.5296 61.5973 3.52729 0
11.5359 60.8828 4.15382 0
12.3746 61.0875 4.07321 0
11.7618 60.6424 4.8422 0
10.8267 63.8528 -3.19432 0
10.8278 65.3639 -2.73522 0
10.2647 61.7887 -2.74803 0
10.5601 62.6755 -3.04701 0
11.1516 63.2724 -3.12684 0
11.5388 62.966 -3.10771 0
11.6734 63.954 -3.12599 0
9.82567 60.2772 -1.9162 0
10.0151 60.9779 -2.48063 0
9.66743 58.9739 -0.113404 0
9.74616 59.6594 -1.02928 0
10.0858 59.811 -1.49578 0
10.3242 59.3375 -1.09308 0
10.5009 60.079 -1.85591 0
11.1226 61.8408 -2.80695 0
11.8531 62.5891 -2.98013 0
10.4991 61.2965 -2.62095 0
10.7695 60.859 -2.47604 0
11.0336 60.4957 -2.11332 0
12.1386 62.098 -2.79676 0
12.4575 63.2639 -2.94127 0
11.223 60.0312 -1.78905 0
11.6371 60.9612 -2.38622 0
12.3835 61.4948 -2.56075 0
12.5517 61.0898 -2.15146 0
13.0298 61.9337 -2.5923 0
9.45783 57.387 1.60988 0
9.54827 58.1745 0.726661 0
9.08301 55.5851 3.27535 0
9.26921 56.4819 2.46394 0
9.58216 56.6592 2.09706 0
9.73314 55.9628 2.60472 0
9.65184 56.6364 1.57063 0
8.95935 54.0352 4.61629 0
8.94204 54.717 3.9422 0
9.42526 53.359 5.91897 0
9.16452 53.6115 5.29057 0
9.25974 53.5618 5.00783 0
9.68758 53.2028 5.5071 0
9.37029 53.5119 4.71613 0
9.54669 55.0494 3.3583 0
9.77532 55.1041 3.00426 0
9.2024 54.8572 3.63045 0
9.31702 54.1243 4.00167 0
9.49385 53.4547 4.44796 0
9.69309 54.1252 3.38497 0
10.0708 55.1646 2.6431 0
9.90792 53.0176 5.04105 0
9.67107 53.3993 4.19704 0
9.88581 53.381 3.93322 0
10.4419 53.0177 4.63667 0
10.2009 53.5311 3.67629 0
12.0269 60.0749 -1.58911 0
12.7055 60.631 -1.70497 0
10.8964 59.0814 -1.00123 0
11.3989 59.4959 -1.37002 0
11.526 59.0129 -0.741756 0
11.1826 57.9178 0.174072 0
11.6717 58.4819 -0.0681926 0
9.98898 58.3578 -0.273092 0
10.4156 58.6796 -0.672208 0
9.6546 58.1776 0.201272 0
9.63457 57.3685 0.542237 0
9.86543 56.675 1.09602 0
10.7408 57.4095 0.466183 0
10.9912 56.6028 0.958376 0
10.5403 58.0652 -0.119021 0
10.2637 56.9801 0.778537 0
10.2011 56.0272 1.73108 0
10.7641 55.473 1.92995 0
11.1958 55.7181 1.51264 0
10.3766 55.2379 2.28782 0
10.3362 54.3984 2.77636 0
10.5343 53.6976 3.42124 0
12.7929 60.0962 -1.01031 0
13.383 60.9044 -1.71272 0
11.9184 57.7551 0.528178 0
12.2555 59.0004 -0.151459 0
12.8381 59.4924 -0.194818 0
12.9644 58.8985 0.605126 0
13.5157 59.7853 -0.180256 0
11.1493 55.0409 2.21383 0
11.6892 56.2458 1.25766 0
10.9958 53.2638 4.25924 0
10.7855 53.9336 3.18416 0
11.1599 54.4679 3.04549 0
11.4611 53.8822 3.90723 0
11.5748 55.1275 2.90542 0
12.6863 57.6289 1.21601 0
13.1739 58.2984 1.39207 0
12.1665 56.9869 1.15492 0
12.1969 56.3771 1.95679 0
12.096 55.8312 2.91914 0
13.2938 57.6986 2.22137 0
13.8163 58.645 1.45685 0
12.1665 55.095 3.74941 0
12.6781 56.535 2.98914 0
13.3222 57.0358 3.06239 0
13.3801 56.3489 3.88456 0
13.9777 57.4263 3.10809 0
13.0323 61.2983 3.22078 0
13.162 61.1683 3.89044 0
12.6009 61.6636 2.02083 0
12.8032 61.4066 2.57037 0
13.5489 61.3331 2.35123 0
13.9685 61.4115 1.55385 0
14.3257 61.392 2.13347 0
11.3742 62.0336 0.606959 0
12.1928 61.8554 1.39716 0
10.948 62.778 -0.634238 0
10.8973 62.3752 -0.056965 0
11.7319 62.0043 -0.148056 0
12.2453 62.1573 -0.753487 0
12.6239 61.6822 -0.2276 0
13.5484 61.4419 0.987574 0
14.4498 61.65 0.86443 0
12.856 61.5704 1.169 0
13.0827 61.5039 0.374878 0
13.5219 61.7826 -0.211752 0
14.8449 61.8661 0.287722 0
15.3176 61.8422 0.733015 0
13.9269 62.1285 -0.734116 0
14.3693 61.9324 -0.19204 0
15.2572 62.1282 -0.220294 0
15.682 62.1911 -0.595339 0
16.116 62.3408 -0.277297 0
11.0132 64.0053 -1.3411 0
10.9798 63.3331 -1.07721 0
11.118 65.1099 -1.92186 0
11.1083 64.5607 -1.68144 0
11.6108 64.1944 -1.85542 0
12.2345 64.3015 -2.24756 0
12.085 63.8139 -1.90266 0
11.1145 65.6119 -2.38686 0
11.0791 65.3243 -2.15914 0
10.9397 65.4285 -2.57726 0
11.5297 64.8433 -2.93695 0
11.9841 64.4214 -2.96961 0
12.2483 64.5576 -2.56575 0
12.7799 64.2015 -2.35848 0
11.7057 64.9486 -2.45424 0
12.1792 64.5854 -2.77994 0
12.4779 64.0724 -2.89896 0
13.1296 63.8154 -2.46682 0
13.3036 63.8646 -2.12499 0
12.955 63.7097 -2.79774 0
13.2358 63.0207 -2.63669 0
13.4848 62.2818 -2.45533 0
15.2328 62.1833 -0.998542 0
16.0334 62.1822 -0.861583 0
13.5455 62.4049 -1.21928 0
14.3764 62.2946 -1.14894 0
14.7525 62.1547 -1.28574 0
14.4459 62.3243 -1.46614 0
15.1096 61.9955 -1.42142 0
12.0131 62.6602 -1.18719 0
12.7782 62.5065 -1.17865 0
11.4793 62.9877 -1.17361 0
12.0371 63.2853 -1.55679 0
12.7119 63.5168 -1.72466 0
13.9178 62.84 -1.48137 0
14.1301 62.4669 -1.59872 0
13.4293 62.8193 -1.35264 0
13.3549 63.2605 -1.55393 0
13.3092 63.5636 -1.84186 0
13.9108 62.6005 -1.80432 0
14.3404 62.0085 -1.72955 0
13.6413 63.2745 -1.95699 0
13.7288 62.5491 -2.11496 0
13.7404 61.6409 -2.19394 0
16.2697 61.9679 -0.87591 0
16.7071 62.1239 -0.477105 0
15.2559 61.6725 -1.316 0
15.814 61.8302 -1.18144 0
16.5957 61.6149 -0.875622 0
16.2514 60.7384 -0.179991 0
16.8959 61.0326 -0.0530302 0
14.3263 61.4422 -1.47527 0
14.8036 61.6104 -1.39916 0
13.9125 61.1689 -1.62261 0
14.1339 60.6516 -1.03191 0
14.1764 60.1083 -0.168276 0
15.5878 60.4731 -0.175041 0
15.7599 59.8492 0.652038 0
15.3658 61.1546 -1.00993 0
14.8221 60.33 -0.150079 0
14.2764 59.5417 0.683219 0
15.1576 59.1776 1.48482 0
15.8296 59.4889 1.53601 0
14.4529 58.9831 1.49059 0
14.5784 58.3817 2.30673 0
14.6579 57.71 3.09519 0
14.0103 61.1768 3.62891 0
13.4729 61.0198 4.54268 0
15.1285 61.6708 1.88739 0
14.5888 61.3929 2.71576 0
14.8059 61.3633 3.31924 0
15.5411 61.7508 2.98265 0
15.0299 61.2908 3.80696 0
16.0649 62.3978 0.623767 0
15.6307 61.9568 1.20252 0
16.8654 62.5774 -0.133616 0
16.4795 62.593 0.135015 0
16.7902 62.9267 0.536453 0
17.5854 62.9449 0.850089 0
17.0492 62.9589 1.14211 0
16.0816 62.1196 2.27513 0
16.2618 62.1937 2.83522 0
15.903 62.0452 1.67841 0
16.5782 62.5559 1.69537 0
17.3186 62.8707 1.82832 0
16.9929 62.7445 2.83507 0
16.4727 62.265 3.38643 0
18.1531 63.1353 2.07824 0
17.5467 63.0565 2.40147 0
17.8309 63.179 2.9738 0
18.5519 63.4939 3.27083 0
17.9027 63.2097 3.64854 0
17.4434 62.1351 -0.123491 0
17.1413 62.4026 -0.158833 0
17.0902 60.4427 0.809666 0
17.3521 61.3036 0.308886 0
17.8924 61.6335 0.61324 0
18.181 61.1145 1.38713 0
18.333 61.9703 0.958566 0
15.8878 58.9652 2.38058 0
16.479 59.7951 1.59793 0
14.7059 57.051 3.90818 0
15.2987 57.9655 3.12342 0
15.859 58.217 3.31054 0
15.696 57.6118 4.27465 0
16.4442 58.4348 3.48294 0
17.7228 60.2023 1.92852 0
18.3035 60.5862 2.23356 0
17.1385 59.9202 1.70682 0
17.1485 59.2824 2.62425 0
17.0331 58.5735 3.61074 0
18.2865 59.897 3.14738 0
18.8292 60.8365 2.6383 0
16.7484 57.9179 4.57925 0
17.6043 58.7784 3.81202 0
18.1097 59.0089 4.06042 0
17.7323 58.0594 5.02899 0
18.5696 59.1621 4.34315 0
19.0591 63.3977 3.08659 0
19.0984 63.2906 3.83224 0
18.7398 63.0635 1.81979 0
18.9281 63.3621 2.42056 0
19.3919 63.1297 3.02491 0
19.6244 62.6962 3.04442 0
19.6915 62.4643 3.77945 0
17.9882 62.8976 0.659073 0
18.4587 62.8608 1.23329 0
17.5787 62.803 0.13898 0
18.2808 62.7183 0.610392 0
18.8552 62.2285 1.38246 0
19.4494 62.6845 2.44833 0
19.6506 61.7946 3.32329 0
19.0064 62.7667 1.83608 0
19.2054 62.4218 1.92706 0
19.1456 61.5688 2.23231 0
19.6894 60.7515 3.6283 0
19.7669 60.8251 4.19159 0
19.3301 60.7817 3.11731 0
19.1721 59.959 3.95809 0
18.8309 59.201 4.86444 0
19.7502 63.0578 4.44773 0
19.3856 63.4198 4.55783 0
19.9696 61.6662 4.56943 0
19.848 62.3609 4.48648 0
20.1357 62.4845 5.14844 0
20.4446 61.8751 5.76863 0
20.3399 62.5469 5.79088 0
19.4922 60.0586 5.07036 0
19.8138 60.8722 4.74404 0
18.3613 58.0851 5.51659 0
19.0599 59.1619 5.35718 0
19.0395 59.0474 5.7485 0
18.5567 57.8474 6.19593 0
18.9346 58.9653 6.1562 0
19.892 60.9715 5.889 0
19.9262 60.6858 6.10066 0
19.8109 60.8876 5.28602 0
19.3254 59.9982 6.0304 0
19.1602 58.5746 6.36992 0
19.4254 59.5455 6.45484 0
19.8634 60.4478 6.45601 0
19.314 58.2782 6.50028 0
7.74452 63.1832 11.4742 0
9.1454 64.0041 10.6128 0
8.37857 63.6976 11.0718 0
10.7343 64.4082 9.74564 0
9.94306 64.2349 10.1428 0
9.38018 64.1538 9.92768 0
9.57985 64.3985 9.29577 0
8.87039 64.0115 9.71008 0
12.2342 65.1595 9.06665 0
11.4772 64.6099 9.44125 0
13.042 65.8813 8.68785 0
12.395 65.8102 8.56337 0
11.76 65.8067 8.43004 0
10.2593 65.0687 9.02439 0
9.7294 64.7481 8.7497 0
10.8607 64.8925 9.23987 0
10.9993 65.4485 8.73094 0
11.2215 65.5896 8.17549 0
9.91066 64.8392 8.16015 0
9.24193 64.2841 8.43675 0
10.7188 65.1225 7.89061 0
10.2092 64.6685 7.56653 0
9.71342 64.2189 7.24486 0
8.2064 62.1791 8.74521 0
8.31115 61.6424 8.54002 0
7.99641 63.3417 10.8215 0
8.27546 63.5939 10.1671 0
8.52861 63.7247 9.49309 0
8.21064 62.8525 9.01623 0
8.56837 62.7731 8.37056 0
7.90744 62.7551 9.68416 0
8.27831 63.3865 9.27536 0
8.83935 63.8143 8.84256 0
8.67829 63.3504 7.94789 0
8.67634 62.6419 7.70037 0
8.97702 63.9272 8.22757 0
9.08864 63.7686 7.55756 0
9.38013 63.6298 6.966 0
8.5911 60.4765 8.89342 0
8.48123 59.7605 9.36658 0
8.72252 61.4314 7.93108 0
8.53409 60.9514 8.35622 0
9.17495 60.3092 8.35333 0
9.63883 60.0738 7.70115 0
9.83295 59.7868 8.26002 0
8.70747 62.6051 7.04407 0
8.62673 62.0245 7.46052 0
9.0637 63.0497 6.67244 0
8.92563 62.5065 6.42808 0
8.87332 61.8707 6.06487 0
9.51621 60.5083 7.16475 0
10.0908 59.9342 7.01766 0
8.89209 61.3066 7.31219 0
9.17667 61.2184 6.64004 0
9.77324 61.0388 5.87582 0
10.6861 60.0905 6.3347 0
10.8679 59.7409 6.90698 0
10.5562 60.5127 5.7197 0
11.1881 60.2743 5.58426 0
12.0343 60.3994 5.49383 0
14.8363 58.0108 12.2853 0
14.6126 58.2709 11.4932 0
15.2893 58.8377 11.3686 0
14.0004 58.2236 11.8282 0
14.3936 58.5911 10.718 0
14.1846 58.7561 9.95179 0
14.9556 59.1168 9.81477 0
13.4402 58.6986 10.187 0
13.9609 58.8931 9.2458 0
12.8627 58.4912 11.2861 0
12.5404 58.7253 10.4557 0
11.6556 58.8883 10.7002 0
12.2585 58.9107 9.68442 0
10.4403 59.0043 10.0278 0
13.7894 59.0741 8.65271 0
14.5295 59.211 8.45924 0
11.9962 59.0068 9.03348 0
12.9283 59.0598 8.84962 0
13.5753 59.2088 8.09966 0
13.244 59.4437 7.59916 0
14.1374 59.5135 7.34315 0
10.1795 59.1187 9.35382 0
11.0994 59.0478 9.23953 0
9.30705 59.3265 9.41704 0
10.0539 59.4848 8.81958 0
10.6031 59.4353 8.18207 0
12.3337 59.3383 7.82338 0
12.9526 59.7068 7.11411 0
11.7575 59.1546 8.49398 0
11.5071 59.4171 8.03551 0
11.2117 59.609 7.50937 0
12.6978 60.0207 6.66172 0
13.5209 60.1441 6.391 0
11.7945 59.8047 6.8221 0
12.3827 60.2511 6.12932 0
12.9479 60.7272 5.40371 0
15.7415 59.618 10.4777 0
15.8928 59.513 11.2713 0
15.5452 59.5127 8.97325 0
15.6661 59.565 9.70128 0
16.2625 60.1589 9.62362 0
16.8095 60.6519 8.78641 0
16.8349 60.7819 9.54215 0
15.088 59.5654 7.64592 0
15.2984 59.5133 8.27816 0
14.6776 59.8683 6.43229 0
14.9375 59.6533 7.00822 0
15.6689 59.9914 6.74978 0
16.2107 60.6014 5.88736 0
16.4135 60.5455 6.5914 0
14.0462 60.5334 5.52598 0
14.3483 60.1855 5.95663 0
13.7762 60.8274 5.10199 0
14.5601 60.8057 4.63038 0
15.2886 61.1359 4.25559 0
15.8641 60.7641 5.2999 0
16.5548 61.3675 5.1755 0
15.1904 60.2286 5.52972 0
15.5252 61.0103 4.78693 0
15.9466 61.6296 4.01361 0
16.928 62.126 4.57053 0
17.3201 61.9725 5.18862 0
16.6876 62.219 3.93857 0
17.498 62.7756 3.99505 0
18.1509 63.13 4.29861 0
18.1782 61.6863 8.09321 0
19.4015 63.0208 7.10597 0
16.7856 60.4988 8.05264 0
17.4604 61.0526 8.05934 0
16.0896 59.9496 8.15049 0
16.6353 60.4576 7.32731 0
17.1488 61.1046 6.54927 0
18.6033 62.3693 6.81763 0
19.1687 63.1652 6.37711 0
18.0255 61.6936 7.34861 0
17.8489 61.7424 6.6031 0
17.5958 61.8281 5.87659 0
18.8834 63.2017 5.65691 0
19.5605 63.3358 6.04941 0
18.0566 62.5745 5.35903 0
18.5102 63.1632 4.9686 0
18.9474 63.5378 4.68251 0
20.2409 62.8087 7.01037 0
20.0476 63.5201 5.89561 0
20.1072 63.1372 6.48728 0
19.8119 63.68 5.26923 0
20.2015 63.157 5.81093 0
20.3337 62.3112 6.29402 0
20.2781 62.3787 6.8957 0
20.3417 62.0054 6.80704 0
20.1896 61.3379 6.64938 0
17.9646 56.7245 6.2077 0
18.1883 56.5553 6.36257 0
17.6096 56.9843 5.82582 0
17.8215 56.8678 5.97849 0
17.2161 55.1799 5.90022 0
16.7198 53.1709 5.03923 0
16.8512 56.9618 5.78733 0
17.2529 57.0062 5.82771 0
15.8228 57.1922 5.36088 0
16.3566 57.1235 5.56073 0
16.0307 55.7325 5.66213 0
15.1864 53.6311 5.16596 0
15.6602 53.6212 5.29999 0
14.9075 56.8474 5.07154 0
15.375 57.0457 5.20804 0
14.0016 56.0325 4.85989 0
14.4855 56.4702 4.9447 0
14.4262 55.0523 5.34897 0
13.9691 52.5003 5.63455 0
14.1642 52.9844 5.38396 0
14.6013 53.596 5.13787 0
15.4582 50.9328 4.42089 0
15.0724 55.8081 5.48077 0
14.2404 53.4145 5.24839 0
14.706 50.7813 5.46183 0
16.3269 53.4646 5.26593 0
16.7125 55.6839 5.92595 0
16.1465 53.5056 5.55461 0
12.7643 54.8643 4.68436 0
13.3711 55.524 4.7984 0
11.9898 53.4725 4.69292 0
12.2606 54.0335 4.54008 0
12.3994 52.5671 5.18178 0
12.4324 51.0768 6.16284 0
12.6855 51.2683 5.92667 0
11.5639 52.7271 4.92715 0
11.748 52.9982 4.80566 0
11.2186 52.5078 5.23822 0
11.403 52.6003 5.10112 0
11.77 51.7203 5.9613 0
11.7125 50.9547 6.78019 0
11.8319 51.0072 6.70729 0
12.2612 50.896 6.36213 0
12.3891 49.96 6.82024 0
12.0801 51.9542 5.73347 0
12.0291 50.9597 6.56492 0
11.9843 50.134 7.28175 0
11.8391 49.3061 6.89848 0
11.9839 49.2798 6.6981 0
11.4708 49.6306 7.39869 0
11.6512 49.4698 7.14224 0
11.2641 48.7592 6.97839 0
10.6557 52.596 5.52491 0
10.9934 52.5987 5.39072 0
10.1708 52.6954 5.84685 0
10.3348 52.5933 5.65653 0
10.8666 52.1353 6.40393 0
11.1449 51.7997 7.29862 0
11.3677 51.6399 7.22232 0
9.95923 52.954 6.2453 0
10.0631 52.8265 6.05306 0
9.7885 53.0667 6.38834 0
10.0951 52.6674 6.85786 0
10.3967 52.2116 7.39471 0
10.8603 51.9112 7.29772 0
11.1264 51.2526 7.85067 0
10.4414 52.3773 6.60942 0
10.6493 52.0672 7.37197 0
10.7244 51.722 8.00265 0
