#!ascii - generated by CreateLabelFiles project 
6823 13098
4664 4657 4665 0
1171 4664 4665 0
4666 4654 1168 0
4660 287 4654 0
4660 4654 4666 0
1170 4660 4666 0
4667 4664 1171 0
4666 1168 4664 0
4666 4664 4667 0
1170 4666 4667 0
4668 4667 1171 0
4663 1170 4667 0
4663 4667 4668 0
292 4663 4668 0
4670 4665 295 0
4669 1171 4665 0
4669 4665 4670 0
1172 4669 4670 0
4671 4668 1171 0
4623 292 4668 0
4623 4668 4671 0
1160 4623 4671 0
4672 4669 1172 0
4671 1171 4669 0
4671 4669 4672 0
1160 4671 4672 0
4673 4672 1172 0
4625 1160 4672 0
4625 4672 4673 0
6643 4625 4673 0
4675 4650 72 0
4674 1166 4650 0
4674 4650 4675 0
6644 4674 4675 0
4677 4647 1166 0
4676 293 4647 0
4676 4647 4677 0
1173 4676 4677 0
4678 4674 6644 0
4677 1166 4674 0
4677 4674 4678 0
1173 4677 4678 0
6645 4678 6644 0
4679 1173 4678 0
4679 4678 6645 0
296 4679 6645 0
4681 4638 293 0
4680 1163 4638 0
4680 4638 4681 0
1174 4680 4681 0
4682 4635 1163 0
4653 70 4635 0
4653 4635 4682 0
1169 4653 4682 0
4683 4680 1174 0
4682 1163 4680 0
4682 4680 4683 0
1169 4682 4683 0
4684 4683 1174 0
4658 1169 4683 0
4658 4683 4684 0
295 4658 4684 0
4686 4679 296 0
4685 1173 4679 0
4685 4679 4686 0
1175 4685 4686 0
4687 4676 1173 0
4681 293 4676 0
4681 4676 4687 0
1174 4681 4687 0
4688 4685 1175 0
4687 1173 4685 0
4687 4685 4688 0
1174 4687 4688 0
4689 4688 1175 0
4684 1174 4688 0
4684 4688 4689 0
295 4684 4689 0
6646 4686 296 0
4690 1175 4686 0
4690 4686 6646 0
1176 4690 6646 0
4691 4689 1175 0
4670 295 4689 0
4670 4689 4691 0
1172 4670 4691 0
4692 4690 1176 0
4691 1175 4690 0
4691 4690 4692 0
1172 4691 4692 0
6647 4692 1176 0
4673 1172 4692 0
4673 4692 6647 0
6643 4673 6647 0
6648 4675 72 0
6649 6644 4675 0
6649 4675 6648 0
6650 296 6645 0
6651 6646 296 0
6652 1176 6646 0
6653 6647 1176 0
6653 1176 6652 0
6651 296 6650 0
4694 4627 20 0
4693 1162 4627 0
4693 4627 4694 0
1178 4693 4694 0
4696 4632 1162 0
4695 294 4632 0
4695 4632 4696 0
1177 4695 4696 0
4697 4693 1178 0
4696 1162 4693 0
4696 4693 4697 0
1177 4696 4697 0
4699 4697 1178 0
4698 1177 4697 0
4698 4697 4699 0
297 4698 4699 0
4701 4646 294 0
4700 1167 4646 0
4700 4646 4701 0
1180 4700 4701 0
4702 4651 1167 0
6654 72 4651 0
6654 4651 4702 0
1179 6654 4702 0
4703 4700 1180 0
4702 1167 4700 0
4702 4700 4703 0
1179 4702 4703 0
4704 4703 1180 0
6655 1179 4703 0
6655 4703 4704 0
6656 6655 4704 0
4706 4698 297 0
4705 1177 4698 0
4705 4698 4706 0
1181 4705 4706 0
4707 4695 1177 0
4701 294 4695 0
4701 4695 4707 0
1180 4701 4707 0
4708 4705 1181 0
4707 1177 4705 0
4707 4705 4708 0
1180 4707 4708 0
4709 4708 1181 0
4704 1180 4708 0
4704 4708 4709 0
6656 4704 4709 0
4711 4706 297 0
4710 1181 4706 0
4710 4706 4711 0
1183 4710 4711 0
4712 4709 1181 0
6657 6656 4709 0
6657 4709 4712 0
1182 6657 4712 0
4713 4710 1183 0
4712 1181 4710 0
4712 4710 4713 0
1182 4712 4713 0
4715 4713 1183 0
4714 1182 4713 0
4714 4713 4715 0
6658 4714 4715 0
6659 6648 72 0
6660 4714 6658 0
6661 1182 4714 0
6661 4714 6660 0
6662 6657 1182 0
6662 1182 6661 0
6663 1179 6655 0
6664 6654 1179 0
6659 72 6654 0
6664 1179 6663 0
4717 4504 6 0
4716 1128 4504 0
4716 4504 4717 0
1185 4716 4717 0
4719 4501 1128 0
4718 283 4501 0
4718 4501 4719 0
1184 4718 4719 0
4720 4716 1185 0
4719 1128 4716 0
4719 4716 4720 0
1184 4719 4720 0
4722 4720 1185 0
4721 1184 4720 0
4721 4720 4722 0
299 4721 4722 0
4724 4492 283 0
4723 1125 4492 0
4723 4492 4724 0
1187 4723 4724 0
4726 4489 1125 0
4725 68 4489 0
4725 4489 4726 0
1186 4725 4726 0
4727 4723 1187 0
4726 1125 4723 0
4726 4723 4727 0
1186 4726 4727 0
4729 4727 1187 0
4728 1186 4727 0
4728 4727 4729 0
298 4728 4729 0
4731 4721 299 0
4730 1184 4721 0
4730 4721 4731 0
1188 4730 4731 0
4732 4718 1184 0
4724 283 4718 0
4724 4718 4732 0
1187 4724 4732 0
4733 4730 1188 0
4732 1184 4730 0
4732 4730 4733 0
1187 4732 4733 0
4734 4733 1188 0
4729 1187 4733 0
4729 4733 4734 0
298 4729 4734 0
4736 4731 299 0
4735 1188 4731 0
4735 4731 4736 0
1190 4735 4736 0
4738 4734 1188 0
4737 298 4734 0
4737 4734 4738 0
1189 4737 4738 0
4739 4735 1190 0
4738 1188 4735 0
4738 4735 4739 0
1189 4738 4739 0
4741 4739 1190 0
4740 1189 4739 0
4740 4739 4741 0
74 4740 4741 0
4743 4456 68 0
4742 1116 4456 0
4742 4456 4743 0
1192 4742 4743 0
4745 4453 1116 0
4744 280 4453 0
4744 4453 4745 0
1191 4744 4745 0
4746 4742 1192 0
4745 1116 4742 0
4745 4742 4746 0
1191 4745 4746 0
4748 4746 1192 0
4747 1191 4746 0
4747 4746 4748 0
301 4747 4748 0
4750 4444 280 0
4749 1113 4444 0
4749 4444 4750 0
1194 4749 4750 0
4752 4441 1113 0
4751 18 4441 0
4751 4441 4752 0
1193 4751 4752 0
4753 4749 1194 0
4752 1113 4749 0
4752 4749 4753 0
1193 4752 4753 0
4755 4753 1194 0
4754 1193 4753 0
4754 4753 4755 0
300 4754 4755 0
4757 4747 301 0
4756 1191 4747 0
4756 4747 4757 0
1195 4756 4757 0
4758 4744 1191 0
4750 280 4744 0
4750 4744 4758 0
1194 4750 4758 0
4759 4756 1195 0
4758 1191 4756 0
4758 4756 4759 0
1194 4758 4759 0
4760 4759 1195 0
4755 1194 4759 0
4755 4759 4760 0
300 4755 4760 0
4762 4757 301 0
4761 1195 4757 0
4761 4757 4762 0
1197 4761 4762 0
4764 4760 1195 0
4763 300 4760 0
4763 4760 4764 0
1196 4763 4764 0
4765 4761 1197 0
4764 1195 4761 0
4764 4761 4765 0
1196 4764 4765 0
4767 4765 1197 0
4766 1196 4765 0
4766 4765 4767 0
73 4766 4767 0
4769 4740 74 0
4768 1189 4740 0
4768 4740 4769 0
1199 4768 4769 0
4771 4737 1189 0
4770 298 4737 0
4770 4737 4771 0
1198 4770 4771 0
4772 4768 1199 0
4771 1189 4768 0
4771 4768 4772 0
1198 4771 4772 0
4774 4772 1199 0
4773 1198 4772 0
4773 4772 4774 0
302 4773 4774 0
4776 4728 298 0
4775 1186 4728 0
4775 4728 4776 0
1200 4775 4776 0
4777 4725 1186 0
4743 68 4725 0
4743 4725 4777 0
1192 4743 4777 0
4778 4775 1200 0
4777 1186 4775 0
4777 4775 4778 0
1192 4777 4778 0
4779 4778 1200 0
4748 1192 4778 0
4748 4778 4779 0
301 4748 4779 0
4781 4773 302 0
4780 1198 4773 0
4780 4773 4781 0
1201 4780 4781 0
4782 4770 1198 0
4776 298 4770 0
4776 4770 4782 0
1200 4776 4782 0
4783 4780 1201 0
4782 1198 4780 0
4782 4780 4783 0
1200 4782 4783 0
4784 4783 1201 0
4779 1200 4783 0
4779 4783 4784 0
301 4779 4784 0
4786 4781 302 0
4785 1201 4781 0
4785 4781 4786 0
1202 4785 4786 0
4787 4784 1201 0
4762 301 4784 0
4762 4784 4787 0
1197 4762 4787 0
4788 4785 1202 0
4787 1201 4785 0
4787 4785 4788 0
1197 4787 4788 0
4789 4788 1202 0
4767 1197 4788 0
4767 4788 4789 0
73 4767 4789 0
4791 4769 74 0
4790 1199 4769 0
4790 4769 4791 0
1204 4790 4791 0
4793 4774 1199 0
4792 302 4774 0
4792 4774 4793 0
1203 4792 4793 0
4794 4790 1204 0
4793 1199 4790 0
4793 4790 4794 0
1203 4793 4794 0
4796 4794 1204 0
4795 1203 4794 0
4795 4794 4796 0
304 4795 4796 0
4798 4786 302 0
4797 1202 4786 0
4797 4786 4798 0
1206 4797 4798 0
4800 4789 1202 0
4799 73 4789 0
4799 4789 4800 0
1205 4799 4800 0
4801 4797 1206 0
4800 1202 4797 0
4800 4797 4801 0
1205 4800 4801 0
4803 4801 1206 0
4802 1205 4801 0
4802 4801 4803 0
303 4802 4803 0
4805 4795 304 0
4804 1203 4795 0
4804 4795 4805 0
1207 4804 4805 0
4806 4792 1203 0
4798 302 4792 0
4798 4792 4806 0
1206 4798 4806 0
4807 4804 1207 0
4806 1203 4804 0
4806 4804 4807 0
1206 4806 4807 0
4808 4807 1207 0
4803 1206 4807 0
4803 4807 4808 0
303 4803 4808 0
4810 4805 304 0
4809 1207 4805 0
4809 4805 4810 0
1209 4809 4810 0
4812 4808 1207 0
4811 303 4808 0
4811 4808 4812 0
1208 4811 4812 0
4813 4809 1209 0
4812 1207 4809 0
4812 4809 4813 0
1208 4812 4813 0
4815 4813 1209 0
4814 1208 4813 0
4814 4813 4815 0
21 4814 4815 0
4817 4312 18 0
4816 1080 4312 0
4816 4312 4817 0
1211 4816 4817 0
4819 4309 1080 0
4818 271 4309 0
4818 4309 4819 0
1210 4818 4819 0
4820 4816 1211 0
4819 1080 4816 0
4819 4816 4820 0
1210 4819 4820 0
4822 4820 1211 0
4821 1210 4820 0
4821 4820 4822 0
306 4821 4822 0
4824 4300 271 0
4823 1077 4300 0
4823 4300 4824 0
1213 4823 4824 0
4826 4297 1077 0
4825 65 4297 0
4825 4297 4826 0
1212 4825 4826 0
4827 4823 1213 0
4826 1077 4823 0
4826 4823 4827 0
1212 4826 4827 0
4829 4827 1213 0
4828 1212 4827 0
4828 4827 4829 0
305 4828 4829 0
4831 4821 306 0
4830 1210 4821 0
4830 4821 4831 0
1214 4830 4831 0
4832 4818 1210 0
4824 271 4818 0
4824 4818 4832 0
1213 4824 4832 0
4833 4830 1214 0
4832 1210 4830 0
4832 4830 4833 0
1213 4832 4833 0
4834 4833 1214 0
4829 1213 4833 0
4829 4833 4834 0
305 4829 4834 0
4836 4831 306 0
4835 1214 4831 0
4835 4831 4836 0
1216 4835 4836 0
4838 4834 1214 0
4837 305 4834 0
4837 4834 4838 0
1215 4837 4838 0
4839 4835 1216 0
4838 1214 4835 0
4838 4835 4839 0
1215 4838 4839 0
4841 4839 1216 0
4840 1215 4839 0
4840 4839 4841 0
75 4840 4841 0
4843 4264 65 0
4842 1068 4264 0
4842 4264 4843 0
1218 4842 4843 0
4845 4261 1068 0
4844 268 4261 0
4844 4261 4845 0
1217 4844 4845 0
4846 4842 1218 0
4845 1068 4842 0
4845 4842 4846 0
1217 4845 4846 0
4848 4846 1218 0
4847 1217 4846 0
4847 4846 4848 0
307 4847 4848 0
4850 4252 268 0
4849 1065 4252 0
4849 4252 4850 0
1219 4849 4850 0
4851 4249 1065 0
4507 5 4249 0
4507 4249 4851 0
1131 4507 4851 0
4852 4849 1219 0
4851 1065 4849 0
4851 4849 4852 0
1131 4851 4852 0
4853 4852 1219 0
4512 1131 4852 0
4512 4852 4853 0
286 4512 4853 0
4855 4847 307 0
4854 1217 4847 0
4854 4847 4855 0
1220 4854 4855 0
4856 4844 1217 0
4850 268 4844 0
4850 4844 4856 0
1219 4850 4856 0
4857 4854 1220 0
4856 1217 4854 0
4856 4854 4857 0
1219 4856 4857 0
4858 4857 1220 0
4853 1219 4857 0
4853 4857 4858 0
286 4853 4858 0
4860 4855 307 0
4859 1220 4855 0
4859 4855 4860 0
1221 4859 4860 0
4861 4858 1220 0
4526 286 4858 0
4526 4858 4861 0
1136 4526 4861 0
4862 4859 1221 0
4861 1220 4859 0
4861 4859 4862 0
1136 4861 4862 0
4863 4862 1221 0
4531 1136 4862 0
4531 4862 4863 0
71 4531 4863 0
4865 4840 75 0
4864 1215 4840 0
4864 4840 4865 0
1223 4864 4865 0
4867 4837 1215 0
4866 305 4837 0
4866 4837 4867 0
1222 4866 4867 0
4868 4864 1223 0
4867 1215 4864 0
4867 4864 4868 0
1222 4867 4868 0
4870 4868 1223 0
4869 1222 4868 0
4869 4868 4870 0
308 4869 4870 0
4872 4828 305 0
4871 1212 4828 0
4871 4828 4872 0
1224 4871 4872 0
4873 4825 1212 0
4843 65 4825 0
4843 4825 4873 0
1218 4843 4873 0
4874 4871 1224 0
4873 1212 4871 0
4873 4871 4874 0
1218 4873 4874 0
4875 4874 1224 0
4848 1218 4874 0
4848 4874 4875 0
307 4848 4875 0
4877 4869 308 0
4876 1222 4869 0
4876 4869 4877 0
1225 4876 4877 0
4878 4866 1222 0
4872 305 4866 0
4872 4866 4878 0
1224 4872 4878 0
4879 4876 1225 0
4878 1222 4876 0
4878 4876 4879 0
1224 4878 4879 0
4880 4879 1225 0
4875 1224 4879 0
4875 4879 4880 0
307 4875 4880 0
4882 4877 308 0
4881 1225 4877 0
4881 4877 4882 0
1226 4881 4882 0
4883 4880 1225 0
4860 307 4880 0
4860 4880 4883 0
1221 4860 4883 0
4884 4881 1226 0
4883 1225 4881 0
4883 4881 4884 0
1221 4883 4884 0
4885 4884 1226 0
4863 1221 4884 0
4863 4884 4885 0
71 4863 4885 0
4887 4865 75 0
4886 1223 4865 0
4886 4865 4887 0
1228 4886 4887 0
4889 4870 1223 0
4888 308 4870 0
4888 4870 4889 0
1227 4888 4889 0
4890 4886 1228 0
4889 1223 4886 0
4889 4886 4890 0
1227 4889 4890 0
4892 4890 1228 0
4891 1227 4890 0
4891 4890 4892 0
309 4891 4892 0
4894 4882 308 0
4893 1226 4882 0
4893 4882 4894 0
1229 4893 4894 0
4895 4885 1226 0
4581 71 4885 0
4581 4885 4895 0
1150 4581 4895 0
4896 4893 1229 0
4895 1226 4893 0
4895 4893 4896 0
1150 4895 4896 0
4897 4896 1229 0
4586 1150 4896 0
4586 4896 4897 0
291 4586 4897 0
4899 4891 309 0
4898 1227 4891 0
4898 4891 4899 0
1230 4898 4899 0
4900 4888 1227 0
4894 308 4888 0
4894 4888 4900 0
1229 4894 4900 0
4901 4898 1230 0
4900 1227 4898 0
4900 4898 4901 0
1229 4900 4901 0
4902 4901 1230 0
4897 1229 4901 0
4897 4901 4902 0
291 4897 4902 0
4904 4899 309 0
4903 1230 4899 0
4903 4899 4904 0
1231 4903 4904 0
4905 4902 1230 0
4600 291 4902 0
4600 4902 4905 0
1155 4600 4905 0
4906 4903 1231 0
4905 1230 4903 0
4905 4903 4906 0
1155 4905 4906 0
4907 4906 1231 0
4605 1155 4906 0
4605 4906 4907 0
20 4605 4907 0
4909 4814 21 0
4908 1208 4814 0
4908 4814 4909 0
1233 4908 4909 0
4911 4811 1208 0
4910 303 4811 0
4910 4811 4911 0
1232 4910 4911 0
4912 4908 1233 0
4911 1208 4908 0
4911 4908 4912 0
1232 4911 4912 0
4914 4912 1233 0
4913 1232 4912 0
4913 4912 4914 0
311 4913 4914 0
4916 4802 303 0
4915 1205 4802 0
4915 4802 4916 0
1235 4915 4916 0
4918 4799 1205 0
4917 73 4799 0
4917 4799 4918 0
1234 4917 4918 0
4919 4915 1235 0
4918 1205 4915 0
4918 4915 4919 0
1234 4918 4919 0
4921 4919 1235 0
4920 1234 4919 0
4920 4919 4921 0
310 4920 4921 0
4923 4913 311 0
4922 1232 4913 0
4922 4913 4923 0
1236 4922 4923 0
4924 4910 1232 0
4916 303 4910 0
4916 4910 4924 0
1235 4916 4924 0
4925 4922 1236 0
4924 1232 4922 0
4924 4922 4925 0
1235 4924 4925 0
4926 4925 1236 0
4921 1235 4925 0
4921 4925 4926 0
310 4921 4926 0
4928 4923 311 0
4927 1236 4923 0
4927 4923 4928 0
1238 4927 4928 0
4930 4926 1236 0
4929 310 4926 0
4929 4926 4930 0
1237 4929 4930 0
4931 4927 1238 0
4930 1236 4927 0
4930 4927 4931 0
1237 4930 4931 0
4933 4931 1238 0
4932 1237 4931 0
4932 4931 4933 0
76 4932 4933 0
4935 4766 73 0
4934 1196 4766 0
4934 4766 4935 0
1240 4934 4935 0
4937 4763 1196 0
4936 300 4763 0
4936 4763 4937 0
1239 4936 4937 0
4938 4934 1240 0
4937 1196 4934 0
4937 4934 4938 0
1239 4937 4938 0
4940 4938 1240 0
4939 1239 4938 0
4939 4938 4940 0
312 4939 4940 0
4942 4754 300 0
4941 1193 4754 0
4941 4754 4942 0
1241 4941 4942 0
4943 4751 1193 0
4817 18 4751 0
4817 4751 4943 0
1211 4817 4943 0
4944 4941 1241 0
4943 1193 4941 0
4943 4941 4944 0
1211 4943 4944 0
4945 4944 1241 0
4822 1211 4944 0
4822 4944 4945 0
306 4822 4945 0
4947 4939 312 0
4946 1239 4939 0
4946 4939 4947 0
1242 4946 4947 0
4948 4936 1239 0
4942 300 4936 0
4942 4936 4948 0
1241 4942 4948 0
4949 4946 1242 0
4948 1239 4946 0
4948 4946 4949 0
1241 4948 4949 0
4950 4949 1242 0
4945 1241 4949 0
4945 4949 4950 0
306 4945 4950 0
4952 4947 312 0
4951 1242 4947 0
4951 4947 4952 0
1243 4951 4952 0
4953 4950 1242 0
4836 306 4950 0
4836 4950 4953 0
1216 4836 4953 0
4954 4951 1243 0
4953 1242 4951 0
4953 4951 4954 0
1216 4953 4954 0
4955 4954 1243 0
4841 1216 4954 0
4841 4954 4955 0
75 4841 4955 0
4957 4932 76 0
4956 1237 4932 0
4956 4932 4957 0
1245 4956 4957 0
4959 4929 1237 0
4958 310 4929 0
4958 4929 4959 0
1244 4958 4959 0
4960 4956 1245 0
4959 1237 4956 0
4959 4956 4960 0
1244 4959 4960 0
4962 4960 1245 0
4961 1244 4960 0
4961 4960 4962 0
313 4961 4962 0
4964 4920 310 0
4963 1234 4920 0
4963 4920 4964 0
1246 4963 4964 0
4965 4917 1234 0
4935 73 4917 0
4935 4917 4965 0
1240 4935 4965 0
4966 4963 1246 0
4965 1234 4963 0
4965 4963 4966 0
1240 4965 4966 0
4967 4966 1246 0
4940 1240 4966 0
4940 4966 4967 0
312 4940 4967 0
4969 4961 313 0
4968 1244 4961 0
4968 4961 4969 0
1247 4968 4969 0
4970 4958 1244 0
4964 310 4958 0
4964 4958 4970 0
1246 4964 4970 0
4971 4968 1247 0
4970 1244 4968 0
4970 4968 4971 0
1246 4970 4971 0
4972 4971 1247 0
4967 1246 4971 0
4967 4971 4972 0
312 4967 4972 0
4974 4969 313 0
4973 1247 4969 0
4973 4969 4974 0
1248 4973 4974 0
4975 4972 1247 0
4952 312 4972 0
4952 4972 4975 0
1243 4952 4975 0
4976 4973 1248 0
4975 1247 4973 0
4975 4973 4976 0
1243 4975 4976 0
4977 4976 1248 0
4955 1243 4976 0
4955 4976 4977 0
75 4955 4977 0
4979 4957 76 0
4978 1245 4957 0
4978 4957 4979 0
1250 4978 4979 0
4981 4962 1245 0
4980 313 4962 0
4980 4962 4981 0
1249 4980 4981 0
4982 4978 1250 0
4981 1245 4978 0
4981 4978 4982 0
1249 4981 4982 0
4984 4982 1250 0
4983 1249 4982 0
4983 4982 4984 0
314 4983 4984 0
4986 4974 313 0
4985 1248 4974 0
4985 4974 4986 0
1251 4985 4986 0
4987 4977 1248 0
4887 75 4977 0
4887 4977 4987 0
1228 4887 4987 0
4988 4985 1251 0
4987 1248 4985 0
4987 4985 4988 0
1228 4987 4988 0
4989 4988 1251 0
4892 1228 4988 0
4892 4988 4989 0
309 4892 4989 0
4991 4983 314 0
4990 1249 4983 0
4990 4983 4991 0
1252 4990 4991 0
4992 4980 1249 0
4986 313 4980 0
4986 4980 4992 0
1251 4986 4992 0
4993 4990 1252 0
4992 1249 4990 0
4992 4990 4993 0
1251 4992 4993 0
4994 4993 1252 0
4989 1251 4993 0
4989 4993 4994 0
309 4989 4994 0
4996 4991 314 0
4995 1252 4991 0
4995 4991 4996 0
1253 4995 4996 0
4997 4994 1252 0
4904 309 4994 0
4904 4994 4997 0
1231 4904 4997 0
4998 4995 1253 0
4997 1252 4995 0
4997 4995 4998 0
1231 4997 4998 0
4999 4998 1253 0
4907 1231 4998 0
4907 4998 4999 0
20 4907 4999 0
5001 4909 21 0
5000 1233 4909 0
5000 4909 5001 0
1255 5000 5001 0
5003 4914 1233 0
5002 311 4914 0
5002 4914 5003 0
1254 5002 5003 0
5004 5000 1255 0
5003 1233 5000 0
5003 5000 5004 0
1254 5003 5004 0
5006 5004 1255 0
5005 1254 5004 0
5005 5004 5006 0
316 5005 5006 0
5008 4928 311 0
5007 1238 4928 0
5007 4928 5008 0
1257 5007 5008 0
5010 4933 1238 0
5009 76 4933 0
5009 4933 5010 0
1256 5009 5010 0
5011 5007 1257 0
5010 1238 5007 0
5010 5007 5011 0
1256 5010 5011 0
5013 5011 1257 0
5012 1256 5011 0
5012 5011 5013 0
315 5012 5013 0
5015 5005 316 0
5014 1254 5005 0
5014 5005 5015 0
1258 5014 5015 0
5016 5002 1254 0
5008 311 5002 0
5008 5002 5016 0
1257 5008 5016 0
5017 5014 1258 0
5016 1254 5014 0
5016 5014 5017 0
1257 5016 5017 0
5018 5017 1258 0
5013 1257 5017 0
5013 5017 5018 0
315 5013 5018 0
5020 5015 316 0
5019 1258 5015 0
5019 5015 5020 0
1260 5019 5020 0
5022 5018 1258 0
5021 315 5018 0
5021 5018 5022 0
1259 5021 5022 0
5023 5019 1260 0
5022 1258 5019 0
5022 5019 5023 0
1259 5022 5023 0
5025 5023 1260 0
5024 1259 5023 0
5024 5023 5025 0
77 5024 5025 0
5027 4979 76 0
5026 1250 4979 0
5026 4979 5027 0
1262 5026 5027 0
5029 4984 1250 0
5028 314 4984 0
5028 4984 5029 0
1261 5028 5029 0
5030 5026 1262 0
5029 1250 5026 0
5029 5026 5030 0
1261 5029 5030 0
5032 5030 1262 0
5031 1261 5030 0
5031 5030 5032 0
317 5031 5032 0
5034 4996 314 0
5033 1253 4996 0
5033 4996 5034 0
1263 5033 5034 0
5035 4999 1253 0
4694 20 4999 0
4694 4999 5035 0
1178 4694 5035 0
5036 5033 1263 0
5035 1253 5033 0
5035 5033 5036 0
1178 5035 5036 0
5037 5036 1263 0
4699 1178 5036 0
4699 5036 5037 0
297 4699 5037 0
5039 5031 317 0
5038 1261 5031 0
5038 5031 5039 0
1264 5038 5039 0
5040 5028 1261 0
5034 314 5028 0
5034 5028 5040 0
1263 5034 5040 0
5041 5038 1264 0
5040 1261 5038 0
5040 5038 5041 0
1263 5040 5041 0
5042 5041 1264 0
5037 1263 5041 0
5037 5041 5042 0
297 5037 5042 0
5044 5039 317 0
5043 1264 5039 0
5043 5039 5044 0
1265 5043 5044 0
5045 5042 1264 0
4711 297 5042 0
4711 5042 5045 0
1183 4711 5045 0
5046 5043 1265 0
5045 1264 5043 0
5045 5043 5046 0
1183 5045 5046 0
5047 5046 1265 0
4715 1183 5046 0
4715 5046 5047 0
6658 4715 5047 0
5049 5024 77 0
5048 1259 5024 0
5048 5024 5049 0
1267 5048 5049 0
5051 5021 1259 0
5050 315 5021 0
5050 5021 5051 0
1266 5050 5051 0
5052 5048 1267 0
5051 1259 5048 0
5051 5048 5052 0
1266 5051 5052 0
5054 5052 1267 0
5053 1266 5052 0
5053 5052 5054 0
318 5053 5054 0
5056 5012 315 0
5055 1256 5012 0
5055 5012 5056 0
1268 5055 5056 0
5057 5009 1256 0
5027 76 5009 0
5027 5009 5057 0
1262 5027 5057 0
5058 5055 1268 0
5057 1256 5055 0
5057 5055 5058 0
1262 5057 5058 0
5059 5058 1268 0
5032 1262 5058 0
5032 5058 5059 0
317 5032 5059 0
5061 5053 318 0
5060 1266 5053 0
5060 5053 5061 0
1269 5060 5061 0
5062 5050 1266 0
5056 315 5050 0
5056 5050 5062 0
1268 5056 5062 0
5063 5060 1269 0
5062 1266 5060 0
5062 5060 5063 0
1268 5062 5063 0
5064 5063 1269 0
5059 1268 5063 0
5059 5063 5064 0
317 5059 5064 0
5066 5061 318 0
5065 1269 5061 0
5065 5061 5066 0
1270 5065 5066 0
5067 5064 1269 0
5044 317 5064 0
5044 5064 5067 0
1265 5044 5067 0
5068 5065 1270 0
5067 1269 5065 0
5067 5065 5068 0
1265 5067 5068 0
5069 5068 1270 0
5047 1265 5068 0
5047 5068 5069 0
6658 5047 5069 0
5071 5049 77 0
5070 1267 5049 0
5070 5049 5071 0
1271 5070 5071 0
5073 5054 1267 0
5072 318 5054 0
5072 5054 5073 0
6665 5072 5073 0
5074 5070 1271 0
5073 1267 5070 0
5073 5070 5074 0
6665 5073 5074 0
6666 5074 1271 0
6667 6665 5074 0
6667 5074 6666 0
5075 5066 318 0
6668 1270 5066 0
6668 5066 5075 0
6669 6668 5075 0
6670 5069 1270 0
6671 6658 5069 0
6671 5069 6670 0
6670 1270 6668 0
6672 5072 6665 0
5075 318 5072 0
5075 5072 6672 0
6669 5075 6672 0
5077 4717 6 0
5076 1185 4717 0
5076 4717 5077 0
1273 5076 5077 0
5079 4722 1185 0
5078 299 4722 0
5078 4722 5079 0
1272 5078 5079 0
5080 5076 1273 0
5079 1185 5076 0
5079 5076 5080 0
1272 5079 5080 0
5082 5080 1273 0
5081 1272 5080 0
5081 5080 5082 0
320 5081 5082 0
5084 4736 299 0
5083 1190 4736 0
5083 4736 5084 0
1275 5083 5084 0
5086 4741 1190 0
5085 74 4741 0
5085 4741 5086 0
1274 5085 5086 0
5087 5083 1275 0
5086 1190 5083 0
5086 5083 5087 0
1274 5086 5087 0
5089 5087 1275 0
5088 1274 5087 0
5088 5087 5089 0
319 5088 5089 0
5091 5081 320 0
5090 1272 5081 0
5090 5081 5091 0
1276 5090 5091 0
5092 5078 1272 0
5084 299 5078 0
5084 5078 5092 0
1275 5084 5092 0
5093 5090 1276 0
5092 1272 5090 0
5092 5090 5093 0
1275 5092 5093 0
5094 5093 1276 0
5089 1275 5093 0
5089 5093 5094 0
319 5089 5094 0
5096 5091 320 0
5095 1276 5091 0
5095 5091 5096 0
1278 5095 5096 0
5098 5094 1276 0
5097 319 5094 0
5097 5094 5098 0
1277 5097 5098 0
5099 5095 1278 0
5098 1276 5095 0
5098 5095 5099 0
1277 5098 5099 0
5101 5099 1278 0
5100 1277 5099 0
5100 5099 5101 0
79 5100 5101 0
5103 4791 74 0
5102 1204 4791 0
5102 4791 5103 0
1280 5102 5103 0
5105 4796 1204 0
5104 304 4796 0
5104 4796 5105 0
1279 5104 5105 0
5106 5102 1280 0
5105 1204 5102 0
5105 5102 5106 0
1279 5105 5106 0
5108 5106 1280 0
5107 1279 5106 0
5107 5106 5108 0
322 5107 5108 0
5110 4810 304 0
5109 1209 4810 0
5109 4810 5110 0
1282 5109 5110 0
5112 4815 1209 0
5111 21 4815 0
5111 4815 5112 0
1281 5111 5112 0
5113 5109 1282 0
5112 1209 5109 0
5112 5109 5113 0
1281 5112 5113 0
5115 5113 1282 0
5114 1281 5113 0
5114 5113 5115 0
321 5114 5115 0
5117 5107 322 0
5116 1279 5107 0
5116 5107 5117 0
1283 5116 5117 0
5118 5104 1279 0
5110 304 5104 0
5110 5104 5118 0
1282 5110 5118 0
5119 5116 1283 0
5118 1279 5116 0
5118 5116 5119 0
1282 5118 5119 0
5120 5119 1283 0
5115 1282 5119 0
5115 5119 5120 0
321 5115 5120 0
5122 5117 322 0
5121 1283 5117 0
5121 5117 5122 0
1285 5121 5122 0
5124 5120 1283 0
5123 321 5120 0
5123 5120 5124 0
1284 5123 5124 0
5125 5121 1285 0
5124 1283 5121 0
5124 5121 5125 0
1284 5124 5125 0
5127 5125 1285 0
5126 1284 5125 0
5126 5125 5127 0
78 5126 5127 0
5129 5100 79 0
5128 1277 5100 0
5128 5100 5129 0
1287 5128 5129 0
5131 5097 1277 0
5130 319 5097 0
5130 5097 5131 0
1286 5130 5131 0
5132 5128 1287 0
5131 1277 5128 0
5131 5128 5132 0
1286 5131 5132 0
5134 5132 1287 0
5133 1286 5132 0
5133 5132 5134 0
323 5133 5134 0
5136 5088 319 0
5135 1274 5088 0
5135 5088 5136 0
1288 5135 5136 0
5137 5085 1274 0
5103 74 5085 0
5103 5085 5137 0
1280 5103 5137 0
5138 5135 1288 0
5137 1274 5135 0
5137 5135 5138 0
1280 5137 5138 0
5139 5138 1288 0
5108 1280 5138 0
5108 5138 5139 0
322 5108 5139 0
5141 5133 323 0
5140 1286 5133 0
5140 5133 5141 0
1289 5140 5141 0
5142 5130 1286 0
5136 319 5130 0
5136 5130 5142 0
1288 5136 5142 0
5143 5140 1289 0
5142 1286 5140 0
5142 5140 5143 0
1288 5142 5143 0
5144 5143 1289 0
5139 1288 5143 0
5139 5143 5144 0
322 5139 5144 0
5146 5141 323 0
5145 1289 5141 0
5145 5141 5146 0
1290 5145 5146 0
5147 5144 1289 0
5122 322 5144 0
5122 5144 5147 0
1285 5122 5147 0
5148 5145 1290 0
5147 1289 5145 0
5147 5145 5148 0
1285 5147 5148 0
5149 5148 1290 0
5127 1285 5148 0
5127 5148 5149 0
78 5127 5149 0
5151 5129 79 0
5150 1287 5129 0
5150 5129 5151 0
1292 5150 5151 0
5153 5134 1287 0
5152 323 5134 0
5152 5134 5153 0
1291 5152 5153 0
5154 5150 1292 0
5153 1287 5150 0
5153 5150 5154 0
1291 5153 5154 0
5156 5154 1292 0
5155 1291 5154 0
5155 5154 5156 0
325 5155 5156 0
5158 5146 323 0
5157 1290 5146 0
5157 5146 5158 0
1294 5157 5158 0
5160 5149 1290 0
5159 78 5149 0
5159 5149 5160 0
1293 5159 5160 0
5161 5157 1294 0
5160 1290 5157 0
5160 5157 5161 0
1293 5160 5161 0
5163 5161 1294 0
5162 1293 5161 0
5162 5161 5163 0
324 5162 5163 0
5165 5155 325 0
5164 1291 5155 0
5164 5155 5165 0
1295 5164 5165 0
5166 5152 1291 0
5158 323 5152 0
5158 5152 5166 0
1294 5158 5166 0
5167 5164 1295 0
5166 1291 5164 0
5166 5164 5167 0
1294 5166 5167 0
5168 5167 1295 0
5163 1294 5167 0
5163 5167 5168 0
324 5163 5168 0
5170 5165 325 0
5169 1295 5165 0
5169 5165 5170 0
1297 5169 5170 0
5172 5168 1295 0
5171 324 5168 0
5171 5168 5172 0
1296 5171 5172 0
5173 5169 1297 0
5172 1295 5169 0
5172 5169 5173 0
1296 5172 5173 0
5175 5173 1297 0
5174 1296 5173 0
5174 5173 5175 0
22 5174 5175 0
5177 5001 21 0
5176 1255 5001 0
5176 5001 5177 0
1299 5176 5177 0
5179 5006 1255 0
5178 316 5006 0
5178 5006 5179 0
1298 5178 5179 0
5180 5176 1299 0
5179 1255 5176 0
5179 5176 5180 0
1298 5179 5180 0
5182 5180 1299 0
5181 1298 5180 0
5181 5180 5182 0
327 5181 5182 0
5184 5020 316 0
5183 1260 5020 0
5183 5020 5184 0
1301 5183 5184 0
5186 5025 1260 0
5185 77 5025 0
5185 5025 5186 0
1300 5185 5186 0
5187 5183 1301 0
5186 1260 5183 0
5186 5183 5187 0
1300 5186 5187 0
5189 5187 1301 0
5188 1300 5187 0
5188 5187 5189 0
326 5188 5189 0
5191 5181 327 0
5190 1298 5181 0
5190 5181 5191 0
1302 5190 5191 0
5192 5178 1298 0
5184 316 5178 0
5184 5178 5192 0
1301 5184 5192 0
5193 5190 1302 0
5192 1298 5190 0
5192 5190 5193 0
1301 5192 5193 0
5194 5193 1302 0
5189 1301 5193 0
5189 5193 5194 0
326 5189 5194 0
5196 5191 327 0
5195 1302 5191 0
5195 5191 5196 0
1304 5195 5196 0
5198 5194 1302 0
5197 326 5194 0
5197 5194 5198 0
1303 5197 5198 0
5199 5195 1304 0
5198 1302 5195 0
5198 5195 5199 0
1303 5198 5199 0
5201 5199 1304 0
5200 1303 5199 0
5200 5199 5201 0
80 5200 5201 0
5203 5071 77 0
5202 1271 5071 0
5202 5071 5203 0
1305 5202 5203 0
6673 6666 1271 0
6674 5202 1305 0
6673 1271 5202 0
6673 5202 6674 0
5205 6674 1305 0
5204 6675 6674 0
5204 6674 5205 0
328 5204 5205 0
6676 5204 328 0
6677 6675 5204 0
6677 5204 6676 0
5206 6676 328 0
6678 6676 5206 0
6679 6678 5206 0
5208 5200 80 0
5207 1303 5200 0
5207 5200 5208 0
1307 5207 5208 0
5210 5197 1303 0
5209 326 5197 0
5209 5197 5210 0
1306 5209 5210 0
5211 5207 1307 0
5210 1303 5207 0
5210 5207 5211 0
1306 5210 5211 0
5213 5211 1307 0
5212 1306 5211 0
5212 5211 5213 0
329 5212 5213 0
5215 5188 326 0
5214 1300 5188 0
5214 5188 5215 0
1308 5214 5215 0
5216 5185 1300 0
5203 77 5185 0
5203 5185 5216 0
1305 5203 5216 0
5217 5214 1308 0
5216 1300 5214 0
5216 5214 5217 0
1305 5216 5217 0
5218 5217 1308 0
5205 1305 5217 0
5205 5217 5218 0
328 5205 5218 0
5220 5212 329 0
5219 1306 5212 0
5219 5212 5220 0
1309 5219 5220 0
5221 5209 1306 0
5215 326 5209 0
5215 5209 5221 0
1308 5215 5221 0
5222 5219 1309 0
5221 1306 5219 0
5221 5219 5222 0
1308 5221 5222 0
5223 5222 1309 0
5218 1308 5222 0
5218 5222 5223 0
328 5218 5223 0
5225 5220 329 0
5224 1309 5220 0
5224 5220 5225 0
1310 5224 5225 0
5226 5223 1309 0
5206 328 5223 0
5206 5223 5226 0
6679 5206 5226 0
5227 5224 1310 0
5226 1309 5224 0
5226 5224 5227 0
6679 5226 5227 0
6680 5227 1310 0
6681 6679 5227 0
6681 5227 6680 0
5229 5208 80 0
5228 1307 5208 0
5228 5208 5229 0
1312 5228 5229 0
5231 5213 1307 0
5230 329 5213 0
5230 5213 5231 0
1311 5230 5231 0
5232 5228 1312 0
5231 1307 5228 0
5231 5228 5232 0
1311 5231 5232 0
5234 5232 1312 0
5233 1311 5232 0
5233 5232 5234 0
330 5233 5234 0
5236 5225 329 0
5235 1310 5225 0
5235 5225 5236 0
1313 5235 5236 0
6682 6680 1310 0
5237 5235 1313 0
6682 1310 5235 0
6682 5235 5237 0
6683 6682 5237 0
5238 5237 1313 0
6684 6683 5237 0
6684 5237 5238 0
6685 6684 5238 0
5240 5233 330 0
5239 1311 5233 0
5239 5233 5240 0
1314 5239 5240 0
5241 5230 1311 0
5236 329 5230 0
5236 5230 5241 0
1313 5236 5241 0
5242 5239 1314 0
5241 1311 5239 0
5241 5239 5242 0
1313 5241 5242 0
5243 5242 1314 0
5238 1313 5242 0
5238 5242 5243 0
6685 5238 5243 0
5245 5240 330 0
5244 1314 5240 0
5244 5240 5245 0
1315 5244 5245 0
5246 5243 1314 0
6686 6685 5243 0
6686 5243 5246 0
6687 6686 5246 0
5247 5244 1315 0
5246 1314 5244 0
5246 5244 5247 0
6687 5246 5247 0
5249 5247 1315 0
5248 6687 5247 0
5248 5247 5249 0
6688 5248 5249 0
5251 5174 22 0
5250 1296 5174 0
5250 5174 5251 0
1317 5250 5251 0
5253 5171 1296 0
5252 324 5171 0
5252 5171 5253 0
1316 5252 5253 0
5254 5250 1317 0
5253 1296 5250 0
5253 5250 5254 0
1316 5253 5254 0
5256 5254 1317 0
5255 1316 5254 0
5255 5254 5256 0
332 5255 5256 0
5258 5162 324 0
5257 1293 5162 0
5257 5162 5258 0
1319 5257 5258 0
5260 5159 1293 0
5259 78 5159 0
5259 5159 5260 0
1318 5259 5260 0
5261 5257 1319 0
5260 1293 5257 0
5260 5257 5261 0
1318 5260 5261 0
5263 5261 1319 0
5262 1318 5261 0
5262 5261 5263 0
331 5262 5263 0
5265 5255 332 0
5264 1316 5255 0
5264 5255 5265 0
1320 5264 5265 0
5266 5252 1316 0
5258 324 5252 0
5258 5252 5266 0
1319 5258 5266 0
5267 5264 1320 0
5266 1316 5264 0
5266 5264 5267 0
1319 5266 5267 0
5268 5267 1320 0
5263 1319 5267 0
5263 5267 5268 0
331 5263 5268 0
5270 5265 332 0
5269 1320 5265 0
5269 5265 5270 0
1322 5269 5270 0
5272 5268 1320 0
5271 331 5268 0
5271 5268 5272 0
1321 5271 5272 0
5273 5269 1322 0
5272 1320 5269 0
5272 5269 5273 0
1321 5272 5273 0
5275 5273 1322 0
5274 1321 5273 0
5274 5273 5275 0
81 5274 5275 0
5277 5126 78 0
5276 1284 5126 0
5276 5126 5277 0
1324 5276 5277 0
5279 5123 1284 0
5278 321 5123 0
5278 5123 5279 0
1323 5278 5279 0
5280 5276 1324 0
5279 1284 5276 0
5279 5276 5280 0
1323 5279 5280 0
5282 5280 1324 0
5281 1323 5280 0
5281 5280 5282 0
333 5281 5282 0
5284 5114 321 0
5283 1281 5114 0
5283 5114 5284 0
1325 5283 5284 0
5285 5111 1281 0
5177 21 5111 0
5177 5111 5285 0
1299 5177 5285 0
5286 5283 1325 0
5285 1281 5283 0
5285 5283 5286 0
1299 5285 5286 0
5287 5286 1325 0
5182 1299 5286 0
5182 5286 5287 0
327 5182 5287 0
5289 5281 333 0
5288 1323 5281 0
5288 5281 5289 0
1326 5288 5289 0
5290 5278 1323 0
5284 321 5278 0
5284 5278 5290 0
1325 5284 5290 0
5291 5288 1326 0
5290 1323 5288 0
5290 5288 5291 0
1325 5290 5291 0
5292 5291 1326 0
5287 1325 5291 0
5287 5291 5292 0
327 5287 5292 0
5294 5289 333 0
5293 1326 5289 0
5293 5289 5294 0
1327 5293 5294 0
5295 5292 1326 0
5196 327 5292 0
5196 5292 5295 0
1304 5196 5295 0
5296 5293 1327 0
5295 1326 5293 0
5295 5293 5296 0
1304 5295 5296 0
5297 5296 1327 0
5201 1304 5296 0
5201 5296 5297 0
80 5201 5297 0
5299 5274 81 0
5298 1321 5274 0
5298 5274 5299 0
1329 5298 5299 0
5301 5271 1321 0
5300 331 5271 0
5300 5271 5301 0
1328 5300 5301 0
5302 5298 1329 0
5301 1321 5298 0
5301 5298 5302 0
1328 5301 5302 0
5304 5302 1329 0
5303 1328 5302 0
5303 5302 5304 0
334 5303 5304 0
5306 5262 331 0
5305 1318 5262 0
5305 5262 5306 0
1330 5305 5306 0
5307 5259 1318 0
5277 78 5259 0
5277 5259 5307 0
1324 5277 5307 0
5308 5305 1330 0
5307 1318 5305 0
5307 5305 5308 0
1324 5307 5308 0
5309 5308 1330 0
5282 1324 5308 0
5282 5308 5309 0
333 5282 5309 0
5311 5303 334 0
5310 1328 5303 0
5310 5303 5311 0
1331 5310 5311 0
5312 5300 1328 0
5306 331 5300 0
5306 5300 5312 0
1330 5306 5312 0
5313 5310 1331 0
5312 1328 5310 0
5312 5310 5313 0
1330 5312 5313 0
5314 5313 1331 0
5309 1330 5313 0
5309 5313 5314 0
333 5309 5314 0
5316 5311 334 0
5315 1331 5311 0
5315 5311 5316 0
1332 5315 5316 0
5317 5314 1331 0
5294 333 5314 0
5294 5314 5317 0
1327 5294 5317 0
5318 5315 1332 0
5317 1331 5315 0
5317 5315 5318 0
1327 5317 5318 0
5319 5318 1332 0
5297 1327 5318 0
5297 5318 5319 0
80 5297 5319 0
5321 5299 81 0
5320 1329 5299 0
5320 5299 5321 0
1334 5320 5321 0
5323 5304 1329 0
5322 334 5304 0
5322 5304 5323 0
1333 5322 5323 0
5324 5320 1334 0
5323 1329 5320 0
5323 5320 5324 0
1333 5323 5324 0
5326 5324 1334 0
5325 1333 5324 0
5325 5324 5326 0
335 5325 5326 0
5328 5316 334 0
5327 1332 5316 0
5327 5316 5328 0
1335 5327 5328 0
5329 5319 1332 0
5229 80 5319 0
5229 5319 5329 0
1312 5229 5329 0
5330 5327 1335 0
5329 1332 5327 0
5329 5327 5330 0
1312 5329 5330 0
5331 5330 1335 0
5234 1312 5330 0
5234 5330 5331 0
330 5234 5331 0
5333 5325 335 0
5332 1333 5325 0
5332 5325 5333 0
1336 5332 5333 0
5334 5322 1333 0
5328 334 5322 0
5328 5322 5334 0
1335 5328 5334 0
5335 5332 1336 0
5334 1333 5332 0
5334 5332 5335 0
1335 5334 5335 0
5336 5335 1336 0
5331 1335 5335 0
5331 5335 5336 0
330 5331 5336 0
5338 5333 335 0
5337 1336 5333 0
5337 5333 5338 0
1337 5337 5338 0
5339 5336 1336 0
5245 330 5336 0
5245 5336 5339 0
1315 5245 5339 0
5340 5337 1337 0
5339 1336 5337 0
5339 5337 5340 0
1315 5339 5340 0
5341 5340 1337 0
5249 1315 5340 0
5249 5340 5341 0
6688 5249 5341 0
5343 5251 22 0
5342 1317 5251 0
5342 5251 5343 0
1339 5342 5343 0
5345 5256 1317 0
5344 332 5256 0
5344 5256 5345 0
1338 5344 5345 0
5346 5342 1339 0
5345 1317 5342 0
5345 5342 5346 0
1338 5345 5346 0
5348 5346 1339 0
5347 1338 5346 0
5347 5346 5348 0
337 5347 5348 0
5350 5270 332 0
5349 1322 5270 0
5349 5270 5350 0
1341 5349 5350 0
5352 5275 1322 0
5351 81 5275 0
5351 5275 5352 0
1340 5351 5352 0
5353 5349 1341 0
5352 1322 5349 0
5352 5349 5353 0
1340 5352 5353 0
5355 5353 1341 0
5354 1340 5353 0
5354 5353 5355 0
336 5354 5355 0
5357 5347 337 0
5356 1338 5347 0
5356 5347 5357 0
1342 5356 5357 0
5358 5344 1338 0
5350 332 5344 0
5350 5344 5358 0
1341 5350 5358 0
5359 5356 1342 0
5358 1338 5356 0
5358 5356 5359 0
1341 5358 5359 0
5360 5359 1342 0
5355 1341 5359 0
5355 5359 5360 0
336 5355 5360 0
5362 5357 337 0
5361 1342 5357 0
5361 5357 5362 0
1344 5361 5362 0
5364 5360 1342 0
5363 336 5360 0
5363 5360 5364 0
1343 5363 5364 0
5365 5361 1344 0
5364 1342 5361 0
5364 5361 5365 0
1343 5364 5365 0
5367 5365 1344 0
5366 1343 5365 0
5366 5365 5367 0
83 5366 5367 0
5369 5321 81 0
5368 1334 5321 0
5368 5321 5369 0
1346 5368 5369 0
5371 5326 1334 0
5370 335 5326 0
5370 5326 5371 0
1345 5370 5371 0
5372 5368 1346 0
5371 1334 5368 0
5371 5368 5372 0
1345 5371 5372 0
5374 5372 1346 0
5373 1345 5372 0
5373 5372 5374 0
339 5373 5374 0
5376 5338 335 0
5375 1337 5338 0
5375 5338 5376 0
1348 5375 5376 0
5377 5341 1337 0
6689 6688 5341 0
6689 5341 5377 0
1347 6689 5377 0
5378 5375 1348 0
5377 1337 5375 0
5377 5375 5378 0
1347 5377 5378 0
5380 5378 1348 0
5379 1347 5378 0
5379 5378 5380 0
338 5379 5380 0
5382 5373 339 0
5381 1345 5373 0
5381 5373 5382 0
1349 5381 5382 0
5383 5370 1345 0
5376 335 5370 0
5376 5370 5383 0
1348 5376 5383 0
5384 5381 1349 0
5383 1345 5381 0
5383 5381 5384 0
1348 5383 5384 0
5385 5384 1349 0
5380 1348 5384 0
5380 5384 5385 0
338 5380 5385 0
5387 5382 339 0
5386 1349 5382 0
5386 5382 5387 0
1351 5386 5387 0
5389 5385 1349 0
5388 338 5385 0
5388 5385 5389 0
1350 5388 5389 0
5390 5386 1351 0
5389 1349 5386 0
5389 5386 5390 0
1350 5389 5390 0
5392 5390 1351 0
5391 1350 5390 0
5391 5390 5392 0
82 5391 5392 0
5394 5366 83 0
5393 1343 5366 0
5393 5366 5394 0
1353 5393 5394 0
5396 5363 1343 0
5395 336 5363 0
5395 5363 5396 0
1352 5395 5396 0
5397 5393 1353 0
5396 1343 5393 0
5396 5393 5397 0
1352 5396 5397 0
5399 5397 1353 0
5398 1352 5397 0
5398 5397 5399 0
340 5398 5399 0
5401 5354 336 0
5400 1340 5354 0
5400 5354 5401 0
1354 5400 5401 0
5402 5351 1340 0
5369 81 5351 0
5369 5351 5402 0
1346 5369 5402 0
5403 5400 1354 0
5402 1340 5400 0
5402 5400 5403 0
1346 5402 5403 0
5404 5403 1354 0
5374 1346 5403 0
5374 5403 5404 0
339 5374 5404 0
5406 5398 340 0
5405 1352 5398 0
5405 5398 5406 0
1355 5405 5406 0
5407 5395 1352 0
5401 336 5395 0
5401 5395 5407 0
1354 5401 5407 0
5408 5405 1355 0
5407 1352 5405 0
5407 5405 5408 0
1354 5407 5408 0
5409 5408 1355 0
5404 1354 5408 0
5404 5408 5409 0
339 5404 5409 0
5411 5406 340 0
5410 1355 5406 0
5410 5406 5411 0
1356 5410 5411 0
5412 5409 1355 0
5387 339 5409 0
5387 5409 5412 0
1351 5387 5412 0
5413 5410 1356 0
5412 1355 5410 0
5412 5410 5413 0
1351 5412 5413 0
5414 5413 1356 0
5392 1351 5413 0
5392 5413 5414 0
82 5392 5414 0
5416 5394 83 0
5415 1353 5394 0
5415 5394 5416 0
1358 5415 5416 0
5418 5399 1353 0
5417 340 5399 0
5417 5399 5418 0
1357 5417 5418 0
5419 5415 1358 0
5418 1353 5415 0
5418 5415 5419 0
1357 5418 5419 0
5421 5419 1358 0
5420 1357 5419 0
5420 5419 5421 0
342 5420 5421 0
5423 5411 340 0
5422 1356 5411 0
5422 5411 5423 0
1360 5422 5423 0
5425 5414 1356 0
5424 82 5414 0
5424 5414 5425 0
1359 5424 5425 0
5426 5422 1360 0
5425 1356 5422 0
5425 5422 5426 0
1359 5425 5426 0
5428 5426 1360 0
5427 1359 5426 0
5427 5426 5428 0
341 5427 5428 0
5430 5420 342 0
5429 1357 5420 0
5429 5420 5430 0
1361 5429 5430 0
5431 5417 1357 0
5423 340 5417 0
5423 5417 5431 0
1360 5423 5431 0
5432 5429 1361 0
5431 1357 5429 0
5431 5429 5432 0
1360 5431 5432 0
5433 5432 1361 0
5428 1360 5432 0
5428 5432 5433 0
341 5428 5433 0
5435 5430 342 0
5434 1361 5430 0
5434 5430 5435 0
1363 5434 5435 0
5437 5433 1361 0
5436 341 5433 0
5436 5433 5437 0
1362 5436 5437 0
5438 5434 1363 0
5437 1361 5434 0
5437 5434 5438 0
1362 5437 5438 0
5440 5438 1363 0
5439 1362 5438 0
5439 5438 5440 0
2 5439 5440 0
5442 5439 2 0
5441 1362 5439 0
5441 5439 5442 0
6690 5441 5442 0
5444 5436 1362 0
5443 341 5436 0
5443 5436 5444 0
1364 5443 5444 0
5445 5441 6690 0
5444 1362 5441 0
5444 5441 5445 0
1364 5444 5445 0
5446 5445 6690 0
6691 1364 5445 0
6691 5445 5446 0
6692 6691 5446 0
5448 5427 341 0
5447 1359 5427 0
5447 5427 5448 0
1366 5447 5448 0
5450 5424 1359 0
5449 82 5424 0
5449 5424 5450 0
1365 5449 5450 0
5451 5447 1366 0
5450 1359 5447 0
5450 5447 5451 0
1365 5450 5451 0
5453 5451 1366 0
5452 1365 5451 0
5452 5451 5453 0
343 5452 5453 0
5454 1364 6691 0
5454 6691 6693 0
6694 5454 6693 0
5455 5443 1364 0
5448 341 5443 0
5448 5443 5455 0
1366 5448 5455 0
5456 5454 6694 0
5455 1364 5454 0
5455 5454 5456 0
1366 5455 5456 0
5457 5456 6694 0
5453 1366 5456 0
5453 5456 5457 0
343 5453 5457 0
6695 5457 6694 0
6696 343 5457 0
6696 5457 6695 0
5459 5391 82 0
5458 1350 5391 0
5458 5391 5459 0
1368 5458 5459 0
5461 5388 1350 0
5460 338 5388 0
5460 5388 5461 0
1367 5460 5461 0
6697 5458 1368 0
5461 1350 5458 0
5461 5458 6697 0
1367 5461 6697 0
5462 6697 1368 0
6698 1367 6697 0
6698 6697 5462 0
6699 6698 5462 0
6700 5379 338 0
6701 1347 5379 0
6701 5379 6700 0
6702 6689 1347 0
6702 1347 6701 0
6703 1367 6698 0
6704 5460 1367 0
6700 338 5460 0
6700 5460 6704 0
6704 1367 6703 0
6705 343 6696 0
5464 5452 343 0
5463 1365 5452 0
5463 5452 5464 0
1369 5463 5464 0
5465 5449 1365 0
5459 82 5449 0
5459 5449 5465 0
1368 5459 5465 0
5466 5463 1369 0
5465 1365 5463 0
5465 5463 5466 0
1368 5465 5466 0
6706 5466 1369 0
5462 1368 5466 0
5462 5466 6706 0
6699 5462 6706 0
5464 343 6705 0
5464 6705 6707 0
1369 5464 6707 0
1369 6707 6708 0
6706 1369 6708 0
6709 5248 6688 0
6710 6687 5248 0
6710 5248 6709 0
5467 5442 2 0
6711 6690 5442 0
6711 5442 5467 0
6712 6711 5467 0
6713 5446 6690 0
6714 6692 5446 0
6714 5446 6713 0
5469 4115 0 0
5468 1031 4115 0
5468 4115 5469 0
1371 5468 5469 0
5471 4120 1031 0
5470 260 4120 0
5470 4120 5471 0
1370 5470 5471 0
5472 5468 1371 0
5471 1031 5468 0
5471 5468 5472 0
1370 5471 5472 0
5474 5472 1371 0
5473 1370 5472 0
5473 5472 5474 0
345 5473 5474 0
5476 4134 260 0
5475 1036 4134 0
5475 4134 5476 0
1373 5475 5476 0
5478 4139 1036 0
5477 64 4139 0
5477 4139 5478 0
1372 5477 5478 0
5479 5475 1373 0
5478 1036 5475 0
5478 5475 5479 0
1372 5478 5479 0
5481 5479 1373 0
5480 1372 5479 0
5480 5479 5481 0
344 5480 5481 0
5483 5473 345 0
5482 1370 5473 0
5482 5473 5483 0
1374 5482 5483 0
5484 5470 1370 0
5476 260 5470 0
5476 5470 5484 0
1373 5476 5484 0
5485 5482 1374 0
5484 1370 5482 0
5484 5482 5485 0
1373 5484 5485 0
5486 5485 1374 0
5481 1373 5485 0
5481 5485 5486 0
344 5481 5486 0
6715 5483 345 0
6716 1374 5483 0
6716 5483 6715 0
5488 5486 1374 0
5487 344 5486 0
5487 5486 5488 0
6717 5487 5488 0
5488 1374 6716 0
5488 6716 6718 0
6717 5488 6718 0
5490 4189 64 0
5489 1050 4189 0
5489 4189 5490 0
1376 5489 5490 0
5492 4194 1050 0
5491 265 4194 0
5491 4194 5492 0
1375 5491 5492 0
5493 5489 1376 0
5492 1050 5489 0
5492 5489 5493 0
1375 5492 5493 0
5495 5493 1376 0
5494 1375 5493 0
5494 5493 5495 0
347 5494 5495 0
5497 4208 265 0
5496 1055 4208 0
5496 4208 5497 0
1378 5496 5497 0
5499 4213 1055 0
5498 19 4213 0
5498 4213 5499 0
1377 5498 5499 0
5500 5496 1378 0
5499 1055 5496 0
5499 5496 5500 0
1377 5499 5500 0
5502 5500 1378 0
5501 1377 5500 0
5501 5500 5502 0
346 5501 5502 0
5504 5494 347 0
5503 1375 5494 0
5503 5494 5504 0
1379 5503 5504 0
5505 5491 1375 0
5497 265 5491 0
5497 5491 5505 0
1378 5497 5505 0
5506 5503 1379 0
5505 1375 5503 0
5505 5503 5506 0
1378 5505 5506 0
5507 5506 1379 0
5502 1378 5506 0
5502 5506 5507 0
346 5502 5507 0
5509 5504 347 0
5508 1379 5504 0
5508 5504 5509 0
1381 5508 5509 0
5511 5507 1379 0
5510 346 5507 0
5510 5507 5511 0
1380 5510 5511 0
5512 5508 1381 0
5511 1379 5508 0
5511 5508 5512 0
1380 5511 5512 0
5514 5512 1381 0
5513 1380 5512 0
5513 5512 5514 0
84 5513 5514 0
5516 5487 6717 0
5515 344 5487 0
5515 5487 5516 0
1382 5515 5516 0
5516 6717 6719 0
5516 6719 6720 0
1382 5516 6720 0
6721 1382 6720 0
5518 5480 344 0
5517 1372 5480 0
5517 5480 5518 0
1383 5517 5518 0
5519 5477 1372 0
5490 64 5477 0
5490 5477 5519 0
1376 5490 5519 0
5520 5517 1383 0
5519 1372 5517 0
5519 5517 5520 0
1376 5519 5520 0
5521 5520 1383 0
5495 1376 5520 0
5495 5520 5521 0
347 5495 5521 0
5523 6721 6722 0
5522 1382 6721 0
5522 6721 5523 0
1384 5522 5523 0
5524 5515 1382 0
5518 344 5515 0
5518 5515 5524 0
1383 5518 5524 0
5525 5522 1384 0
5524 1382 5522 0
5524 5522 5525 0
1383 5524 5525 0
5526 5525 1384 0
5521 1383 5525 0
5521 5525 5526 0
347 5521 5526 0
6723 5523 6722 0
5527 1384 5523 0
5527 5523 6723 0
1385 5527 6723 0
5528 5526 1384 0
5509 347 5526 0
5509 5526 5528 0
1381 5509 5528 0
5529 5527 1385 0
5528 1384 5527 0
5528 5527 5529 0
1381 5528 5529 0
5530 5529 1385 0
5514 1381 5529 0
5514 5529 5530 0
84 5514 5530 0
6724 1385 6723 0
5531 5530 1385 0
6725 84 5530 0
6725 5530 5531 0
6726 6725 5531 0
5531 1385 6724 0
5531 6724 6727 0
6726 5531 6727 0
5533 4407 19 0
5532 1105 4407 0
5532 4407 5533 0
1387 5532 5533 0
5535 4412 1105 0
5534 279 4412 0
5534 4412 5535 0
1386 5534 5535 0
5536 5532 1387 0
5535 1105 5532 0
5535 5532 5536 0
1386 5535 5536 0
5538 5536 1387 0
5537 1386 5536 0
5537 5536 5538 0
349 5537 5538 0
5540 4426 279 0
5539 1110 4426 0
5539 4426 5540 0
1389 5539 5540 0
5542 4431 1110 0
5541 69 4431 0
5541 4431 5542 0
1388 5541 5542 0
5543 5539 1389 0
5542 1110 5539 0
5542 5539 5543 0
1388 5542 5543 0
5545 5543 1389 0
5544 1388 5543 0
5544 5543 5545 0
348 5544 5545 0
5547 5537 349 0
5546 1386 5537 0
5546 5537 5547 0
1390 5546 5547 0
5548 5534 1386 0
5540 279 5534 0
5540 5534 5548 0
1389 5540 5548 0
5549 5546 1390 0
5548 1386 5546 0
5548 5546 5549 0
1389 5548 5549 0
5550 5549 1390 0
5545 1389 5549 0
5545 5549 5550 0
348 5545 5550 0
5552 5547 349 0
5551 1390 5547 0
5551 5547 5552 0
1392 5551 5552 0
5554 5550 1390 0
5553 348 5550 0
5553 5550 5554 0
1391 5553 5554 0
5555 5551 1392 0
5554 1390 5551 0
5554 5551 5555 0
1391 5554 5555 0
5557 5555 1392 0
5556 1391 5555 0
5556 5555 5557 0
86 5556 5557 0
5559 4481 69 0
5558 1124 4481 0
5558 4481 5559 0
1394 5558 5559 0
5561 4486 1124 0
5560 284 4486 0
5560 4486 5561 0
1393 5560 5561 0
5562 5558 1394 0
5561 1124 5558 0
5561 5558 5562 0
1393 5561 5562 0
5564 5562 1394 0
5563 1393 5562 0
5563 5562 5564 0
351 5563 5564 0
5566 4500 284 0
5565 1129 4500 0
5565 4500 5566 0
1396 5565 5566 0
5568 4505 1129 0
5567 6 4505 0
5567 4505 5568 0
1395 5567 5568 0
5569 5565 1396 0
5568 1129 5565 0
5568 5565 5569 0
1395 5568 5569 0
5571 5569 1396 0
5570 1395 5569 0
5570 5569 5571 0
350 5570 5571 0
5573 5563 351 0
5572 1393 5563 0
5572 5563 5573 0
1397 5572 5573 0
5574 5560 1393 0
5566 284 5560 0
5566 5560 5574 0
1396 5566 5574 0
5575 5572 1397 0
5574 1393 5572 0
5574 5572 5575 0
1396 5574 5575 0
5576 5575 1397 0
5571 1396 5575 0
5571 5575 5576 0
350 5571 5576 0
5578 5573 351 0
5577 1397 5573 0
5577 5573 5578 0
1399 5577 5578 0
5580 5576 1397 0
5579 350 5576 0
5579 5576 5580 0
1398 5579 5580 0
5581 5577 1399 0
5580 1397 5577 0
5580 5577 5581 0
1398 5580 5581 0
5583 5581 1399 0
5582 1398 5581 0
5582 5581 5583 0
85 5582 5583 0
5585 5556 86 0
5584 1391 5556 0
5584 5556 5585 0
1401 5584 5585 0
5587 5553 1391 0
5586 348 5553 0
5586 5553 5587 0
1400 5586 5587 0
5588 5584 1401 0
5587 1391 5584 0
5587 5584 5588 0
1400 5587 5588 0
5590 5588 1401 0
5589 1400 5588 0
5589 5588 5590 0
352 5589 5590 0
5592 5544 348 0
5591 1388 5544 0
5591 5544 5592 0
1402 5591 5592 0
5593 5541 1388 0
5559 69 5541 0
5559 5541 5593 0
1394 5559 5593 0
5594 5591 1402 0
5593 1388 5591 0
5593 5591 5594 0
1394 5593 5594 0
5595 5594 1402 0
5564 1394 5594 0
5564 5594 5595 0
351 5564 5595 0
5597 5589 352 0
5596 1400 5589 0
5596 5589 5597 0
1403 5596 5597 0
5598 5586 1400 0
5592 348 5586 0
5592 5586 5598 0
1402 5592 5598 0
5599 5596 1403 0
5598 1400 5596 0
5598 5596 5599 0
1402 5598 5599 0
5600 5599 1403 0
5595 1402 5599 0
5595 5599 5600 0
351 5595 5600 0
5602 5597 352 0
5601 1403 5597 0
5601 5597 5602 0
1404 5601 5602 0
5603 5600 1403 0
5578 351 5600 0
5578 5600 5603 0
1399 5578 5603 0
5604 5601 1404 0
5603 1403 5601 0
5603 5601 5604 0
1399 5603 5604 0
5605 5604 1404 0
5583 1399 5604 0
5583 5604 5605 0
85 5583 5605 0
5607 5585 86 0
5606 1401 5585 0
5606 5585 5607 0
1406 5606 5607 0
5609 5590 1401 0
5608 352 5590 0
5608 5590 5609 0
1405 5608 5609 0
5610 5606 1406 0
5609 1401 5606 0
5609 5606 5610 0
1405 5609 5610 0
5612 5610 1406 0
5611 1405 5610 0
5611 5610 5612 0
354 5611 5612 0
5614 5602 352 0
5613 1404 5602 0
5613 5602 5614 0
1408 5613 5614 0
5616 5605 1404 0
5615 85 5605 0
5615 5605 5616 0
1407 5615 5616 0
5617 5613 1408 0
5616 1404 5613 0
5616 5613 5617 0
1407 5616 5617 0
5619 5617 1408 0
5618 1407 5617 0
5618 5617 5619 0
353 5618 5619 0
5621 5611 354 0
5620 1405 5611 0
5620 5611 5621 0
1409 5620 5621 0
5622 5608 1405 0
5614 352 5608 0
5614 5608 5622 0
1408 5614 5622 0
5623 5620 1409 0
5622 1405 5620 0
5622 5620 5623 0
1408 5622 5623 0
5624 5623 1409 0
5619 1408 5623 0
5619 5623 5624 0
353 5619 5624 0
5625 5621 354 0
6728 1409 5621 0
6728 5621 5625 0
6729 6728 5625 0
5627 5624 1409 0
5626 353 5624 0
5626 5624 5627 0
6730 5626 5627 0
5627 1409 6728 0
5627 6728 6731 0
6730 5627 6731 0
6732 84 6725 0
5629 5513 84 0
5628 1380 5513 0
5628 5513 5629 0
1411 5628 5629 0
5631 5510 1380 0
5630 346 5510 0
5630 5510 5631 0
1410 5630 5631 0
5632 5628 1411 0
5631 1380 5628 0
5631 5628 5632 0
1410 5631 5632 0
5634 5632 1411 0
5633 1410 5632 0
5633 5632 5634 0
355 5633 5634 0
5636 5501 346 0
5635 1377 5501 0
5635 5501 5636 0
1412 5635 5636 0
5637 5498 1377 0
5533 19 5498 0
5533 5498 5637 0
1387 5533 5637 0
5638 5635 1412 0
5637 1377 5635 0
5637 5635 5638 0
1387 5637 5638 0
5639 5638 1412 0
5538 1387 5638 0
5538 5638 5639 0
349 5538 5639 0
5641 5633 355 0
5640 1410 5633 0
5640 5633 5641 0
1413 5640 5641 0
5642 5630 1410 0
5636 346 5630 0
5636 5630 5642 0
1412 5636 5642 0
5643 5640 1413 0
5642 1410 5640 0
5642 5640 5643 0
1412 5642 5643 0
5644 5643 1413 0
5639 1412 5643 0
5639 5643 5644 0
349 5639 5644 0
5646 5641 355 0
5645 1413 5641 0
5645 5641 5646 0
1414 5645 5646 0
5647 5644 1413 0
5552 349 5644 0
5552 5644 5647 0
1392 5552 5647 0
5648 5645 1414 0
5647 1413 5645 0
5647 5645 5648 0
1392 5647 5648 0
5649 5648 1414 0
5557 1392 5648 0
5557 5648 5649 0
86 5557 5649 0
5650 6733 6734 0
5650 6734 6735 0
6736 5650 6735 0
5629 84 6732 0
5629 6732 6737 0
1411 5629 6737 0
5651 5650 6736 0
6737 6733 5650 0
6737 5650 5651 0
1411 6737 5651 0
5652 5651 6736 0
5634 1411 5651 0
5634 5651 5652 0
355 5634 5652 0
5653 6738 6739 0
6740 6738 5653 0
1415 6740 5653 0
5654 6740 1415 0
6741 6740 5654 0
6736 6741 5654 0
5655 5654 1415 0
5652 6736 5654 0
5652 5654 5655 0
355 5652 5655 0
5657 5653 6739 0
5656 1415 5653 0
5656 5653 5657 0
1416 5656 5657 0
5658 5655 1415 0
5646 355 5655 0
5646 5655 5658 0
1414 5646 5658 0
5659 5656 1416 0
5658 1415 5656 0
5658 5656 5659 0
1414 5658 5659 0
5660 5659 1416 0
5649 1414 5659 0
5649 5659 5660 0
86 5649 5660 0
6742 5657 6739 0
5661 1416 5657 0
5661 5657 6742 0
1417 5661 6742 0
5662 5660 1416 0
5607 86 5660 0
5607 5660 5662 0
1406 5607 5662 0
5663 5661 1417 0
5662 1416 5661 0
5662 5661 5663 0
1406 5662 5663 0
5664 5663 1417 0
5612 1406 5663 0
5612 5663 5664 0
354 5612 5664 0
1417 6742 6743 0
1417 6743 6744 0
5664 1417 6744 0
5664 6744 6745 0
354 5664 6745 0
5625 354 6745 0
5625 6745 6746 0
6729 5625 6746 0
5666 5077 6 0
5665 1273 5077 0
5665 5077 5666 0
1419 5665 5666 0
5668 5082 1273 0
5667 320 5082 0
5667 5082 5668 0
1418 5667 5668 0
5669 5665 1419 0
5668 1273 5665 0
5668 5665 5669 0
1418 5668 5669 0
5671 5669 1419 0
5670 1418 5669 0
5670 5669 5671 0
357 5670 5671 0
5673 5096 320 0
5672 1278 5096 0
5672 5096 5673 0
1421 5672 5673 0
5675 5101 1278 0
5674 79 5101 0
5674 5101 5675 0
1420 5674 5675 0
5676 5672 1421 0
5675 1278 5672 0
5675 5672 5676 0
1420 5675 5676 0
5678 5676 1421 0
5677 1420 5676 0
5677 5676 5678 0
356 5677 5678 0
5680 5670 357 0
5679 1418 5670 0
5679 5670 5680 0
1422 5679 5680 0
5681 5667 1418 0
5673 320 5667 0
5673 5667 5681 0
1421 5673 5681 0
5682 5679 1422 0
5681 1418 5679 0
5681 5679 5682 0
1421 5681 5682 0
5683 5682 1422 0
5678 1421 5682 0
