#!ascii - generated by CreateLabelFiles project 
6823 13098
2.07046 105.348 0.834235 0
1.20283 106.116 0.0662723 0
2.31326 104.613 1.39272 0
2.16441 104.097 1.4957 0
1.10044 103.022 0.97914 0
1.92561 103.642 1.41789 0
-1.56045 101.939 1.09392 0
0.0895365 102.495 0.543126 0
-4.11137 98.2518 1.04338 0
-3.44861 99.4812 0.952732 0
-2.56877 100.733 0.995536 0
-4.55069 97.1089 1.28624 0
-5.69467 93.9785 4.57872 0
-5.75444 94.4236 3.94 0
-4.52166 95.3503 3.04497 0
-4.41471 95.778 2.10856 0
-6.31957 91.9418 6.67009 0
-6.2152 92.7461 5.58 0
-5.67859 93.7382 5.20882 0
-6.01693 92.3084 5.75001 0
-2.54136 88.4249 22.8683 0
-2.59759 89.0678 22.7684 0
-2.5204 89.679 22.6136 0
-2.64071 90.2099 22.3949 0
-2.9328 90.6881 22.2669 0
-3.27717 91.1531 22.185 0
-3.64364 90.9301 21.6351 0
-4.02665 92.1333 21.7259 0
-4.17437 91.902 20.9735 0
-4.03447 91.4057 21.415 0
-4.08114 94.3494 18.5976 0
-4.50357 92.8667 19.1089 0
-4.19186 93.473 18.7808 0
-4.3007 92.3945 20.4481 0
-4.46807 92.2341 19.6955 0
-1.47071 95.4853 17.1501 0
-1.00926 95.0852 17.1441 0
-0.332579 95.799 17.2289 0
0.0493885 95.4585 17.0955 0
-3.65667 94.2428 18.2826 0
-3.16981 94.1234 18.0438 0
-2.60829 94.9103 17.481 0
-2.12956 94.7585 17.2556 0
0.413551 95.1041 16.9488 0
-1.0476 93.936 14.0588 0
-1.01427 93.9009 13.1718 0
-0.501591 94.1254 15.5511 0
-1.05014 94.0137 14.9212 0
0.291922 94.5569 16.464 0
-0.0274065 94.2826 16.1202 0
0.424431 94.8474 16.7138 0
-1.77205 93.8701 12.4888 0
-2.41182 93.0922 11.9074 0
-3.06399 93.115 11.2774 0
-3.82324 93.1984 10.6183 0
-4.15659 92.4064 10.0841 0
-4.51836 91.6521 9.57923 0
-5.31433 91.4886 9.08906 0
-5.70306 92.0624 9.075 0
-6.4402 91.8374 8.61278 0
-6.65995 91.9195 8.07304 0
-6.52404 91.5432 7.49882 0
11.0226 72.8352 26.9249 0
10.622 72.0617 28.097 0
10.2094 71.3393 29.6491 0
10.1955 71.4064 29.1443 0
9.45393 70.7507 30.2944 0
9.01886 69.7869 32.0014 0
8.72539 70.0489 31.4516 0
8.39475 69.0832 32.4801 0
8.14205 68.0408 33.4149 0
7.71102 67.1432 34.0631 0
4.48848 62.8858 34.6507 0
5.04827 63.6365 34.878 0
5.97478 65.2144 34.9737 0
7.01197 66.4641 34.4635 0
2.8345 62.0584 33.6599 0
3.6895 62.4797 33.8354 0
4.84997 63.7313 34.2758 0
5.31612 64.5371 34.5048 0
5.69149 65.274 34.5393 0
6.09445 65.9102 34.2983 0
1.58108 61.5325 34.2541 0
-0.69946 61.0319 33.5334 0
-2.13139 60.6721 33.5912 0
-3.41892 60.3474 33.6561 0
-6.0953 61.8123 33.7116 0
1.78799 61.4823 33.5989 0
-6.14208 61.424 32.937 0
-5.2363 61.0209 32.7925 0
-4.3029 60.4741 32.8534 0
-0.149644 60.6198 32.9267 0
0.78249 60.9979 33.3587 0
-8.78814 60.6098 35.7454 0
-9.1814 59.7094 36.3914 0
-9.33918 59.4877 35.8802 0
-7.90194 61.7834 34.2415 0
-8.85608 60.9843 34.3516 0
-7.51261 61.7251 33.6697 0
-7.0052 61.6261 33.2038 0
-8.85531 60.6172 35.1153 0
-8.97937 59.8883 36.8572 0
-8.80268 60.0907 37.3972 0
-8.75878 58.658 36.7178 0
-8.18822 57.852 37.0568 0
-8.48164 57.7308 36.5663 0
-7.76415 56.9113 36.6493 0
-7.27155 57.0428 37.0427 0
-5.71212 56.0183 36.3305 0
-6.34915 55.9063 36.2025 0
-5.09303 56.0308 36.4213 0
-3.84862 54.8659 35.2978 0
-3.21106 54.6338 35.4046 0
-2.37531 54.6142 35.3676 0
-1.48824 54.6528 35.2596 0
-0.705749 54.6244 35.1776 0
0.85182 54.3847 34.961 0
1.78472 54.2371 34.8045 0
8.8265 51.6956 35.4669 0
9.6829 51.359 34.8092 0
9.28516 50.5494 35.5652 0
9.60461 50.4622 35.0582 0
9.51028 50.401 34.4822 0
9.40353 49.5094 35.1031 0
9.15097 49.5817 34.4538 0
7.15647 53.057 32.0433 0
6.95792 52.1166 32.029 0
7.35524 51.1768 32.1563 0
5.10592 53.6133 32.7067 0
4.22721 53.4392 33.0411 0
3.20255 53.2682 33.5225 0
6.39235 52.3229 31.6985 0
5.96865 52.956 31.8321 0
8.82521 49.7196 33.7137 0
7.8779 51.1001 32.2757 0
8.51778 49.9068 33.1193 0
8.15955 50.0576 32.4356 0
1.1959 53.5236 34.0079 0
0.285113 53.6974 34.1373 0
7.92924 51.5471 35.5621 0
6.68363 51.3994 35.2764 0
8.40668 51.0873 35.4048 0
8.77221 50.6322 35.8535 0
-22.6321 76.9541 39.7286 0
-22.561 76.6844 39.868 0
-22.4715 76.1794 39.6389 0
-22.4912 76.4471 39.4668 0
-22.4434 75.8667 39.2685 0
-22.3987 75.5642 39.4926 0
-22.3636 75.2496 39.7586 0
-22.3179 74.8635 39.3871 0
-22.0553 74.4593 39.5329 0
-21.8795 74.022 39.0887 0
-21.174 72.9526 39.2655 0
-21.1291 73.1051 38.6717 0
-21.6053 73.5765 38.604 0
-17.1793 65.4063 39.7742 0
-17.595 65.3023 39.2145 0
-16.2693 64.3979 39.696 0
-16.8792 64.8563 39.4411 0
-21.0051 72.3221 39.3024 0
-20.7074 71.8535 38.7875 0
-20.3248 71.4354 38.369 0
-20.0914 70.8527 38.6008 0
-20.1993 70.7055 39.2385 0
-20.7347 71.7184 39.4799 0
-20.7716 68.8346 38.7169 0
-20.8535 68.0983 39.0007 0
-20.515 69.5007 39.0536 0
-20.2144 70.1937 38.8462 0
-20.5084 67.5121 39.27 0
-20.2809 67.0248 38.9328 0
-19.5806 66.5571 39.1663 0
-18.8558 66.1135 39.4012 0
-18.4195 65.6845 39.0374 0
-10.0355 49.95 39.6591 0
-12.9226 50.4774 39.7726 0
-12.9766 50.4109 39.2636 0
-11.6539 49.9032 39.4729 0
-10.8938 49.958 39.2393 0
-12.2767 50.3085 39.0509 0
-16.1159 63.8671 39.4018 0
-15.937 63.2883 39.789 0
-15.8326 62.5938 40.224 0
-16.04 61.8727 40.1381 0
-15.6543 61.1912 40.5816 0
-15.6782 60.6602 40.5009 0
-15.3534 60.085 40.9908 0
-15.0534 59.4328 40.7811 0
-14.1845 57.6499 40.3518 0
-14.0989 57.089 40.759 0
-14.2739 58.0255 40.6397 0
-14.4335 58.3773 40.9242 0
-14.6094 58.7919 41.2081 0
-14.0994 56.2532 40.1653 0
-14.0091 55.7631 39.8468 0
-14.084 56.6609 40.4861 0
-15.1114 52.8285 39.2041 0
-15.214 52.3153 39.0219 0
-15.2119 51.6877 39.4441 0
-14.4297 54.3008 39.4305 0
-14.6935 53.8799 39.0837 0
-14.1144 55.2961 39.4812 0
-14.1887 54.7808 39.1261 0
-14.9093 53.4221 38.8026 0
-15.1984 51.2367 39.2094 0
-14.9606 50.936 39.4402 0
-15.1547 50.5399 39.2267 0
-14.8473 50.5154 39.3131 0
-14.2591 50.6016 39.5753 0
-13.6544 50.5165 39.4297 0
5.60151 51.6424 35.97 0
4.49175 51.7961 36.6459 0
-9.08122 50.1107 39.4339 0
-8.1403 50.0334 39.2564 0
-7.12022 49.6952 39.9778 0
-6.3736 49.1806 39.9003 0
-5.23636 47.8091 42.9384 0
-4.76152 47.0285 43.9427 0
-4.9409 43.2876 47.4968 0
-5.05311 43.0674 46.9334 0
-4.34562 46.0635 45.0061 0
-4.68817 45.0366 45.2712 0
-4.72794 44.0825 46.2314 0
-6.00299 48.8498 40.8318 0
-5.77538 49.0979 41.6544 0
-5.50122 48.5435 41.8057 0
-4.13236 42.6079 45.0393 0
-3.49515 42.9436 44.113 0
-3.36086 42.4994 43.1441 0
-2.98868 43.0339 42.2137 0
-2.93628 43.8012 41.3102 0
2.19683 50.8576 37.2795 0
3.21313 51.0104 36.7486 0
0.302351 49.668 37.3381 0
1.09201 49.9685 37.2482 0
-0.849192 48.335 37.3498 0
-0.570572 48.8549 36.9151 0
-2.61802 44.7528 40.3483 0
-2.0905 45.7837 39.4915 0
-1.56803 46.7029 38.6624 0
-1.26591 47.7603 37.8317 0
-5.09378 42.4365 46.6663 0
-5.04359 42.1015 46.406 0
-4.61191 42.3193 45.7802 0
-22.6556 77.2507 39.6283 0
-22.3838 77.7424 39.0894 0
-22.6123 77.5298 39.5667 0
-22.5066 77.5155 39.1037 0
-22.079 78.0172 38.66 0
-22.3195 77.7417 38.6353 0
1567 6274 6275 0
1567 6275 6276 0
6277 1567 6276 0
1568 6277 6278 0
1568 6278 6279 0
95 1568 6279 0
391 6280 6281 0
6282 6280 391 0
1569 6282 391 0
6279 6282 1569 0
95 6279 1569 0
1571 6281 6283 0
1570 391 6281 0
1570 6281 1571 0
393 1570 1571 0
1573 1569 391 0
1572 95 1569 0
1572 1569 1573 0
392 1572 1573 0
1574 1570 393 0
1573 391 1570 0
1573 1570 1574 0
392 1573 1574 0
1576 1574 393 0
1575 392 1574 0
1575 1574 1576 0
7 1575 1576 0
1577 6284 6285 0
6286 6284 1577 0
96 6286 1577 0
6287 6286 96 0
1579 6287 96 0
1578 6288 6287 0
1578 6287 1579 0
394 1578 1579 0
1580 6289 6288 0
1571 6283 6289 0
1571 6289 1580 0
393 1571 1580 0
1581 1578 394 0
1580 6288 1578 0
1580 1578 1581 0
393 1580 1581 0
1582 1581 394 0
1576 393 1581 0
1576 1581 1582 0
7 1576 1582 0
1584 1577 6285 0
1583 96 1577 0
1583 1577 1584 0
395 1583 1584 0
1584 6285 6290 0
1584 6290 6291 0
395 1584 6291 0
1586 6291 6292 0
1585 395 6291 0
1585 6291 1586 0
98 1585 1586 0
1588 1579 96 0
1587 394 1579 0
1587 1579 1588 0
397 1587 1588 0
1590 1582 394 0
1589 7 1582 0
1589 1582 1590 0
396 1589 1590 0
1591 1587 397 0
1590 394 1587 0
1590 1587 1591 0
396 1590 1591 0
1593 1591 397 0
1592 396 1591 0
1592 1591 1593 0
97 1592 1593 0
1595 1585 98 0
1594 395 1585 0
1594 1585 1595 0
398 1594 1595 0
1596 1583 395 0
1588 96 1583 0
1588 1583 1596 0
397 1588 1596 0
1597 1594 398 0
1596 395 1594 0
1596 1594 1597 0
397 1596 1597 0
1598 1597 398 0
1593 397 1597 0
1593 1597 1598 0
97 1593 1598 0
1600 1595 98 0
1599 398 1595 0
1599 1595 1600 0
400 1599 1600 0
1602 1598 398 0
1601 97 1598 0
1601 1598 1602 0
399 1601 1602 0
1603 1599 400 0
1602 398 1599 0
1602 1599 1603 0
399 1602 1603 0
1605 1603 400 0
1604 399 1603 0
1604 1603 1605 0
25 1604 1605 0
99 6293 6294 0
401 6295 6296 0
6297 6295 401 0
1606 6297 401 0
1586 6292 6297 0
1586 6297 1606 0
98 1586 1606 0
1608 6293 99 0
1607 6298 6293 0
1607 6293 1608 0
402 1607 1608 0
401 6296 6299 0
1609 1607 402 0
6299 6298 1607 0
6299 1607 1609 0
401 6299 1609 0
1610 1609 402 0
1606 401 1609 0
1606 1609 1610 0
98 1606 1610 0
1612 1608 99 0
1611 402 1608 0
1611 1608 1612 0
403 1611 1612 0
1613 1610 402 0
1600 98 1610 0
1600 1610 1613 0
400 1600 1613 0
1614 1611 403 0
1613 402 1611 0
1613 1611 1614 0
400 1613 1614 0
1615 1614 403 0
1605 400 1614 0
1605 1614 1615 0
25 1605 1615 0
1616 99 6294 0
1616 6294 6300 0
6301 1616 6300 0
1618 1612 99 0
1617 403 1612 0
1617 1612 1618 0
405 1617 1618 0
1620 1615 403 0
1619 25 1615 0
1619 1615 1620 0
404 1619 1620 0
1621 1617 405 0
1620 403 1617 0
1620 1617 1621 0
404 1620 1621 0
1623 1621 405 0
1622 404 1621 0
1622 1621 1623 0
100 1622 1623 0
1625 6302 6303 0
1624 6301 6302 0
1624 6302 1625 0
406 1624 1625 0
1626 1616 6301 0
1618 99 1616 0
1618 1616 1626 0
405 1618 1626 0
1627 1624 406 0
1626 6301 1624 0
1626 1624 1627 0
405 1626 1627 0
1628 1627 406 0
1623 405 1627 0
1623 1627 1628 0
100 1623 1628 0
1630 1625 6303 0
1629 406 1625 0
1629 1625 1630 0
408 1629 1630 0
1632 1628 406 0
1631 100 1628 0
1631 1628 1632 0
407 1631 1632 0
1633 1629 408 0
1632 406 1629 0
1632 1629 1633 0
407 1632 1633 0
1635 1633 408 0
1634 407 1633 0
1634 1633 1635 0
1 1634 1635 0
409 6304 6305 0
1636 6306 6307 0
6305 6306 1636 0
409 6305 1636 0
1638 1636 6307 0
1637 409 1636 0
1637 1636 1638 0
102 1637 1638 0
1640 6308 6309 0
1639 6310 6308 0
1639 6308 1640 0
411 1639 1640 0
1642 6311 6310 0
1641 6312 6311 0
1641 6311 1642 0
410 1641 1642 0
1643 1639 411 0
1642 6310 1639 0
1642 1639 1643 0
410 1642 1643 0
1645 1643 411 0
1644 410 1643 0
1644 1643 1645 0
101 1644 1645 0
1647 1637 102 0
1646 409 1637 0
1646 1637 1647 0
412 1646 1647 0
1648 6304 409 0
1640 6309 6304 0
1640 6304 1648 0
411 1640 1648 0
1649 1646 412 0
1648 409 1646 0
1648 1646 1649 0
411 1648 1649 0
1650 1649 412 0
1645 411 1649 0
1645 1649 1650 0
101 1645 1650 0
1652 1647 102 0
1651 412 1647 0
1651 1647 1652 0
414 1651 1652 0
1654 1650 412 0
1653 101 1650 0
1653 1650 1654 0
413 1653 1654 0
1655 1651 414 0
1654 412 1651 0
1654 1651 1655 0
413 1654 1655 0
1657 1655 414 0
1656 413 1655 0
1656 1655 1657 0
27 1656 1657 0
415 6313 6314 0
6315 6313 415 0
1658 6315 415 0
6316 6315 1658 0
103 6316 1658 0
1660 6316 103 0
1659 6317 6316 0
1659 6316 1660 0
6318 1659 1660 0
6319 1659 6318 0
6320 6317 1659 0
6320 1659 6319 0
1662 1660 103 0
1661 6318 1660 0
1661 1660 1662 0
417 1661 1662 0
1663 6321 6318 0
6322 6321 1663 0
416 6322 1663 0
1664 1661 417 0
1663 6318 1661 0
1663 1661 1664 0
416 1663 1664 0
1666 1664 417 0
1665 416 1664 0
1665 1664 1666 0
26 1665 1666 0
1668 1656 27 0
1667 413 1656 0
1667 1656 1668 0
419 1667 1668 0
1670 1653 413 0
1669 101 1653 0
1669 1653 1670 0
418 1669 1670 0
1671 1667 419 0
1670 413 1667 0
1670 1667 1671 0
418 1670 1671 0
1673 1671 419 0
1672 418 1671 0
1672 1671 1673 0
104 1672 1673 0
1675 1644 101 0
1674 410 1644 0
1674 1644 1675 0
420 1674 1675 0
1676 1641 410 0
6314 6312 1641 0
6314 1641 1676 0
415 6314 1676 0
1677 1674 420 0
1676 410 1674 0
1676 1674 1677 0
415 1676 1677 0
1678 1677 420 0
1658 415 1677 0
1658 1677 1678 0
103 1658 1678 0
1680 1672 104 0
1679 418 1672 0
1679 1672 1680 0
421 1679 1680 0
1681 1669 418 0
1675 101 1669 0
1675 1669 1681 0
420 1675 1681 0
1682 1679 421 0
1681 418 1679 0
1681 1679 1682 0
420 1681 1682 0
1683 1682 421 0
1678 420 1682 0
1678 1682 1683 0
103 1678 1683 0
1685 1680 104 0
1684 421 1680 0
1684 1680 1685 0
422 1684 1685 0
1686 1683 421 0
1662 103 1683 0
1662 1683 1686 0
417 1662 1686 0
1687 1684 422 0
1686 421 1684 0
1686 1684 1687 0
417 1686 1687 0
1688 1687 422 0
1666 417 1687 0
1666 1687 1688 0
26 1666 1688 0
1690 1668 27 0
1689 419 1668 0
1689 1668 1690 0
424 1689 1690 0
1692 1673 419 0
1691 104 1673 0
1691 1673 1692 0
423 1691 1692 0
1693 1689 424 0
1692 419 1689 0
1692 1689 1693 0
423 1692 1693 0
1695 1693 424 0
1694 423 1693 0
1694 1693 1695 0
106 1694 1695 0
1697 1685 104 0
1696 422 1685 0
1696 1685 1697 0
426 1696 1697 0
1699 1688 422 0
1698 26 1688 0
1698 1688 1699 0
425 1698 1699 0
1700 1696 426 0
1699 422 1696 0
1699 1696 1700 0
425 1699 1700 0
1702 1700 426 0
1701 425 1700 0
1701 1700 1702 0
105 1701 1702 0
1704 1694 106 0
1703 423 1694 0
1703 1694 1704 0
427 1703 1704 0
1705 1691 423 0
1697 104 1691 0
1697 1691 1705 0
426 1697 1705 0
1706 1703 427 0
1705 423 1703 0
1705 1703 1706 0
426 1705 1706 0
1707 1706 427 0
1702 426 1706 0
1702 1706 1707 0
105 1702 1707 0
1709 1704 106 0
1708 427 1704 0
1708 1704 1709 0
429 1708 1709 0
1711 1707 427 0
1710 105 1707 0
1710 1707 1711 0
428 1710 1711 0
1712 1708 429 0
1711 427 1708 0
1711 1708 1712 0
428 1711 1712 0
1714 1712 429 0
1713 428 1712 0
1713 1712 1714 0
3 1713 1714 0
1716 1713 3 0
1715 428 1713 0
1715 1713 1716 0
431 1715 1716 0
1718 1710 428 0
1717 105 1710 0
1717 1710 1718 0
430 1717 1718 0
1719 1715 431 0
1718 428 1715 0
1718 1715 1719 0
430 1718 1719 0
1721 1719 431 0
1720 430 1719 0
1720 1719 1721 0
108 1720 1721 0
1723 1701 105 0
1722 425 1701 0
1722 1701 1723 0
433 1722 1723 0
1725 1698 425 0
1724 26 1698 0
1724 1698 1725 0
432 1724 1725 0
1726 1722 433 0
1725 425 1722 0
1725 1722 1726 0
432 1725 1726 0
1728 1726 433 0
1727 432 1726 0
1727 1726 1728 0
107 1727 1728 0
1730 1720 108 0
1729 430 1720 0
1729 1720 1730 0
434 1729 1730 0
1731 1717 430 0
1723 105 1717 0
1723 1717 1731 0
433 1723 1731 0
1732 1729 434 0
1731 430 1729 0
1731 1729 1732 0
433 1731 1732 0
1733 1732 434 0
1728 433 1732 0
1728 1732 1733 0
107 1728 1733 0
1735 1730 108 0
1734 434 1730 0
1734 1730 1735 0
435 1734 1735 0
6323 1733 434 0
1736 107 1733 0
1736 1733 6323 0
6324 1736 6323 0
6325 1734 435 0
6323 434 1734 0
6323 1734 6325 0
6326 6325 435 0
1737 1665 26 0
6327 416 1665 0
6327 1665 1737 0
6328 6327 1737 0
6329 6322 416 0
6329 416 6327 0
6330 1736 6324 0
6331 107 1736 0
6331 1736 6330 0
6332 1727 107 0
1738 432 1727 0
1738 1727 6332 0
6333 1738 6332 0
1739 1724 432 0
1737 26 1724 0
1737 1724 1739 0
6328 1737 1739 0
6334 1738 6333 0
1739 432 1738 0
1739 1738 6334 0
6328 1739 6334 0
6332 107 6331 0
1741 1716 3 0
1740 431 1716 0
1740 1716 1741 0
437 1740 1741 0
1743 1721 431 0
1742 108 1721 0
1742 1721 1743 0
436 1742 1743 0
1744 1740 437 0
1743 431 1740 0
1743 1740 1744 0
436 1743 1744 0
1746 1744 437 0
1745 436 1744 0
1745 1744 1746 0
109 1745 1746 0
1748 1735 108 0
1747 435 1735 0
1747 1735 1748 0
438 1747 1748 0
6335 6326 435 0
6336 1747 438 0
6335 435 1747 0
6335 1747 6336 0
6337 6336 438 0
1750 1745 109 0
1749 436 1745 0
1749 1745 1750 0
439 1749 1750 0
1751 1742 436 0
1748 108 1742 0
1748 1742 1751 0
438 1748 1751 0
1752 1749 439 0
1751 436 1749 0
1751 1749 1752 0
438 1751 1752 0
1753 1752 439 0
6337 438 1752 0
6337 1752 1753 0
6338 6337 1753 0
6339 1750 109 0
1754 439 1750 0
1754 1750 6339 0
6340 1754 6339 0
1755 1753 439 0
6341 6338 1753 0
6341 1753 1755 0
6342 6341 1755 0
6343 1754 6340 0
1755 439 1754 0
1755 1754 6343 0
6342 1755 6343 0
1757 6344 6345 0
1756 6346 6344 0
1756 6344 1757 0
440 1756 1757 0
1758 6347 6346 0
1630 6303 6347 0
1630 6347 1758 0
408 1630 1758 0
1759 1756 440 0
1758 6346 1756 0
1758 1756 1759 0
408 1758 1759 0
1760 1759 440 0
1635 408 1759 0
1635 1759 1760 0
1 1635 1760 0
110 6348 6349 0
110 6349 6350 0
6351 110 6350 0
1761 6307 6352 0
1761 6352 6353 0
442 1761 6353 0
1763 1638 6307 0
1762 102 1638 0
1762 1638 1763 0
441 1762 1763 0
1764 1761 442 0
1763 6307 1761 0
1763 1761 1764 0
441 1763 1764 0
1766 1764 442 0
1765 441 1764 0
1765 1764 1766 0
112 1765 1766 0
1768 1652 102 0
1767 414 1652 0
1767 1652 1768 0
444 1767 1768 0
1770 1657 414 0
1769 27 1657 0
1769 1657 1770 0
443 1769 1770 0
1771 1767 444 0
1770 414 1767 0
1770 1767 1771 0
443 1770 1771 0
1773 1771 444 0
1772 443 1771 0
1772 1771 1773 0
111 1772 1773 0
1775 1765 112 0
1774 441 1765 0
1774 1765 1775 0
445 1774 1775 0
1776 1762 441 0
1768 102 1762 0
1768 1762 1776 0
444 1768 1776 0
1777 1774 445 0
1776 441 1774 0
1776 1774 1777 0
444 1776 1777 0
1778 1777 445 0
1773 444 1777 0
1773 1777 1778 0
111 1773 1778 0
1780 1775 112 0
1779 445 1775 0
1779 1775 1780 0
447 1779 1780 0
1782 1778 445 0
1781 111 1778 0
1781 1778 1782 0
446 1781 1782 0
1783 1779 447 0
1782 445 1779 0
1782 1779 1783 0
446 1782 1783 0
1785 1783 447 0
1784 446 1783 0
1784 1783 1785 0
29 1784 1785 0
1787 1690 27 0
1786 424 1690 0
1786 1690 1787 0
449 1786 1787 0
1789 1695 424 0
1788 106 1695 0
1788 1695 1789 0
448 1788 1789 0
1790 1786 449 0
1789 424 1786 0
1789 1786 1790 0
448 1789 1790 0
1792 1790 449 0
1791 448 1790 0
1791 1790 1792 0
114 1791 1792 0
1794 1709 106 0
1793 429 1709 0
1793 1709 1794 0
451 1793 1794 0
1796 1714 429 0
1795 3 1714 0
1795 1714 1796 0
450 1795 1796 0
1797 1793 451 0
1796 429 1793 0
1796 1793 1797 0
450 1796 1797 0
1799 1797 451 0
1798 450 1797 0
1798 1797 1799 0
113 1798 1799 0
1801 1791 114 0
1800 448 1791 0
1800 1791 1801 0
452 1800 1801 0
1802 1788 448 0
1794 106 1788 0
1794 1788 1802 0
451 1794 1802 0
1803 1800 452 0
1802 448 1800 0
1802 1800 1803 0
451 1802 1803 0
1804 1803 452 0
1799 451 1803 0
1799 1803 1804 0
113 1799 1804 0
1806 1801 114 0
1805 452 1801 0
1805 1801 1806 0
454 1805 1806 0
1808 1804 452 0
1807 113 1804 0
1807 1804 1808 0
453 1807 1808 0
1809 1805 454 0
1808 452 1805 0
1808 1805 1809 0
453 1808 1809 0
1811 1809 454 0
1810 453 1809 0
1810 1809 1811 0
28 1810 1811 0
1813 1784 29 0
1812 446 1784 0
1812 1784 1813 0
456 1812 1813 0
1815 1781 446 0
1814 111 1781 0
1814 1781 1815 0
455 1814 1815 0
1816 1812 456 0
1815 446 1812 0
1815 1812 1816 0
455 1815 1816 0
1818 1816 456 0
1817 455 1816 0
1817 1816 1818 0
115 1817 1818 0
1820 1772 111 0
1819 443 1772 0
1819 1772 1820 0
457 1819 1820 0
1821 1769 443 0
1787 27 1769 0
1787 1769 1821 0
449 1787 1821 0
1822 1819 457 0
1821 443 1819 0
1821 1819 1822 0
449 1821 1822 0
1823 1822 457 0
1792 449 1822 0
1792 1822 1823 0
114 1792 1823 0
1825 1817 115 0
1824 455 1817 0
1824 1817 1825 0
458 1824 1825 0
1826 1814 455 0
1820 111 1814 0
1820 1814 1826 0
457 1820 1826 0
1827 1824 458 0
1826 455 1824 0
1826 1824 1827 0
457 1826 1827 0
1828 1827 458 0
1823 457 1827 0
1823 1827 1828 0
114 1823 1828 0
1830 1825 115 0
1829 458 1825 0
1829 1825 1830 0
459 1829 1830 0
1831 1828 458 0
1806 114 1828 0
1806 1828 1831 0
454 1806 1831 0
1832 1829 459 0
1831 458 1829 0
1831 1829 1832 0
454 1831 1832 0
1833 1832 459 0
1811 454 1832 0
1811 1832 1833 0
28 1811 1833 0
1835 1813 29 0
1834 456 1813 0
1834 1813 1835 0
461 1834 1835 0
1837 1818 456 0
1836 115 1818 0
1836 1818 1837 0
460 1836 1837 0
1838 1834 461 0
1837 456 1834 0
1837 1834 1838 0
460 1837 1838 0
1840 1838 461 0
1839 460 1838 0
1839 1838 1840 0
117 1839 1840 0
1842 1830 115 0
1841 459 1830 0
1841 1830 1842 0
463 1841 1842 0
1844 1833 459 0
1843 28 1833 0
1843 1833 1844 0
462 1843 1844 0
1845 1841 463 0
1844 459 1841 0
1844 1841 1845 0
462 1844 1845 0
1847 1845 463 0
1846 462 1845 0
1846 1845 1847 0
116 1846 1847 0
1849 1839 117 0
1848 460 1839 0
1848 1839 1849 0
464 1848 1849 0
1850 1836 460 0
1842 115 1836 0
1842 1836 1850 0
463 1842 1850 0
1851 1848 464 0
1850 460 1848 0
1850 1848 1851 0
463 1850 1851 0
1852 1851 464 0
1847 463 1851 0
1847 1851 1852 0
116 1847 1852 0
1854 1849 117 0
1853 464 1849 0
1853 1849 1854 0
466 1853 1854 0
1856 1852 464 0
1855 116 1852 0
1855 1852 1856 0
465 1855 1856 0
1857 1853 466 0
1856 464 1853 0
1856 1853 1857 0
465 1856 1857 0
1859 1857 466 0
1858 465 1857 0
1858 1857 1859 0
8 1858 1859 0
468 6354 6355 0
6356 110 6351 0
467 6356 6357 0
1860 6354 468 0
6357 6354 1860 0
467 6357 1860 0
1862 1860 468 0
1861 467 1860 0
1861 1860 1862 0
119 1861 1862 0
1864 6348 110 0
1863 6358 6348 0
1863 6348 1864 0
470 1863 1864 0
1866 6359 6358 0
1865 6360 6359 0
1865 6359 1866 0
469 1865 1866 0
1867 1863 470 0
1866 6358 1863 0
1866 1863 1867 0
469 1866 1867 0
1869 1867 470 0
1868 469 1867 0
1868 1867 1869 0
118 1868 1869 0
1871 1861 119 0
1870 467 1861 0
1870 1861 1871 0
471 1870 1871 0
1872 6356 467 0
1864 110 6356 0
1864 6356 1872 0
470 1864 1872 0
1873 1870 471 0
1872 467 1870 0
1872 1870 1873 0
470 1872 1873 0
1874 1873 471 0
1869 470 1873 0
1869 1873 1874 0
118 1869 1874 0
1876 1871 119 0
1875 471 1871 0
1875 1871 1876 0
473 1875 1876 0
1878 1874 471 0
1877 118 1874 0
1877 1874 1878 0
472 1877 1878 0
1879 1875 473 0
1878 471 1875 0
1878 1875 1879 0
472 1878 1879 0
1881 1879 473 0
1880 472 1879 0
1880 1879 1881 0
30 1880 1881 0
1883 6361 6360 0
1882 6362 6361 0
1882 6361 1883 0
475 1882 1883 0
1885 6363 6362 0
1884 6364 6363 0
1884 6363 1885 0
474 1884 1885 0
1886 1882 475 0
1885 6362 1882 0
1885 1882 1886 0
474 1885 1886 0
1888 1886 475 0
1887 474 1886 0
1887 1886 1888 0
120 1887 1888 0
1889 6365 6364 0
6366 6365 1889 0
476 6366 1889 0
442 6353 6367 0
1890 6366 476 0
6367 6366 1890 0
442 6367 1890 0
1891 1890 476 0
1766 442 1890 0
1766 1890 1891 0
112 1766 1891 0
1893 1887 120 0
1892 474 1887 0
1892 1887 1893 0
477 1892 1893 0
1894 1884 474 0
1889 6364 1884 0
1889 1884 1894 0
476 1889 1894 0
1895 1892 477 0
1894 474 1892 0
1894 1892 1895 0
476 1894 1895 0
1896 1895 477 0
1891 476 1895 0
1891 1895 1896 0
112 1891 1896 0
1898 1893 120 0
1897 477 1893 0
1897 1893 1898 0
478 1897 1898 0
1899 1896 477 0
1780 112 1896 0
1780 1896 1899 0
447 1780 1899 0
1900 1897 478 0
1899 477 1897 0
1899 1897 1900 0
447 1899 1900 0
1901 1900 478 0
1785 447 1900 0
1785 1900 1901 0
29 1785 1901 0
1903 1880 30 0
1902 472 1880 0
1902 1880 1903 0
480 1902 1903 0
1905 1877 472 0
1904 118 1877 0
1904 1877 1905 0
479 1904 1905 0
1906 1902 480 0
1905 472 1902 0
1905 1902 1906 0
479 1905 1906 0
1908 1906 480 0
1907 479 1906 0
1907 1906 1908 0
121 1907 1908 0
1910 1868 118 0
1909 469 1868 0
1909 1868 1910 0
481 1909 1910 0
1911 1865 469 0
1883 6360 1865 0
1883 1865 1911 0
475 1883 1911 0
1912 1909 481 0
1911 469 1909 0
1911 1909 1912 0
475 1911 1912 0
1913 1912 481 0
1888 475 1912 0
1888 1912 1913 0
120 1888 1913 0
1915 1907 121 0
1914 479 1907 0
1914 1907 1915 0
482 1914 1915 0
1916 1904 479 0
1910 118 1904 0
1910 1904 1916 0
481 1910 1916 0
1917 1914 482 0
1916 479 1914 0
1916 1914 1917 0
481 1916 1917 0
1918 1917 482 0
1913 481 1917 0
1913 1917 1918 0
120 1913 1918 0
1920 1915 121 0
1919 482 1915 0
1919 1915 1920 0
483 1919 1920 0
1921 1918 482 0
1898 120 1918 0
1898 1918 1921 0
478 1898 1921 0
1922 1919 483 0
1921 482 1919 0
1921 1919 1922 0
478 1921 1922 0
1923 1922 483 0
1901 478 1922 0
1901 1922 1923 0
29 1901 1923 0
1925 1903 30 0
1924 480 1903 0
1924 1903 1925 0
485 1924 1925 0
1927 1908 480 0
1926 121 1908 0
1926 1908 1927 0
484 1926 1927 0
1928 1924 485 0
1927 480 1924 0
1927 1924 1928 0
484 1927 1928 0
1930 1928 485 0
1929 484 1928 0
1929 1928 1930 0
122 1929 1930 0
1932 1920 121 0
1931 483 1920 0
1931 1920 1932 0
486 1931 1932 0
1933 1923 483 0
1835 29 1923 0
1835 1923 1933 0
461 1835 1933 0
1934 1931 486 0
1933 483 1931 0
1933 1931 1934 0
461 1933 1934 0
1935 1934 486 0
1840 461 1934 0
1840 1934 1935 0
117 1840 1935 0
1937 1929 122 0
1936 484 1929 0
1936 1929 1937 0
487 1936 1937 0
1938 1926 484 0
1932 121 1926 0
1932 1926 1938 0
486 1932 1938 0
1939 1936 487 0
1938 484 1936 0
1938 1936 1939 0
486 1938 1939 0
1940 1939 487 0
1935 486 1939 0
1935 1939 1940 0
117 1935 1940 0
1942 1937 122 0
1941 487 1937 0
1941 1937 1942 0
488 1941 1942 0
1943 1940 487 0
1854 117 1940 0
1854 1940 1943 0
466 1854 1943 0
1944 1941 488 0
1943 487 1941 0
1943 1941 1944 0
466 1943 1944 0
1945 1944 488 0
1859 466 1944 0
1859 1944 1945 0
8 1859 1945 0
1946 468 6355 0
1946 6355 6368 0
6369 1946 6368 0
1948 1862 468 0
1947 119 1862 0
1947 1862 1948 0
489 1947 1948 0
6370 1946 6369 0
1948 468 1946 0
1948 1946 6370 0
489 1948 6370 0
1949 489 6370 0
1949 6370 6371 0
6372 1949 6371 0
1951 1876 119 0
1950 473 1876 0
1950 1876 1951 0
491 1950 1951 0
1953 1881 473 0
1952 30 1881 0
1952 1881 1953 0
490 1952 1953 0
1954 1950 491 0
1953 473 1950 0
1953 1950 1954 0
490 1953 1954 0
1956 1954 491 0
1955 490 1954 0
1955 1954 1956 0
123 1955 1956 0
6373 1949 6372 0
1957 489 1949 0
1957 1949 6373 0
6374 1957 6373 0
1958 1947 489 0
1951 119 1947 0
1951 1947 1958 0
491 1951 1958 0
1959 1957 6374 0
1958 489 1957 0
1958 1957 1959 0
491 1958 1959 0
1960 1959 6374 0
1956 491 1959 0
1956 1959 1960 0
123 1956 1960 0
6375 1960 6374 0
1961 123 1960 0
1961 1960 6375 0
6376 1961 6375 0
1963 1925 30 0
1962 485 1925 0
1962 1925 1963 0
493 1962 1963 0
1965 1930 485 0
1964 122 1930 0
1964 1930 1965 0
492 1964 1965 0
1966 1962 493 0
1965 485 1962 0
1965 1962 1966 0
492 1965 1966 0
1968 1966 493 0
1967 492 1966 0
1967 1966 1968 0
125 1967 1968 0
1970 1942 122 0
1969 488 1942 0
1969 1942 1970 0
495 1969 1970 0
1972 1945 488 0
1971 8 1945 0
1971 1945 1972 0
494 1971 1972 0
1973 1969 495 0
1972 488 1969 0
1972 1969 1973 0
494 1972 1973 0
1975 1973 495 0
1974 494 1973 0
1974 1973 1975 0
124 1974 1975 0
1977 1967 125 0
1976 492 1967 0
1976 1967 1977 0
496 1976 1977 0
1978 1964 492 0
1970 122 1964 0
1970 1964 1978 0
495 1970 1978 0
1979 1976 496 0
1978 492 1976 0
1978 1976 1979 0
495 1978 1979 0
1980 1979 496 0
1975 495 1979 0
1975 1979 1980 0
124 1975 1980 0
1982 1977 125 0
1981 496 1977 0
1981 1977 1982 0
498 1981 1982 0
1984 1980 496 0
1983 124 1980 0
1983 1980 1984 0
497 1983 1984 0
1985 1981 498 0
1984 496 1981 0
1984 1981 1985 0
497 1984 1985 0
1987 1985 498 0
1986 497 1985 0
1986 1985 1987 0
31 1986 1987 0
6377 1961 6376 0
1988 123 1961 0
1988 1961 6377 0
499 1988 6377 0
499 6377 6378 0
6379 499 6378 0
1990 1955 123 0
1989 490 1955 0
1989 1955 1990 0
500 1989 1990 0
1991 1952 490 0
1963 30 1952 0
1963 1952 1991 0
493 1963 1991 0
1992 1989 500 0
1991 490 1989 0
1991 1989 1992 0
493 1991 1992 0
1993 1992 500 0
1968 493 1992 0
1968 1992 1993 0
125 1968 1993 0
1995 6379 6380 0
1994 499 6379 0
1994 6379 1995 0
501 1994 1995 0
1996 1988 499 0
1990 123 1988 0
1990 1988 1996 0
500 1990 1996 0
1997 1994 501 0
1996 499 1994 0
1996 1994 1997 0
500 1996 1997 0
1998 1997 501 0
1993 500 1997 0
1993 1997 1998 0
125 1993 1998 0
2000 1995 6380 0
1999 501 1995 0
1999 1995 2000 0
502 1999 2000 0
2001 1998 501 0
1982 125 1998 0
1982 1998 2001 0
498 1982 2001 0
2002 1999 502 0
2001 501 1999 0
2001 1999 2002 0
498 2001 2002 0
2003 2002 502 0
1987 498 2002 0
1987 2002 2003 0
31 1987 2003 0
6381 2000 6380 0
6382 502 2000 0
6382 2000 6381 0
6383 2003 502 0
2004 31 2003 0
2004 2003 6383 0
6384 2004 6383 0
6383 502 6382 0
2006 1741 3 0
2005 437 1741 0
2005 1741 2006 0
6385 2005 2006 0
2007 1746 437 0
6386 109 1746 0
6386 1746 2007 0
6387 6386 2007 0
6388 2005 6385 0
2007 437 2005 0
2007 2005 6388 0
6387 2007 6388 0
6389 6339 109 0
6389 109 6386 0
2009 1757 6345 0
2008 440 1757 0
2008 1757 2009 0
504 2008 2009 0
2011 1760 440 0
2010 1 1760 0
2010 1760 2011 0
503 2010 2011 0
2012 2008 504 0
2011 440 2008 0
2011 2008 2012 0
503 2011 2012 0
2014 2012 504 0
2013 503 2012 0
2013 2012 2014 0
126 2013 2014 0
2016 6390 6391 0
2015 6392 6390 0
2015 6390 2016 0
505 2015 2016 0
2017 6393 6392 0
2009 6345 6393 0
2009 6393 2017 0
504 2009 2017 0
2018 2015 505 0
2017 6392 2015 0
2017 2015 2018 0
504 2017 2018 0
2019 2018 505 0
2014 504 2018 0
2014 2018 2019 0
126 2014 2019 0
2021 2016 6391 0
2020 505 2016 0
2020 2016 2021 0
507 2020 2021 0
2023 2019 505 0
2022 126 2019 0
2022 2019 2023 0
506 2022 2023 0
2024 2020 507 0
2023 505 2020 0
2023 2020 2024 0
506 2023 2024 0
2026 2024 507 0
2025 506 2024 0
2025 2024 2026 0
32 2025 2026 0
2028 6394 6395 0
2027 6396 6394 0
2027 6394 2028 0
508 2027 2028 0
2029 6397 6396 0
2021 6391 6397 0
2021 6397 2029 0
507 2021 2029 0
2030 2027 508 0
2029 6396 2027 0
2029 2027 2030 0
507 2029 2030 0
2031 2030 508 0
2026 507 2030 0
2026 2030 2031 0
32 2026 2031 0
2033 2028 6395 0
2032 508 2028 0
2032 2028 2033 0
510 2032 2033 0
2035 2031 508 0
2034 32 2031 0
2034 2031 2035 0
509 2034 2035 0
2036 2032 510 0
2035 508 2032 0
2035 2032 2036 0
509 2035 2036 0
2038 2036 510 0
2037 509 2036 0
2037 2036 2038 0
127 2037 2038 0
2040 6398 6399 0
2039 6400 6398 0
2039 6398 2040 0
511 2039 2040 0
2041 6401 6400 0
2033 6395 6401 0
2033 6401 2041 0
510 2033 2041 0
2042 2039 511 0
2041 6400 2039 0
2041 2039 2042 0
510 2041 2042 0
2043 2042 511 0
2038 510 2042 0
2038 2042 2043 0
127 2038 2043 0
6402 2040 6399 0
2044 511 2040 0
2044 2040 6402 0
513 2044 6402 0
2046 2043 511 0
2045 127 2043 0
2045 2043 2046 0
512 2045 2046 0
2047 2044 513 0
2046 511 2044 0
2046 2044 2047 0
512 2046 2047 0
2049 2047 513 0
2048 512 2047 0
2048 2047 2049 0
9 2048 2049 0
514 6403 6404 0
2050 6405 6406 0
6402 6405 2050 0
513 6402 2050 0
2051 6403 514 0
2050 6406 6403 0
2050 6403 2051 0
513 2050 2051 0
2052 2051 514 0
2049 513 2051 0
2049 2051 2052 0
9 2049 2052 0
6407 514 6404 0
2054 2052 514 0
2053 9 2052 0
2053 2052 2054 0
515 2053 2054 0
2055 6407 6408 0
2054 514 6407 0
2054 6407 2055 0
515 2054 2055 0
6409 2055 6408 0
2056 515 2055 0
2056 2055 6409 0
6410 2056 6409 0
2058 2004 6384 0
2057 31 2004 0
2057 2004 2058 0
516 2057 2058 0
2059 6411 6412 0
2058 6384 6411 0
2058 6411 2059 0
516 2058 2059 0
2061 2059 6412 0
2060 516 2059 0
2060 2059 2061 0
128 2060 2061 0
2061 6412 6413 0
2061 6413 6414 0
128 2061 6414 0
6415 128 6414 0
2063 1986 31 0
2062 497 1986 0
2062 1986 2063 0
518 2062 2063 0
2065 1983 497 0
2064 124 1983 0
2064 1983 2065 0
517 2064 2065 0
2066 2062 518 0
2065 497 2062 0
2065 2062 2066 0
517 2065 2066 0
2068 2066 518 0
2067 517 2066 0
2067 2066 2068 0
130 2067 2068 0
2070 1974 124 0
2069 494 1974 0
2069 1974 2070 0
520 2069 2070 0
2072 1971 494 0
2071 8 1971 0
2071 1971 2072 0
519 2071 2072 0
2073 2069 520 0
2072 494 2069 0
2072 2069 2073 0
519 2072 2073 0
2075 2073 520 0
2074 519 2073 0
2074 2073 2075 0
129 2074 2075 0
2077 2067 130 0
2076 517 2067 0
2076 2067 2077 0
521 2076 2077 0
2078 2064 517 0
2070 124 2064 0
2070 2064 2078 0
520 2070 2078 0
2079 2076 521 0
2078 517 2076 0
2078 2076 2079 0
520 2078 2079 0
2080 2079 521 0
2075 520 2079 0
2075 2079 2080 0
129 2075 2080 0
2082 2077 130 0
2081 521 2077 0
2081 2077 2082 0
523 2081 2082 0
2084 2080 521 0
2083 129 2080 0
2083 2080 2084 0
522 2083 2084 0
2085 2081 523 0
2084 521 2081 0
2084 2081 2085 0
522 2084 2085 0
2087 2085 523 0
2086 522 2085 0
2086 2085 2087 0
33 2086 2087 0
2089 6415 6416 0
2088 128 6415 0
2088 6415 2089 0
524 2088 2089 0
2090 6417 6418 0
2089 6416 6417 0
2089 6417 2090 0
524 2089 2090 0
2092 2090 6418 0
2091 524 2090 0
2091 2090 2092 0
131 2091 2092 0
2094 2060 128 0
2093 516 2060 0
2093 2060 2094 0
525 2093 2094 0
2095 2057 516 0
2063 31 2057 0
2063 2057 2095 0
518 2063 2095 0
2096 2093 525 0
2095 516 2093 0
2095 2093 2096 0
518 2095 2096 0
2097 2096 525 0
2068 518 2096 0
2068 2096 2097 0
130 2068 2097 0
2099 2091 131 0
2098 524 2091 0
2098 2091 2099 0
526 2098 2099 0
2100 2088 524 0
2094 128 2088 0
2094 2088 2100 0
525 2094 2100 0
2101 2098 526 0
2100 524 2098 0
2100 2098 2101 0
525 2100 2101 0
2102 2101 526 0
2097 525 2101 0
2097 2101 2102 0
130 2097 2102 0
2104 2099 131 0
2103 526 2099 0
2103 2099 2104 0
527 2103 2104 0
2105 2102 526 0
2082 130 2102 0
2082 2102 2105 0
523 2082 2105 0
2106 2103 527 0
2105 526 2103 0
2105 2103 2106 0
523 2105 2106 0
2107 2106 527 0
2087 523 2106 0
2087 2106 2107 0
33 2087 2107 0
6419 2092 6418 0
2108 131 2092 0
2108 2092 6419 0
6420 2108 6419 0
6421 2104 131 0
6422 527 2104 0
6422 2104 6421 0
6423 2107 527 0
6424 33 2107 0
6424 2107 6423 0
6423 527 6422 0
6425 2108 6420 0
6421 131 2108 0
6421 2108 6425 0
2110 1858 8 0
2109 465 1858 0
2109 1858 2110 0
529 2109 2110 0
2112 1855 465 0
2111 116 1855 0
2111 1855 2112 0
528 2111 2112 0
2113 2109 529 0
2112 465 2109 0
2112 2109 2113 0
528 2112 2113 0
2115 2113 529 0
2114 528 2113 0
2114 2113 2115 0
133 2114 2115 0
2117 1846 116 0
2116 462 1846 0
2116 1846 2117 0
531 2116 2117 0
2119 1843 462 0
2118 28 1843 0
2118 1843 2119 0
530 2118 2119 0
2120 2116 531 0
2119 462 2116 0
2119 2116 2120 0
530 2119 2120 0
2122 2120 531 0
2121 530 2120 0
2121 2120 2122 0
132 2121 2122 0
2124 2114 133 0
2123 528 2114 0
2123 2114 2124 0
532 2123 2124 0
2125 2111 528 0
2117 116 2111 0
2117 2111 2125 0
531 2117 2125 0
2126 2123 532 0
2125 528 2123 0
2125 2123 2126 0
531 2125 2126 0
2127 2126 532 0
2122 531 2126 0
2122 2126 2127 0
132 2122 2127 0
2129 2124 133 0
2128 532 2124 0
2128 2124 2129 0
6426 2128 2129 0
2131 2127 532 0
2130 132 2127 0
2130 2127 2131 0
6427 2130 2131 0
2132 2128 6426 0
2131 532 2128 0
2131 2128 2132 0
6427 2131 2132 0
6428 2132 6426 0
6429 6427 2132 0
6429 2132 6428 0
2134 1810 28 0
2133 453 1810 0
2133 1810 2134 0
534 2133 2134 0
2136 1807 453 0
2135 113 1807 0
2135 1807 2136 0
533 2135 2136 0
2137 2133 534 0
2136 453 2133 0
2136 2133 2137 0
533 2136 2137 0
2138 2137 534 0
6430 533 2137 0
6430 2137 2138 0
6431 6430 2138 0
2140 1798 113 0
2139 450 1798 0
2139 1798 2140 0
535 2139 2140 0
2141 1795 450 0
2006 3 1795 0
2006 1795 2141 0
6385 2006 2141 0
2142 2139 535 0
2141 450 2139 0
2141 2139 2142 0
6385 2141 2142 0
6432 2142 535 0
6433 6385 2142 0
6433 2142 6432 0
2143 533 6430 0
2143 6430 6434 0
6435 2143 6434 0
2144 2135 533 0
2140 113 2135 0
2140 2135 2144 0
535 2140 2144 0
6436 2143 6435 0
2144 533 2143 0
2144 2143 6436 0
535 2144 6436 0
6432 535 6436 0
6437 2130 6427 0
6438 132 2130 0
6438 2130 6437 0
2146 2121 132 0
2145 530 2121 0
2145 2121 2146 0
536 2145 2146 0
2147 2118 530 0
2134 28 2118 0
2134 2118 2147 0
534 2134 2147 0
2148 2145 536 0
2147 530 2145 0
2147 2145 2148 0
534 2147 2148 0
6439 2148 536 0
2138 534 2148 0
2138 2148 6439 0
6431 2138 6439 0
2146 132 6438 0
2146 6438 6440 0
536 2146 6440 0
536 6440 6441 0
6439 536 6441 0
6442 33 6424 0
2150 2086 33 0
2149 522 2086 0
2149 2086 2150 0
538 2149 2150 0
2152 2083 522 0
2151 129 2083 0
2151 2083 2152 0
537 2151 2152 0
2153 2149 538 0
2152 522 2149 0
2152 2149 2153 0
537 2152 2153 0
2155 2153 538 0
2154 537 2153 0
2154 2153 2155 0
6443 2154 2155 0
2157 2074 129 0
2156 519 2074 0
2156 2074 2157 0
539 2156 2157 0
2158 2071 519 0
2110 8 2071 0
2110 2071 2158 0
529 2110 2158 0
2159 2156 539 0
2158 519 2156 0
2158 2156 2159 0
529 2158 2159 0
2160 2159 539 0
2115 529 2159 0
2115 2159 2160 0
133 2115 2160 0
2162 2154 6443 0
2161 537 2154 0
2161 2154 2162 0
540 2161 2162 0
2163 2151 537 0
2157 129 2151 0
2157 2151 2163 0
539 2157 2163 0
2164 2161 540 0
2163 537 2161 0
2163 2161 2164 0
539 2163 2164 0
2165 2164 540 0
2160 539 2164 0
2160 2164 2165 0
133 2160 2165 0
6444 2162 6443 0
6445 540 2162 0
6445 2162 6444 0
2166 2165 540 0
2129 133 2165 0
2129 2165 2166 0
6426 2129 2166 0
2166 540 6445 0
2166 6445 6446 0
6426 2166 6446 0
2167 6442 6447 0
2150 33 6442 0
2150 6442 2167 0
538 2150 2167 0
2167 6447 6448 0
2167 6448 6449 0
538 2167 6449 0
2155 538 6449 0
2155 6449 6450 0
6443 2155 6450 0
541 6451 6452 0
2168 6451 541 0
6453 6451 2168 0
6454 6453 2168 0
2170 2168 541 0
2169 6454 2168 0
2169 2168 2170 0
10 2169 2170 0
134 6455 6456 0
2171 6457 6458 0
6456 6457 2171 0
134 6456 2171 0
2173 6459 6460 0
2172 6458 6459 0
2172 6459 2173 0
543 2172 2173 0
2175 2171 6458 0
2174 134 2171 0
2174 2171 2175 0
542 2174 2175 0
2176 2172 543 0
2175 6458 2172 0
2175 2172 2176 0
542 2175 2176 0
2178 2176 543 0
2177 542 2176 0
2177 2176 2178 0
34 2177 2178 0
2180 2177 34 0
2179 542 2177 0
2179 2177 2180 0
545 2179 2180 0
2182 2174 542 0
2181 134 2174 0
2181 2174 2182 0
544 2181 2182 0
2183 2179 545 0
2182 542 2179 0
2182 2179 2183 0
544 2182 2183 0
2185 2183 545 0
2184 544 2183 0
2184 2183 2185 0
135 2184 2185 0
6461 6455 134 0
2186 2184 135 0
6462 544 2184 0
6462 2184 2186 0
6463 6462 2186 0
6464 2181 544 0
6461 134 2181 0
6461 2181 6464 0
6464 544 6462 0
2187 2186 135 0
6465 6463 2186 0
6465 2186 2187 0
6466 6465 2187 0
2189 2180 34 0
2188 545 2180 0
2188 2180 2189 0
547 2188 2189 0
2191 2185 545 0
2190 135 2185 0
2190 2185 2191 0
546 2190 2191 0
2192 2188 547 0
2191 545 2188 0
2191 2188 2192 0
546 2191 2192 0
2194 2192 547 0
2193 546 2192 0
2193 2192 2194 0
136 2193 2194 0
2196 2187 135 0
2195 6466 2187 0
2195 2187 2196 0
6467 2195 2196 0
6468 2195 6467 0
6469 6466 2195 0
6469 2195 6468 0
2197 6468 6467 0
6470 6468 2197 0
6471 6470 2197 0
2199 2193 136 0
2198 546 2193 0
2198 2193 2199 0
548 2198 2199 0
2200 2190 546 0
2196 135 2190 0
2196 2190 2200 0
6467 2196 2200 0
2201 2198 548 0
2200 546 2198 0
2200 2198 2201 0
6467 2200 2201 0
2202 2201 548 0
2197 6467 2201 0
2197 2201 2202 0
6471 2197 2202 0
2204 2199 136 0
2203 548 2199 0
2203 2199 2204 0
549 2203 2204 0
2205 2202 548 0
6452 6471 2202 0
6452 2202 2205 0
541 6452 2205 0
2206 2203 549 0
2205 548 2203 0
2205 2203 2206 0
541 2205 2206 0
2207 2206 549 0
2170 541 2206 0
2170 2206 2207 0
10 2170 2207 0
6472 2173 6460 0
2208 543 2173 0
2208 2173 6472 0
551 2208 6472 0
2210 2178 543 0
2209 34 2178 0
2209 2178 2210 0
550 2209 2210 0
2211 2208 551 0
2210 543 2208 0
2210 2208 2211 0
550 2210 2211 0
2213 2211 551 0
2212 550 2211 0
2212 2211 2213 0
137 2212 2213 0
551 6472 6473 0
551 6473 6474 0
2213 551 6474 0
2213 6474 6475 0
137 2213 6475 0
2214 137 6475 0
2214 6475 6476 0
6477 2214 6476 0
2216 2189 34 0
2215 547 2189 0
2215 2189 2216 0
553 2215 2216 0
2218 2194 547 0
2217 136 2194 0
2217 2194 2218 0
552 2217 2218 0
2219 2215 553 0
2218 547 2215 0
2218 2215 2219 0
552 2218 2219 0
2221 2219 553 0
2220 552 2219 0
2220 2219 2221 0
139 2220 2221 0
2223 2204 136 0
2222 549 2204 0
2222 2204 2223 0
555 2222 2223 0
2225 2207 549 0
2224 10 2207 0
2224 2207 2225 0
554 2224 2225 0
2226 2222 555 0
2225 549 2222 0
2225 2222 2226 0
554 2225 2226 0
2228 2226 555 0
2227 554 2226 0
2227 2226 2228 0
138 2227 2228 0
2230 2220 139 0
2229 552 2220 0
2229 2220 2230 0
556 2229 2230 0
2231 2217 552 0
2223 136 2217 0
2223 2217 2231 0
555 2223 2231 0
2232 2229 556 0
2231 552 2229 0
2231 2229 2232 0
555 2231 2232 0
2233 2232 556 0
2228 555 2232 0
2228 2232 2233 0
138 2228 2233 0
2235 2230 139 0
2234 556 2230 0
2234 2230 2235 0
558 2234 2235 0
2237 2233 556 0
2236 138 2233 0
2236 2233 2237 0
557 2236 2237 0
2238 2234 558 0
2237 556 2234 0
2237 2234 2238 0
557 2237 2238 0
2240 2238 558 0
2239 557 2238 0
2239 2238 2240 0
35 2239 2240 0
2242 6478 6479 0
2241 6477 6478 0
2241 6478 2242 0
560 2241 2242 0
2244 2214 6477 0
2243 137 2214 0
2243 2214 2244 0
559 2243 2244 0
2245 2241 560 0
2244 6477 2241 0
2244 2241 2245 0
559 2244 2245 0
2247 2245 560 0
2246 559 2245 0
2246 2245 2247 0
140 2246 2247 0
2249 2212 137 0
2248 550 2212 0
2248 2212 2249 0
561 2248 2249 0
2250 2209 550 0
2216 34 2209 0
2216 2209 2250 0
553 2216 2250 0
2251 2248 561 0
2250 550 2248 0
2250 2248 2251 0
553 2250 2251 0
2252 2251 561 0
2221 553 2251 0
2221 2251 2252 0
139 2221 2252 0
2254 2246 140 0
2253 559 2246 0
2253 2246 2254 0
562 2253 2254 0
2255 2243 559 0
2249 137 2243 0
2249 2243 2255 0
561 2249 2255 0
2256 2253 562 0
2255 559 2253 0
2255 2253 2256 0
561 2255 2256 0
2257 2256 562 0
2252 561 2256 0
2252 2256 2257 0
139 2252 2257 0
2259 2254 140 0
2258 562 2254 0
2258 2254 2259 0
563 2258 2259 0
2260 2257 562 0
2235 139 2257 0
2235 2257 2260 0
558 2235 2260 0
2261 2258 563 0
2260 562 2258 0
2260 2258 2261 0
558 2260 2261 0
2262 2261 563 0
2240 558 2261 0
2240 2261 2262 0
35 2240 2262 0
6480 2242 6479 0
2263 560 2242 0
2263 2242 6480 0
565 2263 6480 0
2265 2247 560 0
2264 140 2247 0
2264 2247 2265 0
564 2264 2265 0
2266 2263 565 0
2265 560 2263 0
2265 2263 2266 0
564 2265 2266 0
2268 2266 565 0
2267 564 2266 0
2267 2266 2268 0
142 2267 2268 0
2270 2259 140 0
2269 563 2259 0
2269 2259 2270 0
567 2269 2270 0
2272 2262 563 0
2271 35 2262 0
2271 2262 2272 0
566 2271 2272 0
2273 2269 567 0
2272 563 2269 0
2272 2269 2273 0
566 2272 2273 0
2275 2273 567 0
2274 566 2273 0
2274 2273 2275 0
141 2274 2275 0
2277 2267 142 0
2276 564 2267 0
2276 2267 2277 0
568 2276 2277 0
2278 2264 564 0
2270 140 2264 0
2270 2264 2278 0
567 2270 2278 0
2279 2276 568 0
2278 564 2276 0
2278 2276 2279 0
567 2278 2279 0
2280 2279 568 0
2275 567 2279 0
2275 2279 2280 0
141 2275 2280 0
2282 2277 142 0
2281 568 2277 0
2281 2277 2282 0
570 2281 2282 0
2284 2280 568 0
2283 141 2280 0
2283 2280 2284 0
569 2283 2284 0
2285 2281 570 0
2284 568 2281 0
2284 2281 2285 0
569 2284 2285 0
2287 2285 570 0
2286 569 2285 0
2286 2285 2287 0
0 2286 2287 0
2289 2286 0 0
2288 569 2286 0
2288 2286 2289 0
572 2288 2289 0
2291 2283 569 0
2290 141 2283 0
2290 2283 2291 0
571 2290 2291 0
2292 2288 572 0
2291 569 2288 0
2291 2288 2292 0
571 2291 2292 0
2294 2292 572 0
2293 571 2292 0
2293 2292 2294 0
144 2293 2294 0
2296 2274 141 0
2295 566 2274 0
2295 2274 2296 0
574 2295 2296 0
2298 2271 566 0
2297 35 2271 0
2297 2271 2298 0
573 2297 2298 0
2299 2295 574 0
2298 566 2295 0
2298 2295 2299 0
573 2298 2299 0
2301 2299 574 0
2300 573 2299 0
2300 2299 2301 0
143 2300 2301 0
2303 2293 144 0
2302 571 2293 0
2302 2293 2303 0
575 2302 2303 0
2304 2290 571 0
2296 141 2290 0
2296 2290 2304 0
574 2296 2304 0
2305 2302 575 0
2304 571 2302 0
2304 2302 2305 0
574 2304 2305 0
2306 2305 575 0
2301 574 2305 0
2301 2305 2306 0
143 2301 2306 0
2308 2303 144 0
2307 575 2303 0
2307 2303 2308 0
577 2307 2308 0
2310 2306 575 0
2309 143 2306 0
2309 2306 2310 0
576 2309 2310 0
2311 2307 577 0
2310 575 2307 0
2310 2307 2311 0
576 2310 2311 0
2313 2311 577 0
2312 576 2311 0
2312 2311 2313 0
37 2312 2313 0
2315 2239 35 0
2314 557 2239 0
2314 2239 2315 0
579 2314 2315 0
2317 2236 557 0
2316 138 2236 0
2316 2236 2317 0
578 2316 2317 0
2318 2314 579 0
2317 557 2314 0
2317 2314 2318 0
578 2317 2318 0
2320 2318 579 0
2319 578 2318 0
2319 2318 2320 0
146 2319 2320 0
2322 2227 138 0
2321 554 2227 0
2321 2227 2322 0
581 2321 2322 0
2324 2224 554 0
2323 10 2224 0
2323 2224 2324 0
580 2323 2324 0
2325 2321 581 0
2324 554 2321 0
2324 2321 2325 0
580 2324 2325 0
2327 2325 581 0
2326 580 2325 0
2326 2325 2327 0
145 2326 2327 0
2329 2319 146 0
2328 578 2319 0
2328 2319 2329 0
582 2328 2329 0
2330 2316 578 0
2322 138 2316 0
2322 2316 2330 0
581 2322 2330 0
2331 2328 582 0
2330 578 2328 0
2330 2328 2331 0
581 2330 2331 0
2332 2331 582 0
2327 581 2331 0
2327 2331 2332 0
145 2327 2332 0
2334 2329 146 0
2333 582 2329 0
2333 2329 2334 0
584 2333 2334 0
2336 2332 582 0
2335 145 2332 0
2335 2332 2336 0
583 2335 2336 0
2337 2333 584 0
2336 582 2333 0
2336 2333 2337 0
583 2336 2337 0
2339 2337 584 0
2338 583 2337 0
2338 2337 2339 0
36 2338 2339 0
2341 2312 37 0
2340 576 2312 0
2340 2312 2341 0
586 2340 2341 0
2343 2309 576 0
2342 143 2309 0
2342 2309 2343 0
585 2342 2343 0
2344 2340 586 0
2343 576 2340 0
2343 2340 2344 0
585 2343 2344 0
2346 2344 586 0
2345 585 2344 0
2345 2344 2346 0
147 2345 2346 0
2348 2300 143 0
2347 573 2300 0
2347 2300 2348 0
587 2347 2348 0
2349 2297 573 0
2315 35 2297 0
2315 2297 2349 0
579 2315 2349 0
2350 2347 587 0
2349 573 2347 0
2349 2347 2350 0
579 2349 2350 0
2351 2350 587 0
2320 579 2350 0
2320 2350 2351 0
146 2320 2351 0
2353 2345 147 0
2352 585 2345 0
2352 2345 2353 0
588 2352 2353 0
2354 2342 585 0
2348 143 2342 0
2348 2342 2354 0
587 2348 2354 0
2355 2352 588 0
2354 585 2352 0
2354 2352 2355 0
587 2354 2355 0
2356 2355 588 0
2351 587 2355 0
2351 2355 2356 0
146 2351 2356 0
2358 2353 147 0
2357 588 2353 0
2357 2353 2358 0
589 2357 2358 0
2359 2356 588 0
2334 146 2356 0
2334 2356 2359 0
584 2334 2359 0
2360 2357 589 0
2359 588 2357 0
2359 2357 2360 0
584 2359 2360 0
2361 2360 589 0
2339 584 2360 0
2339 2360 2361 0
36 2339 2361 0
2363 2341 37 0
2362 586 2341 0
2362 2341 2363 0
591 2362 2363 0
2365 2346 586 0
2364 147 2346 0
2364 2346 2365 0
590 2364 2365 0
2366 2362 591 0
2365 586 2362 0
2365 2362 2366 0
590 2365 2366 0
2368 2366 591 0
2367 590 2366 0
2367 2366 2368 0
149 2367 2368 0
2370 2358 147 0
2369 589 2358 0
2369 2358 2370 0
593 2369 2370 0
2372 2361 589 0
2371 36 2361 0
2371 2361 2372 0
592 2371 2372 0
2373 2369 593 0
2372 589 2369 0
2372 2369 2373 0
592 2372 2373 0
2375 2373 593 0
2374 592 2373 0
2374 2373 2375 0
148 2374 2375 0
2377 2367 149 0
2376 590 2367 0
2376 2367 2377 0
594 2376 2377 0
2378 2364 590 0
2370 147 2364 0
2370 2364 2378 0
593 2370 2378 0
2379 2376 594 0
2378 590 2376 0
2378 2376 2379 0
593 2378 2379 0
2380 2379 594 0
2375 593 2379 0
2375 2379 2380 0
148 2375 2380 0
2382 2377 149 0
2381 594 2377 0
2381 2377 2382 0
596 2381 2382 0
2384 2380 594 0
2383 148 2380 0
2383 2380 2384 0
595 2383 2384 0
2385 2381 596 0
2384 594 2381 0
2384 2381 2385 0
595 2384 2385 0
2387 2385 596 0
2386 595 2385 0
2386 2385 2387 0
12 2386 2387 0
2389 2169 10 0
2388 6454 2169 0
2388 2169 2389 0
597 2388 2389 0
2390 6481 6454 0
6482 6481 2390 0
6483 6482 2390 0
2391 2388 597 0
2390 6454 2388 0
2390 2388 2391 0
6483 2390 2391 0
2392 2391 597 0
6484 6483 2391 0
6484 2391 2392 0
6485 6484 2392 0
598 6486 6487 0
6488 6486 598 0
2393 6488 598 0
6489 6488 2393 0
6490 6489 2393 0
2394 6491 6490 0
6492 6491 2394 0
600 6492 2394 0
2395 6493 6494 0
6495 6493 2395 0
599 6495 2395 0
6496 6492 600 0
2395 6494 6492 0
2395 6492 6496 0
599 2395 6496 0
2397 6496 600 0
2396 599 6496 0
2396 6496 2397 0
151 2396 2397 0
602 6497 6498 0
601 6499 6500 0
6501 6497 602 0
601 6500 6501 0
2399 6501 602 0
2398 601 6501 0
2398 6501 2399 0
150 2398 2399 0
2401 2396 151 0
2400 599 2396 0
2400 2396 2401 0
603 2400 2401 0
6502 6495 599 0
602 6498 6502 0
2402 2400 603 0
6502 599 2400 0
6502 2400 2402 0
602 6502 2402 0
2403 2402 603 0
2399 602 2402 0
2399 2402 2403 0
150 2399 2403 0
2405 2401 151 0
2404 603 2401 0
2404 2401 2405 0
605 2404 2405 0
2407 2403 603 0
2406 150 2403 0
2406 2403 2407 0
604 2406 2407 0
2408 2404 605 0
2407 603 2404 0
2407 2404 2408 0
604 2407 2408 0
2410 2408 605 0
2409 604 2408 0
2409 2408 2410 0
11 2409 2410 0
2412 2386 12 0
2411 595 2386 0
2411 2386 2412 0
607 2411 2412 0
2414 2383 595 0
2413 148 2383 0
2413 2383 2414 0
606 2413 2414 0
2415 2411 607 0
2414 595 2411 0
2414 2411 2415 0
606 2414 2415 0
2417 2415 607 0
2416 606 2415 0
2416 2415 2417 0
153 2416 2417 0
2419 2374 148 0
2418 592 2374 0
2418 2374 2419 0
609 2418 2419 0
2421 2371 592 0
2420 36 2371 0
2420 2371 2421 0
608 2420 2421 0
2422 2418 609 0
2421 592 2418 0
2421 2418 2422 0
608 2421 2422 0
2424 2422 609 0
2423 608 2422 0
2423 2422 2424 0
152 2423 2424 0
2426 2416 153 0
2425 606 2416 0
2425 2416 2426 0
610 2425 2426 0
2427 2413 606 0
2419 148 2413 0
2419 2413 2427 0
609 2419 2427 0
2428 2425 610 0
2427 606 2425 0
2427 2425 2428 0
609 2427 2428 0
2429 2428 610 0
2424 609 2428 0
2424 2428 2429 0
152 2424 2429 0
2431 2426 153 0
2430 610 2426 0
2430 2426 2431 0
612 2430 2431 0
2433 2429 610 0
2432 152 2429 0
2432 2429 2433 0
611 2432 2433 0
2434 2430 612 0
2433 610 2430 0
2433 2430 2434 0
611 2433 2434 0
2436 2434 612 0
2435 611 2434 0
2435 2434 2436 0
38 2435 2436 0
2438 2338 36 0
2437 583 2338 0
2437 2338 2438 0
614 2437 2438 0
2440 2335 583 0
2439 145 2335 0
2439 2335 2440 0
613 2439 2440 0
2441 2437 614 0
2440 583 2437 0
2440 2437 2441 0
613 2440 2441 0
2443 2441 614 0
2442 613 2441 0
2442 2441 2443 0
154 2442 2443 0
2445 2326 145 0
2444 580 2326 0
2444 2326 2445 0
615 2444 2445 0
2446 2323 580 0
2389 10 2323 0
2389 2323 2446 0
597 2389 2446 0
2447 2444 615 0
2446 580 2444 0
2446 2444 2447 0
597 2446 2447 0
2448 2447 615 0
2392 597 2447 0
2392 2447 2448 0
6485 2392 2448 0
2450 2442 154 0
2449 613 2442 0
2449 2442 2450 0
616 2449 2450 0
2451 2439 613 0
2445 145 2439 0
2445 2439 2451 0
615 2445 2451 0
2452 2449 616 0
2451 613 2449 0
2451 2449 2452 0
615 2451 2452 0
2453 2452 616 0
2448 615 2452 0
2448 2452 2453 0
6485 2448 2453 0
2455 2450 154 0
2454 616 2450 0
2454 2450 2455 0
617 2454 2455 0
2456 2453 616 0
6487 6485 2453 0
6487 2453 2456 0
598 6487 2456 0
6503 2454 617 0
2456 616 2454 0
2456 2454 6503 0
598 2456 6503 0
2457 6503 617 0
2393 598 6503 0
2393 6503 2457 0
6490 2393 2457 0
2459 2435 38 0
2458 611 2435 0
2458 2435 2459 0
619 2458 2459 0
2461 2432 611 0
2460 152 2432 0
2460 2432 2461 0
618 2460 2461 0
2462 2458 619 0
2461 611 2458 0
2461 2458 2462 0
618 2461 2462 0
2464 2462 619 0
