#!ascii - generated by CreateLabelFiles project 
2713 5192
17.4087 68.9617 12.7299 0
13.0836 65.1946 14.9035 0
7.51288 73.8324 7.73583 0
13.5624 69.4272 11.7539 0
16.6191 69.709 7.63226 0
9.35193 72.041 10.8212 0
7.52086 69.3537 7.17196 0
14.232 71.343 1.78557 0
14.668 67.9263 2.81106 0
9.47677 70.6511 1.50954 0
9.53582 66.2053 -1.40807 0
9.48449 59.1479 0.193547 0
8.19997 63.6583 11.7542 0
8.19314 60.1003 18.4026 0
10.6708 63.2273 -0.406258 0
10.0869 64.0819 6.6411 0
10.7846 53.1462 4.40659 0
13.2395 61.4186 -2.32661 0
16.4469 62.3332 -0.505978 0
18.1588 58.0943 5.02455 0
18.6529 63.5976 3.91963 0
14.768 59.2469 9.06889 0
10.4536 51.9048 7.96889 0
8.20988 54.95 4.7875 0
6.26365 60.0925 2.31214 0
5.88923 58.1528 5.36133 0
8.10636 65.7024 1.77767 0
5.30104 62.1456 3.66404 0
4.64141 59.4954 3.70981 0
5.26897 69.5583 3.19773 0
4.40256 65.3934 5.67982 0
5.83627 63.9748 5.42187 0
1.90991 58.5556 5.94197 0
3.53159 72.1101 5.33311 0
1.70425 68.7298 6.90922 0
2.53478 66.8801 5.69404 0
1.15203 71.1772 8.22021 0
8.96827 65.1937 24.2013 0
11.9475 66.623 24.0417 0
9.91595 64.1328 25.2497 0
13.0771 68.5965 22.0567 0
13.9135 67.8447 22.0518 0
13.5725 69.3927 18.8617 0
15.7382 70.9666 17.3878 0
14.9152 67.8626 17.5789 0
12.942 65.5644 19.2079 0
16.5382 69.7629 14.4317 0
16.9418 68.8472 16.1042 0
15.7277 67.2633 13.6108 0
16.4281 67.0931 10.4936 0
13.3962 65.5262 11.1547 0
5.93558 74.6947 6.22401 0
5.35461 72.5577 7.24162 0
17.1282 69.1927 10.2119 0
16.8283 68.4445 8.1514 0
14.7836 70.0109 13.3986 0
16.2619 69.2731 11.9704 0
15.278 69.2477 9.85341 0
12.8106 69.6009 9.46627 0
14.5412 69.273 7.07303 0
11.2946 70.7235 11.1776 0
10.147 69.5004 9.64496 0
12.6148 71.2049 12.7248 0
11.6132 72.9596 11.1335 0
7.82164 70.3005 9.83616 0
9.72701 68.9609 7.06578 0
8.68942 72.7606 9.15436 0
6.23075 71.4123 9.30173 0
5.53694 70.4898 6.20137 0
16.8765 68.9774 4.97542 0
14.9919 67.19 5.85221 0
13.6027 69.6054 3.97535 0
15.691 69.8213 4.39681 0
15.5751 69.7518 1.71951 0
13.6574 70.6073 -0.0776019 0
12.7338 69.1199 0.733898 0
9.01156 69.6776 4.36975 0
11.1963 69.1689 4.04166 0
7.05078 70.038 4.14793 0
7.54504 70.23 1.75377 0
8.17017 69.6338 0.116423 0
11.8482 71.3157 0.160074 0
9.98065 66.6614 -1.96282 0
11.9694 71.0393 1.68587 0
9.73348 70.6352 0.0312418 0
8.7359 64.6454 -0.515439 0
8.40381 61.3664 -1.49754 0
9.85685 61.6193 -2.67886 0
7.12645 61.1102 0.0538477 0
8.52119 59.2081 1.74862 0
8.79385 55.4517 3.5242 0
8.48298 62.7895 23.3354 0
9.86566 64.3189 16.8051 0
10.6892 62.3159 20.4181 0
11.4252 64.1991 9.92921 0
10.456 64.3458 12.9135 0
7.59168 62.8356 15.0188 0
7.23303 60.226 20.8325 0
11.9037 66.5654 4.71686 0
11.924 66.0124 7.77621 0
10.7092 65.6764 -1.56029 0
11.3924 65.6872 1.43887 0
9.8593 63.8594 3.33166 0
11.8995 62.0375 2.17683 0
9.46703 61.625 5.21606 0
10.75 59.6541 -1.50708 0
12.0929 63.6868 -3.09276 0
9.78611 53.1496 5.23265 0
9.95982 56.0192 2.10872 0
11.4463 57.0922 0.60444 0
11.7299 54.4461 3.72172 0
13.651 59.2567 0.59268 0
13.0921 62.1063 -0.813013 0
14.8453 61.663 1.3529 0
12.7348 63.9006 -2.05287 0
14.7202 62.0684 -1.65011 0
16.4506 60.2285 0.673833 0
17.9151 62.9197 1.47779 0
15.7694 61.7455 3.45221 0
16.2262 57.8017 4.40009 0
18.6792 61.4696 1.75573 0
19.848 61.8101 3.86379 0
18.779 57.5833 6.42523 0
20.3244 61.6551 6.16585 0
9.14555 64.1718 9.02699 0
8.58253 62.1278 8.08292 0
10.2898 59.6259 7.52322 0
11.3763 58.9744 9.84694 0
13.8443 59.8724 6.81183 0
17.4875 61.3177 8.74906 0
16.9242 61.2525 5.7574 0
19.7703 63.1714 6.68375 0
14.3736 50.5983 5.87953 0
11.7618 50.3054 7.43017 0
12.5898 50.0677 6.59098 0
11.3225 51.0447 7.73981 0
9.49635 53.2585 6.93121 0
10.0048 52.387 7.98515 0
9.92626 52.8688 6.931 0
10.5604 51.4572 9.01763 0
11.112 50.8318 9.04395 0
8.76447 53.9326 5.53721 0
8.83554 53.7472 6.38751 0
7.90691 56.3541 4.07105 0
7.95257 55.8043 5.37406 0
8.30319 54.6098 5.8279 0
6.87237 58.9322 2.98044 0
6.87444 58.2911 4.52499 0
7.52059 57.1029 4.97764 0
6.1459 61.275 1.60474 0
5.51766 60.0817 3.01644 0
6.07923 59.2569 3.84378 0
8.29221 64.2935 1.33783 0
6.80963 62.735 2.26717 0
5.63831 61.045 2.36385 0
7.63824 66.9833 2.34375 0
7.2919 65.0184 3.53138 0
7.56927 64.3781 2.96197 0
4.53555 60.8162 3.11668 0
3.30904 59.159 4.79036 0
3.87121 58.3553 5.04406 0
5.92438 68.5479 2.83585 0
5.89029 66.5959 4.13382 0
6.63904 65.6981 3.93595 0
4.67594 70.4057 3.68418 0
4.15844 68.4966 4.10021 0
4.82526 67.271 4.03473 0
5.27334 64.7726 5.69937 0
3.74036 63.11 7.21787 0
3.71982 62.2347 6.60307 0
3.25537 60.1945 4.79692 0
2.16302 57.5298 5.73503 0
5.85297 63.2635 4.70746 0
3.43089 61.3335 5.62708 0
2.01614 59.4119 6.43744 0
5.06924 58.6898 4.41254 0
4.66582 57.527 5.52293 0
3.55108 71.2776 4.99484 0
3.26687 69.7636 5.28797 0
3.73609 69.2508 4.61558 0
3.31222 72.8055 5.44263 0
2.5215 71.0346 6.72865 0
2.98945 70.3489 6.0625 0
2.04906 67.677 6.05741 0
1.0775 66.1943 7.19051 0
1.63313 65.0746 6.98454 0
1.81198 73.7991 7.20566 0
2.19941 72.2367 7.24371 0
0.44805 73.0192 7.95751 0
-0.0135238 70.1214 9.02326 0
1.12289 67.5387 8.22056 0
1.30851 69.742 7.62484 0
0.580918 68.6295 8.85652 0
3.32981 63.6892 7.48218 0
2.50116 60.9892 8.34032 0
3.56211 66.1223 5.77731 0
2.3913 64.3223 7.18768 0
9.06169 66.3802 20.6097 0
8.82064 65.1506 21.6845 0
9.7595 65.5515 22.9095 0
9.53605 65.0855 25.099 0
8.52911 64.3979 26.555 0
11.1963 66.5049 22.9536 0
10.4396 66.1597 24.2967 0
11.0609 65.7398 24.7555 0
12.374 66.1328 24.1561 0
11.1454 64.6701 24.2966 0
14.4803 71.7692 16.2007 0
12.9802 67.1318 23.1994 0
13.1551 66.4394 22.7013 0
11.7834 67.0269 21.7497 0
12.5205 67.4277 22.9099 0
13.5708 68.5591 22.4401 0
14.0805 69.387 21.2671 0
14.5595 69.1761 21.2713 0
10.6046 67.0188 20.6528 0
13.3245 69.0005 20.4285 0
14.2937 69.7085 19.5999 0
11.9706 67.9442 20.6777 0
12.2617 68.3674 19.208 0
14.6842 70.3888 18.2927 0
15.6084 70.0577 18.4286 0
13.4717 70.2755 17.7551 0
14.681 71.3035 17.3008 0
15.8334 71.644 16.4126 0
13.9627 66.524 20.6869 0
12.818 65.173 21.1409 0
15.3451 68.8685 18.9658 0
14.5734 68.1306 20.0263 0
13.6882 67.0373 18.4819 0
13.9729 66.6104 16.2285 0
12.5648 65.8345 17.0302 0
16.3711 70.0517 16.9348 0
16.1034 69.4635 17.9861 0
15.9965 70.4411 15.2064 0
16.4997 70.4542 16.0677 0
17.2219 69.3347 15.3578 0
17.11 69.4765 13.5785 0
17.3825 68.7042 14.3466 0
15.3573 67.4808 15.4989 0
14.4804 66.1983 14.2147 0
16.0673 68.4896 16.8559 0
16.6424 68.009 14.911 0
16.88 68.0854 13.174 0
14.6001 66.4624 12.3083 0
13.1507 65.5594 12.85 0
17.1767 68.1209 11.7013 0
15.9773 67.2202 11.9314 0
14.9391 66.4397 10.7555 0
15.4525 66.6115 9.43154 0
13.9275 65.5853 9.69841 0
8.25238 74.8571 6.62962 0
9.04666 74.309 7.26589 0
5.14992 75.5937 5.90715 0
7.35503 75.4819 5.97041 0
6.77815 74.4688 6.93809 0
6.49224 75.6619 5.69329 0
4.7593 74.6908 5.81263 0
5.4649 73.6864 6.94306 0
6.3289 73.4602 7.88018 0
4.40258 73.6992 5.99988 0
4.34838 72.5905 6.11814 0
4.37489 71.5311 5.88331 0
16.8012 67.2513 9.21085 0
15.7949 67.2442 8.25448 0
17.462 68.9242 11.4819 0
17.1269 68.2111 10.406 0
17.3737 68.8964 9.25568 0
16.9044 69.6459 9.07303 0
17.0877 69.2562 7.93677 0
16.5801 69.9446 13.0761 0
17.2578 69.8531 12.3033 0
15.2473 70.5846 14.3947 0
15.8269 69.9427 13.7878 0
15.4415 69.4357 12.7276 0
14.1641 69.8034 12.5957 0
15.0135 69.2193 11.7939 0
16.4136 69.4664 10.0598 0
16.0476 69.6078 8.77046 0
16.8353 68.9213 11.1845 0
15.7169 68.9658 10.9738 0
14.4896 69.2297 10.8072 0
14.9111 69.2282 8.53199 0
15.6557 69.4366 7.27949 0
13.0958 69.4528 10.7003 0
14.1051 69.3226 9.63855 0
13.7459 69.2771 8.32239 0
12.4153 69.2004 8.30766 0
13.2621 68.9516 6.99593 0
11.4553 69.6671 9.53827 0
11.1565 69.1723 8.28827 0
12.15 69.6987 11.6188 0
11.8646 69.9308 10.4789 0
10.6048 70.1828 10.554 0
10.1549 71.5323 11.1332 0
9.41482 70.583 10.524 0
13.6486 70.5811 13.1922 0
12.8056 70.2741 12.4838 0
14.3324 70.844 13.915 0
13.5263 71.7325 13.4074 0
12.8218 72.5027 12.6599 0
11.1071 72.3307 11.6646 0
10.3135 72.6576 11.207 0
11.7281 70.8972 12.1116 0
11.8792 72.2394 12.1523 0
10.1677 72.9041 10.0099 0
9.89151 69.0232 8.39191 0
10.8432 68.7893 6.9175 0
8.56516 71.3054 10.3755 0
8.92636 69.3935 9.68461 0
8.7499 68.7456 8.41366 0
7.583 69.3204 8.57988 0
8.64619 69.0487 7.13691 0
10.042 73.414 8.87138 0
9.04757 72.3229 9.97813 0
8.12481 73.0702 8.37862 0
7.00258 70.8874 9.6133 0
6.57472 69.8457 8.42973 0
7.97135 71.6637 9.94943 0
7.30109 71.9366 9.36362 0
6.73395 72.6552 8.81612 0
5.81082 70.4635 7.86889 0
6.44164 69.9025 6.91673 0
5.78911 72.0222 8.45014 0
5.14887 71.0946 6.98597 0
4.73922 70.9055 5.21859 0
15.8869 68.2848 7.08448 0
14.8251 66.6436 7.28125 0
16.9323 69.3911 6.32397 0
16.9395 68.7285 6.64514 0
16.0354 68.5345 5.49716 0
15.8921 68.616 3.84183 0
14.9719 67.5088 4.29579 0
15.2247 69.6137 5.73578 0
16.2078 69.6821 6.01005 0
12.8742 69.1857 5.52071 0
14.0961 69.456 5.57161 0
14.6974 69.7386 4.11521 0
14.0526 70.0581 2.64478 0
14.9373 69.938 2.71325 0
16.2726 69.2473 3.26029 0
15.3891 68.9491 2.1602 0
16.5968 69.5974 4.64724 0
15.7652 69.7411 2.98585 0
14.983 70.6049 1.66466 0
14.5763 69.5598 1.00861 0
13.764 68.6327 1.6557 0
14.1846 71.3274 0.961017 0
14.9048 70.334 0.687775 0
13.2496 69.9568 0.251102 0
11.6471 69.1963 -0.740867 0
11.4572 68.4024 -0.444181 0
10.4843 68.618 5.64073 0
11.6523 68.8642 5.56026 0
8.48219 69.5485 5.81321 0
9.46042 69.1598 5.78589 0
10.0429 69.4345 4.23883 0
9.42842 70.2342 2.89817 0
10.5431 70.1878 2.7989 0
6.32686 70.3161 5.20009 0
7.43937 69.9547 5.64114 0
5.33112 70.3943 4.44805 0
6.06068 70.0786 3.78092 0
6.46385 69.6736 2.83362 0
8.35349 70.208 2.94213 0
8.48493 70.508 1.64531 0
8.02844 69.8781 4.35287 0
7.30148 70.0917 2.8799 0
6.96932 69.4467 1.96093 0
7.47086 70.4091 0.613145 0
8.40072 70.7591 0.566066 0
7.48638 69.0362 1.27411 0
8.29417 67.6793 0.909053 0
8.79608 65.861 0.529835 0
11.7855 70.1618 -0.878602 0
10.418 66.5091 -2.32064 0
13.1636 71.7221 1.1777 0
12.8247 71.2219 0.358299 0
11.1328 70.3349 -0.958543 0
10.3914 70.0041 -0.870442 0
9.83123 66.5963 -1.75755 0
12.9453 69.983 2.57647 0
13.1091 71.3395 1.7585 0
12.4146 69.3832 3.95485 0
11.7429 69.9253 2.6195 0
10.7961 70.6934 1.6723 0
10.8116 71.0147 0.120379 0
9.65168 69.4313 -0.808357 0
12.0313 71.5555 1.02376 0
10.8551 71.1653 0.900878 0
9.47606 70.9351 0.576644 0
9.56526 68.6059 -0.483329 0
9.17209 65.5319 -1.02972 0
8.76787 70.3738 -0.046231 0
9.24866 67.3975 -0.0547055 0
8.25057 63.6853 0.187393 0
9.59596 63.131 -2.85058 0
10.3725 63.3927 -3.21952 0
8.74365 63.3465 -1.84291 0
9.1545 63.3525 -2.36313 0
9.09352 61.4658 -2.1718 0
8.76002 60.2057 -1.01584 0
9.41979 60.2232 -1.70337 0
7.56561 62.6216 -0.439721 0
8.1617 63.1182 -1.14214 0
6.71145 61.9843 0.413696 0
6.55319 60.6878 1.03122 0
7.32227 59.7828 1.91239 0
8.32201 60.4311 -0.027454 0
9.1093 59.3651 0.967569 0
7.805 61.3572 -0.752606 0
7.8608 60.3192 0.973542 0
7.87648 58.5303 2.49935 0
8.65204 57.4408 2.37278 0
9.1842 57.3959 1.85053 0
8.15834 56.9415 3.08991 0
8.34724 55.2415 3.98983 0
8.8628 54.0457 4.91827 0
7.68228 63.8216 26.1946 0
10.5089 63.5764 23.3546 0
9.20366 63.4416 24.688 0
6.91369 63.2967 24.8496 0
6.35238 62.5796 23.2267 0
11.9076 64.0281 19.8958 0
11.4211 63.767 21.7965 0
11.4331 64.7499 15.7499 0
11.4083 64.843 17.9067 0
10.5829 63.1268 18.6213 0
9.02837 62.4097 17.5919 0
9.70647 60.9526 19.1973 0
11.9566 64.7495 11.8523 0
11.6875 64.6527 13.6801 0
12.8939 65.2528 9.18147 0
12.5077 64.4257 10.3464 0
10.9367 64.2776 11.2656 0
9.78005 64.0809 10.8324 0
9.26469 64.0543 12.3008 0
8.53884 63.8015 15.9245 0
7.53375 61.7746 16.7284 0
10.0658 64.3845 14.7754 0
8.85877 64.1708 13.9549 0
7.93166 63.4431 13.2389 0
7.93137 61.645 22.0882 0
5.74915 61.563 21.6818 0
9.82218 62.4491 21.9749 0
9.1556 60.9067 20.758 0
8.23914 59.554 19.6854 0
4.922 60.6481 20.2226 0
6.1359 59.3306 19.7436 0
6.6038 58.9509 19.0763 0
13.458 66.6272 6.54792 0
13.214 66.2101 7.99415 0
13.3366 67.1114 3.47453 0
13.5099 66.8678 5.01871 0
12.0216 66.2352 6.28376 0
11.0085 65.2566 5.8037 0
10.9858 65.0067 7.25726 0
12.0515 67.5417 0.788164 0
12.8849 67.2768 2.04523 0
10.7045 66.368 -2.00467 0
10.9968 67.1793 -0.543862 0
10.7069 65.9106 -0.109119 0
10.7274 64.5552 -1.02958 0
10.6918 64.5302 0.60279 0
10.7586 65.2158 4.09998 0
10.0981 63.9753 5.15259 0
11.9486 66.1666 3.02096 0
10.9827 64.5639 2.34234 0
10.3029 63.2198 1.43742 0
9.84026 62.8345 4.44509 0
9.47694 62.9254 6.05561 0
10.5836 62.4423 0.72934 0
10.2081 62.8373 2.56195 0
10.7978 62.0788 3.66133 0
12.2697 61.2635 3.34852 0
10.9625 60.6203 4.87768 0
10.8424 62.2269 -2.93881 0
11.2896 64.4239 -3.16537 0
9.97997 59.1553 -0.647487 0
10.248 60.4893 -2.28271 0
11.4191 61.4473 -2.71767 0
11.8685 60.5301 -2.04119 0
12.7485 62.7535 -2.76921 0
9.44124 55.8426 2.907 0
9.52583 57.3873 1.00098 0
9.56469 53.3269 5.69311 0
9.07684 54.0869 4.23571 0
9.50667 54.1721 3.65362 0
10.151 53.0117 4.80752 0
10.0092 54.2383 3.02308 0
11.0522 58.4937 -0.497802 0
12.1816 59.6003 -0.962723 0
10.0451 57.6663 0.133128 0
10.6046 56.3179 1.35077 0
10.721 54.6431 2.40948 0
12.4703 58.33 0.472622 0
13.4904 60.4094 -1.06898 0
11.1577 53.4764 4.00436 0
11.6464 55.7156 1.98589 0
12.76 57.0973 2.0144 0
12.7217 55.7965 3.78867 0
13.9572 58.0728 2.22258 0
13.1709 61.4204 1.70445 0
13.775 61.2719 2.9512 0
11.4669 62.504 -0.726308 0
12.3481 61.71 0.480634 0
13.9701 61.7325 0.329574 0
14.8269 62.1297 -0.664347 0
15.7345 62.1637 0.164146 0
11.7537 64.7301 -2.21679 0
11.5259 63.6621 -1.54628 0
11.6667 65.0308 -2.72006 0
12.6278 64.1889 -2.7173 0
13.435 63.2183 -2.32633 0
14.0378 62.4598 -1.4033 0
15.59 62.1407 -1.23591 0
12.7261 63.0238 -1.42508 0
13.6981 63.0531 -1.725 0
14.0457 61.9358 -2.00584 0
16.0198 61.449 -1.06551 0
17.0285 61.8961 -0.520317 0
14.7706 60.9749 -1.09987 0
15.0291 59.7364 0.613738 0
15.2632 58.6998 2.28296 0
15.3841 61.7086 2.39805 0
14.2942 61.0646 4.17791 0
17.1867 62.9151 0.292427 0
16.3472 62.6054 1.04462 0
16.7863 62.6444 2.25887 0
18.4385 63.4702 2.59805 0
17.2577 62.8925 3.35465 0
17.6564 60.8205 1.04128 0
17.8391 62.5237 0.174313 0
15.196 57.3717 4.03156 0
16.5133 59.1936 2.47889 0
17.7547 59.5797 2.80509 0
17.3134 57.8733 4.76399 0
18.7871 60.0322 3.45825 0
19.2475 63.1102 2.35878 0
19.5301 63.0685 3.69259 0
18.689 62.6462 1.24664 0
19.4765 61.7146 2.73921 0
19.4557 60.0231 4.47724 0
20.2601 61.8426 5.14966 0
20.0591 63.2535 5.13991 0
18.5637 58.0005 5.8328 0
19.4244 60.0663 5.51054 0
19.3984 59.8345 6.25919 0
10.163 64.566 9.52032 0
8.69704 63.8907 10.3756 0
11.6454 65.1874 8.91544 0
10.4839 65.2984 8.46618 0
9.4342 64.4002 7.81034 0
8.16109 61.2375 8.93762 0
8.6217 63.5222 8.60359 0
8.8088 63.2518 7.25901 0
9.02682 60.7181 7.73299 0
9.30194 59.9163 8.85344 0
8.66639 62.0477 6.77532 0
10.0514 60.4648 6.42791 0
11.4419 60.0028 6.15662 0
13.7145 58.5763 10.9443 0
15.0661 59.2053 10.5485 0
13.1586 58.9755 9.39791 0
12.6627 59.1896 8.2413 0
14.4023 59.3963 7.8494 0
10.9204 59.3205 8.66816 0
12.0956 59.6403 7.31235 0
13.2673 60.5492 5.92683 0
16.2327 60.1122 8.8287 0
16.3345 60.2817 10.3455 0
15.5223 60.0651 6.02963 0
15.8738 59.9929 7.40542 0
14.8743 60.5624 5.02606 0
16.1929 61.5895 4.53884 0
17.7519 62.7194 4.62087 0
18.8211 62.4084 7.52835 0
17.3803 61.0817 7.26218 0
18.3832 62.5156 6.0265 0
19.3778 63.6005 5.37311 0
20.2226 62.8218 6.32857 0
17.0498 55.4798 5.85824 0
15.5525 55.9428 5.52837 0
16.4171 55.7323 5.89506 0
13.9511 54.3779 5.16354 0
14.6508 55.6277 5.342 0
15.1126 50.9194 4.77714 0
15.7363 51.3997 3.8319 0
12.2408 52.2288 5.46844 0
12.9063 53.0706 5.11661 0
11.6186 51.7288 6.0469 0
11.9328 51.835 5.82773 0
12.2363 49.9953 7.02158 0
11.178 48.9459 7.26433 0
11.4478 48.6078 6.62419 0
10.6141 52.2528 6.43225 0
11.2191 52.1287 6.31683 0
10.3263 52.5711 6.74675 0
10.9802 51.5349 7.91758 0
11.0922 49.918 8.62563 0
11.1286 49.0542 7.80868 0
11.4916 50.4769 7.49058 0
11.1197 49.3339 8.25156 0
10.425 48.5457 8.62998 0
13.3847 50.2846 6.31727 0
9.4165 53.3686 6.44889 0
9.74332 53.0629 7.00435 0
9.61579 53.2123 6.44683 0
9.50807 53.0489 7.39398 0
9.77248 52.8583 7.49432 0
9.97732 52.621 7.46416 0
10.2186 52.1268 7.97891 0
10.1685 52.4012 7.3905 0
10.5038 51.6423 8.49142 0
10.0168 52.1657 8.49824 0
10.8096 51.4368 8.50663 0
10.9029 50.4831 9.29197 0
9.10028 53.6568 5.86025 0
9.13477 53.585 6.23946 0
8.4796 54.4166 5.18307 0
8.49976 54.2943 5.61772 0
8.79141 53.8399 5.94015 0
9.18861 53.4939 6.68381 0
9.1712 53.2709 7.11622 0
8.03432 55.6032 4.43695 0
8.06408 55.3949 4.97976 0
8.25937 54.7899 5.30529 0
7.71292 57.0467 3.77453 0
7.77943 56.7889 4.47571 0
7.93504 56.0949 4.72788 0
8.08136 55.1444 5.55481 0
7.99954 54.8223 6.09865 0
8.81952 53.5234 6.8337 0
8.54368 54.1266 6.11086 0
8.51566 53.8794 6.61644 0
7.14676 58.3357 3.20185 0
7.18526 58.0687 3.97728 0
7.48152 57.4204 4.2135 0
6.56567 59.5097 2.69106 0
6.49293 59.1629 3.45233 0
6.8835 58.6382 3.7506 0
7.23126 57.7491 4.76695 0
6.99656 57.0856 5.29127 0
7.27742 56.5178 5.51439 0
6.08117 60.6644 1.94378 0
5.80566 60.1304 2.62019 0
6.1868 59.7351 3.08498 0
6.40597 61.9089 1.30697 0
5.85197 61.2593 1.9169 0
5.83057 60.7093 2.29517 0
5.68087 59.6485 3.39274 0
5.5695 59.1017 4.15245 0
5.97368 58.7188 4.58654 0
6.67184 57.6052 5.04895 0
6.47428 58.8035 4.2493 0
6.31837 58.1684 4.85313 0
6.19109 57.5263 5.48517 0
7.84837 55.4422 5.95111 0
7.81925 56.486 5.17209 0
7.58523 55.959 5.71729 0
7.81113 63.4266 1.12206 0
7.06381 62.7149 1.57438 0
6.33683 61.8894 1.71827 0
8.44441 65.1208 1.60041 0
7.9939 64.485 2.09713 0
7.79987 63.5864 1.81072 0
6.03736 61.8117 2.12331 0
5.22671 60.8987 2.76523 0
5.02095 60.256 2.97088 0
7.80762 66.2857 2.0035 0
7.68316 65.4681 2.62755 0
7.83945 65.1485 2.3524 0
7.36186 67.5703 2.59118 0
7.21831 66.4052 3.18924 0
7.53817 66.0093 2.99104 0
7.49149 64.6949 3.26106 0
6.66002 63.71 3.74733 0
6.55784 63.187 3.36291 0
5.58327 61.7219 2.6228 0
4.53132 60.0153 3.40882 0
7.33761 63.6387 2.57581 0
6.24811 62.4038 2.9186 0
4.93559 61.5374 3.28623 0
4.03809 59.359 4.14296 0
4.31344 58.9108 4.3449 0
4.00289 60.6454 3.99311 0
3.91293 59.9854 3.95769 0
3.55001 58.7079 4.8891 0
2.97917 57.9296 5.4093 0
3.30264 57.6374 5.56549 0
6.37768 68.2281 2.74766 0
6.38109 67.2197 3.34336 0
6.74591 66.6765 3.27705 0
5.55195 68.9308 3.02108 0
5.40825 67.8847 3.38655 0
5.95559 67.5471 3.45355 0
6.30019 66.1502 4.08297 0
6.08611 65.2294 4.87353 0
6.42461 64.8627 4.72589 0
4.97493 70.0753 3.40365 0
4.73182 69.2225 3.47903 0
5.04585 68.4644 3.51551 0
4.40746 70.7212 3.93906 0
4.20793 70.0859 3.86701 0
4.42769 69.7126 3.64725 0
4.48847 68.0076 4.04109 0
4.23851 66.737 4.85904 0
4.70801 66.3484 4.87631 0
5.69109 65.6173 4.94155 0
5.69606 64.4066 5.66371 0
5.35827 66.8685 4.12044 0
5.23748 65.9914 4.93896 0
4.84551 65.0816 5.68899 0
4.8424 63.6495 6.34181 0
4.88239 63.147 6.08699 0
4.16242 64.3158 6.46997 0
4.51969 64.0277 6.41668 0
3.78429 62.7058 6.92085 0
3.23287 61.3311 7.42149 0
3.17296 60.9024 7.03181 0
2.68885 58.1981 5.25286 0
4.19718 61.2187 4.09358 0
3.19713 59.6005 4.70609 0
2.49668 58.6603 5.27656 0
2.39865 59.3929 5.46322 0
1.99069 58.0074 5.82813 0
6.91965 64.2878 4.27196 0
5.594 62.6633 4.19871 0
6.94167 65.3465 3.74087 0
6.63048 64.609 4.48071 0
6.05094 63.631 5.21483 0
3.32838 60.8285 5.20964 0
2.37367 60.0185 5.67685 0
4.45221 61.7002 4.63765 0
4.64094 62.1997 5.16528 0
4.86804 62.594 5.73956 0
2.41929 60.4852 5.97273 0
1.87365 59.0523 6.05691 0
3.48297 61.8575 6.08911 0
2.69644 60.7589 6.44098 0
2.34373 59.6713 6.93705 0
5.26055 59.3849 3.71335 0
5.47063 58.4548 4.88401 0
5.47081 60.5203 2.65422 0
5.17987 59.7778 3.365 0
4.86919 59.0723 4.06323 0
5.00062 57.1286 5.77075 0
5.23317 57.7625 5.32549 0
4.8717 58.087 4.96319 0
4.61198 58.5077 4.62459 0
4.29628 57.9561 5.26741 0
3.72992 57.4182 5.88444 0
3.7615 70.9849 4.7674 0
3.61345 70.6208 4.39788 0
3.957 70.3988 4.14768 0
3.56491 71.7035 5.18019 0
3.21901 71.1151 4.99631 0
3.28828 70.8015 4.68947 0
3.52125 69.492 4.92599 0
3.00532 68.3186 5.42981 0
3.21397 67.9737 5.20996 0
3.48389 72.5123 5.31514 0
3.088 71.6037 5.72587 0
3.20612 71.3996 5.30898 0
3.13645 73.0558 5.65802 0
2.80074 72.2438 6.41575 0
2.99104 71.8403 6.12398 0
2.77895 70.6496 6.43125 0
2.03722 69.9042 6.76801 0
2.24599 69.4903 6.43069 0
2.7404 68.6688 5.6902 0
2.29727 67.2531 5.87206 0
3.07639 70.0491 5.67251 0
2.46909 69.055 6.05247 0
1.83208 68.2106 6.44093 0
1.83321 66.326 6.46988 0
2.10416 65.9126 6.36459 0
1.36481 67.5052 7.0039 0
1.55276 66.8972 6.65596 0
1.31997 65.5936 7.0186 0
0.827777 64.932 7.57589 0
1.15097 64.4237 7.62955 0
3.32082 73.876 6.39629 0
2.63605 73.4091 6.79901 0
2.73807 72.7332 6.71177 0
2.13169 72.9587 7.34267 0
1.42667 72.5918 7.64117 0
1.72296 71.7326 7.74835 0
1.02371 73.4866 7.38708 0
0.824604 72.0363 8.09203 0
0.227063 71.5683 8.58344 0
0.607031 70.5924 8.66967 0
0.7741 65.5676 7.81461 0
0.263814 64.2616 8.25082 0
1.39884 68.0845 7.57369 0
1.0563 66.8824 7.57093 0
0.767303 66.2997 8.18498 0
0.906366 67.0176 8.95257 0
1.82431 70.3362 7.085 0
1.5718 69.2236 7.31825 0
2.26971 71.5553 6.94031 0
1.733 70.9686 7.40396 0
1.21882 70.4394 7.9755 0
0.907299 68.1411 8.63061 0
0.649039 67.6083 9.31013 0
1.16871 68.6518 7.94363 0
0.82849 69.2176 8.20133 0
0.6872 69.8537 8.44541 0
0.430993 69.2435 9.09153 0
3.18304 61.7983 7.75156 0
2.49117 60.5392 7.94221 0
3.94699 64.5635 6.6735 0
3.60354 63.388 7.36395 0
2.90223 62.3015 7.84515 0
2.5784 62.73 7.91833 0
3.88662 67.1781 4.94381 0
4.00685 65.7401 5.74383 0
3.88186 68.9047 4.33251 0
3.41741 67.6149 4.96008 0
3.02276 66.5014 5.72093 0
2.8564 63.9829 7.35261 0
2.23265 63.1262 7.92265 0
3.49836 64.8764 6.68105 0
2.97706 65.1904 6.52049 0
2.4868 65.5583 6.43421 0
1.85289 63.4916 7.80187 0
1.99812 64.683 7.07213 0
1.48299 63.9143 7.68766 0
8.26175 65.9955 20.5856 0
9.02958 65.6421 21.1408 0
9.82343 66.0793 21.1314 0
9.64744 65.5958 21.69 0
8.9718 65.1044 22.872 0
9.37382 65.4672 23.5807 0
9.33823 65.283 22.2468 0
10.0991 65.7696 22.2867 0
8.60103 64.6228 26.3811 0
9.27463 65.1666 24.6898 0
8.89879 64.7348 25.4591 0
9.03429 64.5181 25.6821 0
9.72931 64.6539 25.1877 0
9.10034 64.1529 25.7549 0
10.1059 65.925 23.6551 0
9.69339 65.659 24.2076 0
10.8022 66.291 22.3408 0
10.4796 66.0501 22.9636 0
10.8343 66.3839 23.6747 0
11.5766 66.5616 23.5036 0
11.1975 66.4009 24.1781 0
10.274 65.3693 24.8642 0
10.4801 64.8694 24.9049 0
9.98391 65.6194 24.6368 0
10.7427 65.9531 24.5261 0
11.5028 66.2117 24.4013 0
11.1617 65.2449 24.6357 0
10.5872 64.3023 24.7739 0
12.1774 66.4067 24.145 0
11.7577 65.9757 24.5166 0
11.772 65.4994 24.2636 0
12.3846 65.6698 23.8401 0
11.6706 64.9258 23.7735 0
14.9367 71.76 15.801 0
12.9059 66.328 23.658 0
12.7006 65.8234 23.0024 0
12.5106 66.8783 23.6905 0
12.7039 66.6347 23.7258 0
13.1891 66.8898 23.19 0
13.4855 67.6039 22.8288 0
13.5604 67.0751 22.3458 0
11.8659 66.9398 22.9326 0
12.2478 66.9862 23.458 0
11.0938 66.5454 21.7482 0
11.4898 66.7778 22.359 0
12.1583 67.2281 22.3374 0
12.4275 67.7935 21.9006 0
12.7901 67.9895 22.4689 0
13.2662 67.8359 22.8047 0
13.7866 68.4211 22.5198 0
12.7748 67.3153 23.1102 0
13.0541 67.9936 22.7189 0
13.3406 68.6014 22.2825 0
14.0692 68.9802 22.039 0
14.2573 68.6678 21.8113 0
13.5841 69.03 21.7231 0
13.8441 69.0414 21.9305 0
14.3538 69.4089 21.4529 0
14.5105 69.5642 20.6271 0
14.7922 69.3913 20.5588 0
9.8688 66.6095 20.6328 0
10.558 66.4699 21.1671 0
9.95136 67.0019 20.057 0
10.7127 67.311 20.0414 0
14.1843 69.533 20.4171 0
14.6135 69.6765 19.7215 0
13.1931 68.8142 21.2621 0
13.7152 69.1973 20.855 0
13.8101 69.3521 20.0248 0
13.4541 69.1895 19.6351 0
13.9423 69.5572 19.2325 0
11.9025 67.4933 21.2279 0
12.5332 68.2825 21.3711 0
11.2386 66.9798 21.1905 0
11.2907 67.4186 20.6493 0
11.4319 67.688 20.0032 0
12.8019 68.6931 19.8111 0
12.9231 68.8912 19.0553 0
12.6391 68.4945 20.579 0
12.105 68.1617 19.9408 0
12.3288 68.658 18.5047 0
12.9892 69.2174 18.3609 0
11.6588 68.1084 18.6039 0
14.9239 69.9391 19.0662 0
15.3117 69.7704 19.0618 0
14.1227 69.8754 18.5679 0
14.4956 70.0319 18.9286 0
15.1399 70.2534 18.3948 0
15.2193 70.6959 17.859 0
15.7009 70.5046 17.9006 0
13.5556 69.8085 18.2751 0
14.6848 70.8496 17.7888 0
15.2088 71.1485 17.3504 0
14.0946 70.3424 18.0198 0
14.0698 70.7966 17.5271 0
15.2443 71.5056 16.8669 0
15.7846 71.3204 16.9013 0
14.5931 71.5863 16.7689 0
15.1557 71.7228 16.2964 0
15.6042 71.6706 15.9218 0
13.0184 65.9065 22.0084 0
12.4072 65.2096 22.1462 0
14.0411 67.2328 21.4182 0
13.5584 66.5593 21.7536 0
13.4431 65.8309 20.9886 0
13.6326 65.9351 19.9646 0
13.0633 65.2473 20.1755 0
14.8368 68.868 20.9186 0
14.4272 68.0508 21.1576 0
15.2602 69.3358 19.5763 0
15.0498 69.1151 20.2526 0
15.0804 68.5703 19.5415 0
15.3093 68.3641 18.3016 0
14.7601 67.9367 18.732 0
13.87 66.7965 19.6109 0
13.2507 66.3789 18.8677 0
14.1921 67.3483 20.3325 0
14.2434 67.4876 19.217 0
14.35 67.4401 18.0049 0
13.1426 66.4161 17.7717 0
12.6072 65.9149 18.1296 0
14.5157 67.304 16.8904 0
13.8035 66.8436 17.3251 0
13.2451 66.1407 16.6541 0
13.5231 65.8336 15.5893 0
12.7652 65.5214 15.946 0
15.9617 69.8154 18.3423 0
15.6155 69.5801 18.9482 0
16.1076 70.5813 17.2365 0
16.066 70.1591 17.7874 0
16.2935 69.6821 17.4767 0
16.669 69.4771 16.5862 0
16.4658 69.2533 17.0705 0
16.2068 71.1198 16.2794 0
16.1665 70.827 16.7981 0
15.6725 71.0349 15.3158 0
15.991 71.1397 15.8545 0
16.2687 70.4661 15.6641 0
16.2769 70.0541 14.8775 0
16.5336 69.9942 15.3009 0
16.7769 69.6633 16.1838 0
17.214 69.1069 15.7608 0
16.4413 70.2272 16.5432 0
16.8245 69.858 15.7629 0
16.8369 69.6345 14.8498 0
17.5574 68.9185 14.9318 0
17.3426 68.5985 15.2596 0
16.8282 69.5854 14.0018 0
17.1847 69.2436 14.4475 0
17.4707 69.132 14.0028 0
17.3908 69.359 13.1732 0
17.3418 68.9232 13.4731 0
14.2502 66.3438 15.1866 0
13.841 65.5317 14.5662 0
15.1324 67.7034 16.5163 0
14.7159 67.0901 15.8359 0
14.9141 66.9375 14.8268 0
15.5817 67.313 14.5223 0
15.0984 66.8496 13.8834 0
15.7899 68.708 17.903 0
15.5324 68.2289 17.2174 0
15.7875 69.1919 18.5381 0
16.295 68.9828 17.5425 0
16.7485 68.5697 16.553 0
16.0263 67.8174 15.1843 0
16.2018 67.6994 14.2385 0
15.7754 68.0649 16.1796 0
16.4464 68.1422 15.873 0
17.0779 68.3022 15.5763 0
16.7521 68.0712 14.0055 0
16.3195 67.6832 13.3696 0
17.1655 68.3611 14.65 0
17.2156 68.4583 13.7782 0
17.2873 68.5223 12.9643 0
13.9185 65.6676 13.5591 0
13.1749 65.245 13.865 0
15.2216 66.8205 12.9784 0
14.5533 66.3407 13.2395 0
13.8711 66.0431 12.5559 0
13.9632 66.1146 11.682 0
13.2116 65.5705 11.9512 0
16.4402 67.6855 12.5506 0
15.8351 67.2564 12.7451 0
17.3621 68.5718 12.2481 0
17.0365 68.1173 12.4009 0
16.6373 67.6157 11.7993 0
16.7779 67.5768 11.0875 0
16.1959 67.0941 11.1775 0
14.7216 66.4216 11.4774 0
14.1342 66.0837 10.9036 0
15.3086 66.8227 12.1041 0
15.4606 66.7414 11.307 0
15.7142 66.7819 10.6237 0
14.3908 66.0745 10.1906 0
13.6322 65.5572 10.4071 0
15.9492 66.8107 9.94742 0
15.2044 66.4782 10.064 0
14.7078 66.042 9.50629 0
14.9453 66.181 8.86288 0
14.2445 65.5471 8.9839 0
8.67077 74.5462 6.94133 0
7.88684 74.2569 7.13159 0
8.26467 74.0209 7.44966 0
4.34167 74.9853 6.33944 0
4.00224 74.535 5.99827 0
7.49795 74.6177 6.74578 0
7.18073 74.1249 7.33334 0
7.82037 75.219 6.25082 0
7.05557 74.9974 6.37302 0
6.64012 75.1185 6.03958 0
6.34944 74.6655 6.56392 0
6.92636 75.5841 5.82437 0
6.23391 75.1717 5.94153 0
6.88029 75.981 5.94187 0
5.7027 75.2055 5.80352 0
5.44517 74.7106 6.08161 0
5.91617 75.7041 5.70112 0
4.93306 75.2189 5.71425 0
3.95338 74.174 5.69315 0
6.42291 73.9844 7.56766 0
6.78519 73.6845 7.9812 0
5.66261 74.2108 6.66413 0
6.0607 74.1703 7.10555 0
5.95046 73.6625 7.41261 0
5.33363 73.1472 7.24444 0
5.84015 73.1387 7.71641 0
4.60772 74.1956 5.84242 0
5.21555 74.2162 6.23234 0
3.86761 73.8525 5.61419 0
3.80289 73.5232 5.5577 0
3.84922 73.0792 5.56609 0
4.85618 73.1481 6.68125 0
4.86524 72.5619 6.67194 0
5.00718 73.7021 6.49434 0
4.33988 73.1622 6.10736 0
3.85106 72.5716 5.5708 0
4.35448 72.0277 6.06423 0
4.88723 71.958 6.66006 0
3.85256 72.0891 5.4579 0
3.86308 71.5955 5.29825 0
3.97344 71.1943 5.07317 0
15.6431 66.8828 8.83583 0
15.1425 66.5511 8.32566 0
16.6339 67.1177 9.83599 0
16.1366 66.9517 9.31213 0
16.2917 67.2599 8.73199 0
16.8215 67.8537 8.68146 0
16.3298 67.8473 8.18898 0
17.1677 68.1592 11.0513 0
16.8381 67.6217 10.4357 0
17.4447 68.9441 12.1038 0
17.3643 68.5786 11.6117 0
17.2883 68.6039 10.9564 0
17.2959 69.0773 10.8414 0
17.1386 68.7569 10.3191 0
17.1733 68.1618 9.24936 0
17.2175 68.6676 8.71278 0
16.9991 67.7599 9.81659 0
17.2428 68.5666 9.83095 0
17.1993 69.0392 9.73491 0
17.2711 69.1253 8.63685 0
17.0743 68.8424 8.0191 0
16.9969 69.4009 9.63166 0
17.1565 69.3183 9.16614 0
17.0602 69.5648 8.57985 0
16.7849 69.7871 8.455 0
16.8916 69.6218 7.83223 0
17.2306 69.8031 12.9291 0
17.3915 69.3793 12.5262 0
16.4944 69.6758 13.725 0
16.939 69.9126 13.3171 0
17.0291 70.1539 12.7008 0
16.4512 69.6791 12.5207 0
16.8385 69.7575 12.1327 0
15.9239 70.138 14.5017 0
16.1997 69.8387 14.1365 0
15.3127 71.0489 14.903 0
15.6215 70.4974 14.7887 0
15.5291 70.2257 14.1144 0
15.02 70.2658 13.9021 0
15.278 69.9399 13.5965 0
16.0024 69.4501 12.8929 0
15.8573 69.1979 12.356 0
16.1385 69.7186 13.464 0
15.5798 69.6553 13.2804 0
15.0359 69.6622 13.1044 0
15.2543 69.287 12.2368 0
15.6513 69.0541 11.8548 0
14.4609 69.8563 12.996 0
14.8223 69.5017 12.633 0
14.5792 69.4248 12.1981 0
13.9289 69.7493 12.1565 0
14.349 69.3442 11.7628 0
16.5201 69.7684 8.98432 0
16.3243 69.6323 8.24568 0
16.7793 69.2905 10.1265 0
16.6266 69.5829 9.57411 0
16.2446 69.7402 9.49419 0
15.8657 69.4938 9.98528 0
15.6859 69.5419 9.35882 0
17.1785 68.9643 11.3306 0
16.9798 69.0566 10.7048 0
17.3976 69.3587 11.904 0
17.0527 69.4112 11.7399 0
16.6 69.2147 11.5832 0
16.0947 69.1947 10.5254 0
15.4719 69.16 10.4572 0
16.6271 69.1358 10.6054 0
16.3397 68.934 11.0607 0
16.0012 68.9858 11.4538 0
15.0911 69.0351 10.9038 0
14.8809 69.103 10.3412 0
15.3667 69.0453 11.3829 0
14.7243 69.1843 11.3374 0
14.0989 69.3631 11.2558 0
15.8505 69.4266 8.03713 0
16.1521 69.5115 7.43294 0
15.1104 69.3219 9.23817 0
15.4894 69.3896 8.64242 0
15.2944 69.312 7.92165 0
14.7216 69.2196 7.81806 0
15.1011 69.3628 7.17522 0
14.2933 69.2842 10.2484 0
14.6918 69.1897 9.74125 0
13.29 69.3523 11.2631 0
13.8651 69.3891 10.7257 0
13.6761 69.4261 10.1637 0
12.98 69.6492 10.0983 0
13.482 69.3918 9.54382 0
14.3316 69.2271 8.42592 0
14.149 69.2024 7.71306 0
14.5211 69.2289 9.12428 0
13.9248 69.2866 9.01679 0
13.3133 69.3488 8.91378 0
13.4884 69.0469 7.67893 0
13.9147 69.1268 7.01895 0
12.6304 69.4237 8.91744 0
13.084 69.1471 8.28888 0
12.8344 68.8876 7.65097 0
12.201 68.9494 7.645 0
12.6122 68.7674 6.98045 0
11.7897 69.2435 8.29339 0
11.605 68.9727 7.58587 0
12.1135 69.6856 9.47187 0
11.9631 69.4774 8.92255 0
11.3272 69.4525 8.94946 0
10.8082 69.6125 9.60433 0
10.6644 69.3168 8.99645 0
12.354 69.6048 10.6589 0
12.265 69.8266 10.0422 0
12.7343 69.4514 11.7717 0
12.4863 69.376 11.2696 0
11.9578 69.7058 11.0894 0
11.6733 70.123 11.3712 0
11.5083 70.0613 10.8755 0
10.9496 69.8092 10.1579 0
10.3227 69.924 10.1985 0
11.6082 69.8506 10.0823 0
11.2494 69.9845 10.5009 0
10.9118 70.3494 10.8723 0
9.97352 70.5082 10.5737 0
9.71806 69.9241 10.1728 0
10.7284 71.1852 11.1623 0
10.2774 70.7188 10.9035 0
9.70498 71.0845 10.8727 0
9.75381 71.7188 10.9628 0
9.31575 71.3998 10.7388 0
13.4852 70.1092 12.5742 0
13.0957 69.7959 12.1743 0
14.2324 70.2393 13.2874 0
13.826 70.185 12.9563 0
13.2458 70.5184 12.8241 0
13.1536 70.9638 12.9339 0
12.6729 70.7405 12.6268 0
14.8011 70.7128 14.1328 0
14.5635 70.3796 13.6944 0
15.0051 71.1857 14.523 0
14.566 71.2869 14.264 0
13.5718 71.018 13.3075 0
13.0971 71.3931 13.0457 0
14.0451 70.6204 13.5534 0
13.9826 71.2763 13.6554 0
13.1658 72.049 12.9972 0
12.7224 71.8641 12.7562 0
10.2034 72.1203 11.2162 0
9.81001 72.3452 11.0394 0
11.1766 71.5377 11.4382 0
10.6093 71.9594 11.3941 0
10.7211 72.5063 11.4279 0
11.3549 72.653 11.408 0
10.9511 72.8144 11.1613 0
11.9053 70.2541 11.8491 0
11.4866 70.8216 11.6333 0
12.4445 69.9614 12.0528 0
12.2201 70.4849 12.3077 0
12.1485 70.9995 12.3972 0
11.4744 72.2886 11.9066 0
11.7288 72.6487 11.6903 0
11.394 71.6091 11.9018 0
11.7933 71.5676 12.1346 0
12.2442 71.6679 12.4309 0
12.0424 73.0575 11.3462 0
10.1949 72.8062 10.6657 0
9.67662 72.5001 10.5343 0
11.4452 73.1556 10.6221 0
10.8527 73.0189 10.6043 0
12.1134 73.5371 9.86532 0
10.9923 68.9318 7.57714 0
11.4137 68.7989 6.90143 0
10.0005 69.1898 9.03932 0
10.5008 69.048 8.32958 0
10.3989 68.9318 7.63885 0
9.82596 68.9876 7.71007 0
10.286 68.8724 6.9944 0
9.14661 69.9975 10.1472 0
9.54135 69.4638 9.64231 0
8.92641 71.7233 10.6116 0
9.0111 70.9215 10.4057 0
8.67814 70.4109 10.1284 0
8.17421 70.8385 10.1576 0
8.38659 69.857 9.75769 0
9.34044 68.8748 8.37197 0
9.2767 68.8901 7.71295 0
9.43696 69.0749 9.00869 0
8.82916 68.9175 9.05182 0
8.26103 69.2787 9.10825 0
8.71816 68.9004 7.75467 0
9.1884 69.027 7.09809 0
7.65972 69.7287 9.20098 0
8.16326 68.9782 8.4817 0
8.15788 69.0577 7.81774 0
7.59984 69.3279 7.84507 0
8.09783 69.1426 7.18154 0
9.63783 72.5952 9.92542 0
9.25561 72.1735 10.3103 0
9.47624 72.8207 9.52223 0
9.37539 73.1187 9.02178 0
8.87096 72.5465 9.59716 0
9.16275 73.3298 8.57652 0
8.9033 73.5031 8.15584 0
8.39447 72.8754 8.77084 0
8.62117 73.7677 7.77354 0
7.87629 73.5557 8.04033 0
7.02227 69.5931 8.59995 0
6.95228 69.5147 7.89488 0
7.38689 70.6082 9.73381 0
7.20538 70.0956 9.19401 0
6.78152 70.3666 9.07009 0
6.61188 71.1569 9.47663 0
6.34789 70.5958 8.88533 0
8.26894 71.4945 10.1705 0
7.86405 71.0325 9.95691 0
8.68834 71.8964 10.3204 0
8.42409 72.054 10.0755 0
8.19012 72.2197 9.74799 0
7.1114 71.4829 9.58149 0
6.76938 71.6976 9.36184 0
7.46414 71.2934 9.80437 0
7.61584 71.8413 9.6995 0
7.88963 72.3127 9.38056 0
6.95977 72.1862 9.14274 0
6.37785 71.9702 9.20417 0
7.57587 72.418 9.0322 0
7.34392 72.8684 8.70031 0
7.09728 73.3511 8.36424 0
6.48676 69.7794 7.69841 0
6.89676 69.5604 7.16362 0
5.95689 70.8279 8.6668 0
6.11751 70.1106 8.2167 0
6.07232 70.1451 7.42016 0
5.69675 70.5085 7.07174 0
6.00777 70.2914 6.59734 0
6.18157 72.4158 8.82368 0
5.8562 71.6482 9.06039 0
6.56614 73.1235 8.37865 0
6.11317 72.8478 8.24027 0
5.70991 72.3897 7.77291 0
5.51626 70.8182 7.46211 0
5.29172 70.751 6.65117 0
5.67358 71.1075 8.27093 0
5.51983 71.447 7.70434 0
5.21261 71.7054 7.20043 0
4.8433 70.9855 6.16863 0
5.10924 70.7274 5.71799 0
4.87113 71.4757 6.41374 0
4.37223 71.0948 5.64884 0
4.35276 71.0105 4.68627 0
15.2856 67.0405 7.79245 0
14.6532 66.342 7.91035 0
16.3627 68.3714 7.62009 0
15.8463 67.7827 7.6797 0
15.3524 67.5383 7.18493 0
15.4445 67.8006 6.47331 0
14.9242 66.9373 6.58169 0
16.9467 68.9608 7.29154 0
16.8461 68.6101 7.42174 0
16.7345 69.5477 6.99865 0
16.9088 69.2832 7.16775 0
17.0306 69.0996 6.48476 0
17.096 69.2407 5.62229 0
16.9886 68.8582 5.81706 0
15.9771 68.4151 6.29466 0
15.5199 67.9857 5.68085 0
16.509 68.4979 6.84215 0
16.5899 68.606 6.04906 0
16.5371 68.7207 5.21593 0
15.4978 68.1257 4.91063 0
14.9927 67.3658 5.08577 0
16.4498 68.8159 4.37966 0
15.9706 68.5961 4.66271 0
15.4322 68.1789 4.08472 0
15.3131 68.3131 3.32091 0
14.8381 67.7211 3.56065 0
15.9437 69.5628 6.6555 0
16.4384 69.6058 6.79649 0
14.9034 69.4558 6.4142 0
15.4552 69.5347 6.51314 0
15.7255 69.6605 5.87685 0
15.479 69.7339 5.07423 0
15.9685 69.7573 5.21163 0
13.7123 69.2272 6.27575 0
14.3222 69.3597 6.33069 0
12.4358 68.8885 6.2568 0
13.0705 69.058 6.26256 0
13.5016 69.3401 5.52303 0
13.2641 69.4328 4.73521 0
13.8531 69.5443 4.7759 0
14.9582 69.677 4.93166 0
15.1922 69.7818 4.25698 0
14.6674 69.5491 5.64873 0
14.416 69.6233 4.84595 0
14.1556 69.6764 4.03951 0
14.8248 69.8388 3.4077 0
15.301 69.8643 3.53554 0
13.8556 69.8563 3.30953 0
14.3713 69.8955 3.37672 0
14.5003 70.0042 2.67762 0
14.154 70.6573 2.18095 0
14.5889 70.632 2.23213 0
15.6449 68.7693 2.97265 0
15.0742 68.5204 2.48857 0
16.6371 69.0901 4.13194 0
16.2244 68.9266 3.51267 0
15.9162 69.1042 2.62589 0
15.9226 69.4533 2.4334 0
15.6586 69.2967 1.85654 0
16.9291 69.5139 5.46812 0
16.9379 69.3557 4.76941 0
16.6861 69.6025 6.15298 0
16.4384 69.69 5.34591 0
16.1535 69.7677 4.53404 0
16.1417 69.572 3.07974 0
15.767 69.8975 2.32656 0
16.5277 69.441 3.91801 0
16.1681 69.6711 3.80794 0
15.7489 69.8193 3.68641 0
15.3679 70.0278 2.19675 0
15.3842 70.1908 1.56895 0
15.3535 69.8587 2.83583 0
14.9794 70.3526 2.20168 0
14.6141 71.0552 1.76 0
14.7407 68.7646 1.75769 0
14.2647 68.2698 2.18783 0
15.3952 69.4985 1.17331 0
15.1173 69.1415 1.414 0
14.1714 69.1967 1.35883 0
13.5562 69.5776 0.970948 0
13.2247 68.9473 1.21914 0
15.0004 70.5643 1.1714 0
15.2878 69.9565 1.05411 0
14.2319 71.4804 1.36793 0
14.6111 71.0624 1.29317 0
14.621 70.9253 0.830853 0
14.1064 71.078 0.485084 0
14.3586 70.609 0.30875 0
13.9123 69.9637 0.656041 0
12.9872 69.5938 0.494169 0
15.0012 69.7605 0.593153 0
14.3287 70.0538 0.241619 0
13.651 70.2556 -0.122726 0
12.3162 69.3893 0.0299268 0
12.1284 68.9118 0.179397 0
12.7785 70.1188 -0.436651 0
12.571 69.8491 -0.162405 0
11.5932 68.8316 -0.61838 0
10.8238 67.948 -1.30031 0
10.9553 67.6825 -1.18306 0
11.2438 68.7789 6.24385 0
11.8305 68.8865 6.23152 0
10.1127 68.7959 6.36982 0
10.6648 68.6886 6.28313 0
11.0671 68.7137 5.60205 0
10.8378 68.8776 4.85742 0
11.4298 68.9915 4.80609 0
9.07712 69.1684 6.46666 0
9.60464 69.0645 6.43151 0
8.06025 69.4335 6.49889 0
8.56586 69.2646 6.48807 0
8.96902 69.3734 5.81673 0
8.74595 69.5775 5.12323 0
9.23835 69.4601 5.09408 0
10.2683 69.012 4.94674 0
10.62 69.2939 4.14572 0
9.97271 68.8877 5.71518 0
9.74909 69.2798 5.02659 0
9.51828 69.5928 4.31419 0
10.3136 69.8044 3.50709 0
10.8913 69.6635 3.40258 0
9.22186 69.9171 3.61522 0
9.74961 69.8624 3.56702 0
9.98207 70.2406 2.86715 0
9.50308 70.4918 2.18191 0
10.0507 70.4923 2.13571 0
6.9238 69.8992 6.30239 0
7.47831 69.6606 6.45583 0
5.92514 70.4021 5.66636 0
6.42632 70.2135 6.04527 0
6.8742 70.1871 5.45238 0
6.70453 70.1768 4.69216 0
7.22991 70.0307 4.89388 0
5.01113 70.6737 4.76882 0
5.40035 70.4867 5.23644 0
4.67924 70.8136 4.28915 0
4.98326 70.4451 4.06387 0
5.33692 70.1456 3.8296 0
6.19563 70.1976 4.48694 0
6.5713 70.0655 3.96088 0
5.80428 70.3778 4.81278 0
5.71062 70.2453 4.1249 0
5.68696 69.869 3.55983 0
6.27182 69.8654 3.31851 0
6.76075 69.8451 3.50153 0
5.92663 69.4772 3.24959 0
6.12832 69.2784 2.77695 0
6.49267 69.0734 2.53575 0
8.96196 70.4937 2.22705 0
8.9134 70.6497 1.53083 0
8.70893 70.0098 3.66974 0
8.89185 70.2725 2.9396 0
8.49745 70.3484 2.31095 0
7.96245 70.2587 2.31167 0
8.06843 70.3261 1.75079 0
8.24333 69.7568 5.10353 0
8.49898 69.7803 4.40332 0
7.97953 69.7304 5.79706 0
7.7708 69.8522 5.0487 0
7.54765 69.9584 4.28184 0
7.80243 70.1107 2.92172 0
7.41691 70.1585 2.29754 0
8.15642 69.9343 3.65644 0
7.67822 70.0129 3.59989 0
7.19556 70.0256 3.53972 0
7.11096 69.8238 2.40652 0
7.26013 69.8751 1.86922 0
6.89308 69.8884 2.86916 0
6.71484 69.587 2.39299 0
6.78282 68.8504 2.11795 0
8.4391 70.6448 1.01925 0
8.89058 70.7919 0.955259 0
7.58732 70.3119 1.17421 0
8.03446 70.4839 1.10994 0
7.94269 70.574 0.584556 0
7.58015 70.2535 0.205464 0
7.95679 70.6024 0.159929 0
7.20283 69.3106 1.56553 0
7.43674 69.8349 1.40417 0
7.24565 68.5155 2.01755 0
7.5723 68.0892 1.77346 0
7.86148 67.3259 1.52449 0
7.7369 69.3848 0.607627 0
8.27054 68.7162 0.493475 0
7.48169 69.7992 0.924963 0
7.88431 68.4282 1.08184 0
8.23234 66.6596 1.3349 0
8.67124 66.8127 0.75262 0
8.71681 67.7623 0.364812 0
8.59208 65.9144 1.148 0
8.61149 65.0153 0.909104 0
8.42889 63.9917 0.727537 0
10.6745 68.3474 -1.36737 0
10.548 66.6555 -2.26936 0
12.7715 70.4412 -0.441998 0
11.7673 69.7121 -0.831825 0
10.7484 68.5511 -1.41628 0
10.676 68.711 -1.48971 0
10.2008 66.5634 -2.32965 0
13.5882 71.3651 0.670954 0
13.3585 70.9267 0.122006 0
13.7175 71.6469 1.44713 0
13.6819 71.5598 1.08706 0
13.0706 71.5784 0.811433 0
12.5729 71.6421 0.766502 0
12.3362 71.2929 0.263749 0
11.5258 70.2619 -0.932835 0
10.5227 68.8181 -1.47308 0
12.4935 70.708 -0.285843 0
12.0044 70.8253 -0.323569 0
11.5374 70.8871 -0.386206 0
10.483 68.7566 -1.38323 0
9.9114 66.6845 -1.84523 0
11.0614 70.9408 -0.421544 0
10.7616 70.2192 -0.920462 0
10.1445 68.5693 -1.33736 0
9.78226 68.3118 -1.30758 0
9.67827 66.462 -1.58986 0
13.6307 70.6651 2.15477 0
13.6886 71.3493 1.75832 0
13.2966 69.781 3.25615 0
13.529 70.0358 2.5999 0
13.0546 70.6161 2.13417 0
12.4762 70.5505 2.10773 0
12.5348 71.3091 1.74507 0
12.6525 69.2982 4.7364 0
13.0253 69.5091 3.9336 0
12.2525 69.0301 5.52495 0
12.0284 69.1436 4.76365 0
11.7976 69.2484 3.98581 0
12.3365 69.9173 2.57205 0
11.8922 70.3002 2.04984 0
12.6931 69.7081 3.24423 0
12.09 69.5864 3.26546 0
11.4828 69.5431 3.31084 0
11.2999 70.3378 2.10614 0
11.3844 70.7295 1.62864 0
11.1423 70.0512 2.70866 0
10.7078 70.4766 2.19913 0
10.1416 70.6814 1.5997 0
10.0008 69.754 -0.840147 0
9.66212 68.0292 -1.1344 0
11.2935 71.2022 0.109148 0
10.6507 70.7042 -0.394566 0
10.2082 70.4544 -0.369876 0
10.3658 70.7752 0.152215 0
9.75179 70.1702 -0.360404 0
12.607 71.6886 1.11556 0
12.0111 71.5147 0.671937 0
13.1525 71.6666 1.42718 0
12.579 71.6647 1.4068 0
12.0084 71.4767 1.32676 0
10.9074 71.2429 0.598404 0
10.2169 71.1508 0.427759 0
11.4472 71.396 0.605213 0
11.4551 71.3969 0.955229 0
11.4395 71.2013 1.27783 0
10.1562 71.0427 0.722039 0
9.52917 71.0648 0.280229 0
10.8483 70.9324 1.23948 0
10.161 70.8395 1.08508 0
9.52431 70.8132 1.02484 0
9.56936 67.6297 -0.957679 0
9.37523 65.9007 -1.22946 0
9.45052 69.9095 -0.300355 0
9.61493 69.044 -0.643752 0
9.47849 67.1404 -0.777825 0
9.30043 66.6198 -0.529693 0
8.96032 65.1024 -0.794963 0
8.84508 70.9744 0.110596 0
9.13527 70.5139 -0.0900412 0
8.85446 70.9233 0.516922 0
8.40285 70.812 0.154876 0
8.36373 70.167 -0.0290109 0
9.38866 68.1265 -0.331496 0
9.08831 66.0591 -0.273629 0
9.11596 69.6792 -0.260074 0
8.79574 69.3728 -0.225692 0
8.73308 68.6878 0.0250416 0
8.85351 65.3779 0.0296389 0
8.50921 64.1947 -0.18158 0
8.98195 66.6172 0.219655 0
8.6726 64.684 0.363175 0
7.89118 63.0722 0.586968 0
10.2911 64.667 -3.02299 0
10.5664 65.1187 -2.86656 0
9.83636 64.6597 -2.65357 0
10.0358 64.5679 -2.94109 0
9.91827 63.1247 -3.05953 0
9.66717 62.2164 -2.82086 0
10.086 62.3863 -2.93343 0
9.53742 64.7717 -2.15069 0
9.69689 64.7522 -2.3888 0
9.15892 64.5779 -1.71434 0
9.35098 64.7009 -1.93068 0
8.93945 63.4015 -2.0944 0
8.49233 62.3059 -1.71568 0
8.74545 62.2767 -1.9956 0
9.34841 62.2275 -2.57542 0
9.45344 61.5182 -2.49387 0
9.34792 63.2179 -2.639 0
9.00909 62.2428 -2.26306 0
8.73595 61.3936 -1.83671 0
9.23548 60.8513 -1.99746 0
9.62073 60.8982 -2.30524 0
8.599 60.8027 -1.23473 0
8.87227 60.7633 -1.66233 0
9.02567 60.1433 -1.42524 0
9.13582 59.7156 -0.4641 0
9.34258 59.6007 -0.821069 0
8.7609 64.0817 -1.24275 0
8.96296 64.3718 -1.49144 0
8.2326 63.4554 -0.635223 0
8.5203 63.7729 -0.96136 0
7.90005 62.8903 -0.813143 0
7.24843 61.9055 -0.147703 0
7.59791 62.0737 -0.587504 0
7.52456 62.7242 0.257322 0
7.89543 63.1305 -0.203984 0
7.01527 62.3321 0.773999 0
6.43979 61.6626 1.00072 0
6.332 61.0103 1.34945 0
6.89734 61.6297 0.256087 0
6.79517 60.9475 0.505496 0
7.13602 62.3267 -0.0333355 0
6.57911 61.3261 0.747611 0
6.39756 60.4067 1.64305 0
6.94443 60.255 1.50303 0
7.21422 60.6008 1.01809 0
6.69232 59.8369 2.02672 0
7.03653 59.3293 2.38078 0
7.27767 58.6931 2.58965 0
8.93057 59.8236 -0.0385392 0
9.30961 59.2876 0.573166 0
8.3772 60.9234 -0.754317 0
8.53697 60.3235 -0.531918 0
8.7191 59.9314 0.460453 0
8.42752 59.859 0.862197 0
8.8197 59.3065 1.35317 0
8.20866 62.3165 -1.35869 0
8.1097 61.3784 -1.13538 0
8.47208 63.2479 -1.50666 0
7.90981 62.2117 -0.983837 0
7.48094 61.2638 -0.354768 0
8.09047 60.4003 0.469266 0
8.16859 59.7715 1.31875 0
8.06512 60.8914 -0.368487 0
7.79987 60.8356 0.090719 0
7.54249 60.7588 0.57946 0
7.9311 59.6042 1.81166 0
8.21454 58.9892 2.14272 0
7.62659 60.2109 1.48688 0
7.59 59.1596 2.17526 0
7.53639 58.0453 2.87423 0
9.15161 58.3935 1.37671 0
9.37552 58.315 1.05935 0
8.58352 58.3302 2.02548 0
8.87597 58.3975 1.65622 0
8.91984 57.4391 2.10195 0
8.68768 56.4283 2.93248 0
8.94632 56.407 2.69063 0
8.06009 57.786 2.78868 0
8.31039 58.1182 2.41168 0
7.76977 57.3523 3.17284 0
7.92681 56.5918 3.50292 0
8.01825 55.8012 3.88234 0
8.44999 56.3076 3.18628 0
8.56216 55.3682 3.73846 0
8.39445 57.247 2.70631 0
8.22084 56.1051 3.49741 0
8.17705 55.084 4.29927 0
8.62036 54.6242 4.49999 0
8.83007 54.7024 4.30368 0
8.47871 54.5176 4.77145 0
8.77532 53.9996 5.1995 0
9.11182 53.6853 5.54386 0
8.72402 63.8883 25.5509 0
8.05296 64.0475 26.5027 0
10.3086 63.7738 24.5052 0
9.53894 63.8107 25.0142 0
11.3053 64.3883 23.1262 0
10.881 64.1218 23.9214 0
10.0197 63.2545 24.1959 0
9.61843 62.887 23.4732 0
8.87414 63.1321 24.0756 0
7.24032 63.5581 25.5543 0
6.13047 63.4356 25.7815 0
8.35916 63.6396 25.2561 0
8.02069 63.3671 24.6542 0
7.71776 63.0524 24.0104 0
7.4433 62.6161 23.2924 0
6.62424 62.9762 24.0115 0
5.30505 62.5207 23.0587 0
12.1544 64.4729 21.4596 0
11.7202 64.5162 22.363 0
12.4574 64.8195 19.5054 0
12.4568 64.5445 20.4239 0
11.8174 63.7692 20.8956 0
11.3392 63.1536 20.2789 0
11.114 63.0439 21.1441 0
11.9739 65.4268 17.4024 0
12.2663 65.1454 18.4893 0
12.3176 64.8973 15.2497 0
12.0983 65.2196 16.3105 0
11.2727 64.9819 16.8297 0
10.6264 64.4799 16.2284 0
10.6361 64.4637 17.3039 0
11.3186 63.5368 19.2981 0
10.896 62.4476 19.4977 0
11.7655 64.4121 18.9341 0
10.9135 64.0922 18.3088 0
10.1668 63.7716 17.6843 0
10.2202 61.9612 18.8967 0
10.2995 61.5382 19.7298 0
9.38416 63.5736 17.1685 0
9.85422 62.7001 17.9937 0
9.582 61.4262 18.406 0
8.75228 61.1222 17.9806 0
9.0212 60.42 18.7931 0
12.3901 65.1657 13.1528 0
12.3805 64.9777 14.1798 0
12.6895 64.7947 11.4443 0
12.5061 65.0747 12.2603 0
11.7636 64.9934 12.7148 0
11.2043 64.7997 12.3682 0
11.0921 64.3956 13.2802 0
13.2083 65.0211 10.0108 0
12.9225 64.8602 10.6973 0
13.6634 65.7428 8.81709 0
13.4844 65.1452 9.33241 0
12.7424 64.6631 9.70982 0
12.1335 64.5933 9.5764 0
12.0476 64.1496 10.0823 0
11.4409 64.5737 11.5316 0
10.6234 64.6006 12.0542 0
12.2132 64.3233 11.0542 0
11.7744 64.0771 10.7523 0
11.2907 63.8732 10.4989 0
10.0864 64.2258 11.7971 0
9.81971 64.2754 12.5731 0
10.6221 64.124 10.3304 0
10.4056 63.9758 11.0322 0
9.54344 63.9856 11.5498 0
8.94868 63.9487 11.3171 0
8.69493 63.9252 12.0358 0
8.19626 62.1208 17.1809 0
7.86776 60.9078 17.5589 0
9.12074 64.2165 16.3142 0
8.5933 63.2704 16.7591 0
8.02144 62.8335 16.3727 0
7.96788 63.3797 15.5599 0
7.40426 62.4626 15.9073 0
10.7536 64.3719 15.2018 0
9.9065 64.4085 15.7583 0
11.6409 64.5314 14.7286 0
10.9662 64.1999 14.2305 0
10.2899 64.1816 13.8204 0
8.66183 64.0764 14.927 0
8.1802 63.6739 14.5218 0
9.22383 64.4292 15.3223 0
9.38903 64.4322 14.3645 0
9.6159 64.2461 13.435 0
8.39073 63.8142 13.581 0
7.80819 63.1619 14.0227 0
9.07563 64.0414 13.0789 0
8.52002 63.8929 12.7861 0
8.05008 63.5515 12.4767 0
7.15129 60.639 17.1369 0
7.31387 59.9277 18.0209 0
6.96115 61.9903 15.385 0
6.9346 61.4228 16.2895 0
7.24796 62.3031 14.4831 0
7.66643 63.1076 12.1628 0
7.53338 62.9863 12.906 0
6.07038 62.1084 22.4433 0
8.23239 62.2794 22.6907 0
7.18541 62.1265 22.6399 0
6.87157 61.5519 21.9366 0
7.58146 60.9618 21.465 0
6.4972 60.8763 21.3058 0
10.1343 63.174 22.6263 0
9.23002 62.5405 22.725 0
10.9671 63.8266 22.5314 0
10.6667 63.0892 21.8798 0
10.3635 62.3516 21.1998 0
8.58617 61.176 21.5263 0
8.26505 60.4183 20.9259 0
8.92038 61.871 22.1246 0
9.5032 61.7345 21.3492 0
10.0133 61.5443 20.5673 0
8.81632 60.1237 20.1505 0
7.93276 59.6615 20.3057 0
9.66451 60.7072 19.9469 0
9.05241 60.0966 19.5006 0
8.33016 59.618 19.1472 0
5.3515 61.104 20.9555 0
6.06876 60.3772 20.607 0
5.57802 59.8919 20.0293 0
6.77249 59.6863 20.2406 0
6.44977 58.9962 19.5089 0
7.28855 59.2563 19.825 0
7.4495 59.1916 19.3918 0
7.51928 59.3329 18.8092 0
6.62334 59.2083 18.4374 0
14.021 66.4489 7.62338 0
13.857 66.1524 8.27537 0
14.2524 66.8631 6.18222 0
14.1586 66.7052 6.92263 0
13.3663 66.5063 7.30539 0
12.6804 66.3034 7.171 0
12.5608 66.2075 7.90739 0
14.2819 67.1386 4.6302 0
14.2908 66.9949 5.41099 0
14.0659 67.5035 3.12197 0
14.1951 67.3047 3.86834 0
13.4453 67.0073 4.23783 0
12.6728 66.7573 4.03772 0
12.6845 66.7684 4.85783 0
12.7664 66.3923 6.40747 0
12.0076 66.0785 7.03562 0
13.5266 66.7341 5.78831 0
12.7558 66.5813 5.63705 0
11.9423 66.4743 5.5146 0
11.5053 65.5801 6.77667 0
11.4493 65.493 7.51182 0
11.3884 65.9417 5.25902 0
11.5023 65.7431 6.04591 0
11.0089 65.1328 6.541 0
10.566 64.6562 6.2342 0
10.5738 64.5136 6.96323 0
13.3037 68.0238 1.91303 0
13.8097 67.6347 2.44637 0
12.4021 68.3771 0.803183 0
12.8901 68.1726 1.28655 0
12.4828 67.4067 1.39105 0
11.732 66.6261 1.0522 0
12.1535 66.4821 1.70416 0
11.2492 67.8079 -0.484723 0
