#!ascii - generated by CreateLabelFiles project 
10943 21346
2700 2601 2701 0
684 2700 2701 0
2702 2698 685 0
2701 658 2698 0
2701 2698 2702 0
684 2701 2702 0
2704 2702 685 0
2703 684 2702 0
2703 2702 2704 0
175 2703 2704 0
2706 2696 176 0
2705 682 2696 0
2705 2696 2706 0
686 2705 2706 0
2707 2693 682 0
2699 167 2693 0
2699 2693 2707 0
685 2699 2707 0
2708 2705 686 0
2707 682 2705 0
2707 2705 2708 0
685 2707 2708 0
2709 2708 686 0
2704 685 2708 0
2704 2708 2709 0
175 2704 2709 0
2711 2706 176 0
2710 686 2706 0
2710 2706 2711 0
688 2710 2711 0
2713 2709 686 0
2712 175 2709 0
2712 2709 2713 0
687 2712 2713 0
2714 2710 688 0
2713 686 2710 0
2713 2710 2714 0
687 2713 2714 0
2716 2714 688 0
2715 687 2714 0
2715 2714 2716 0
45 2715 2716 0
2718 2689 46 0
2717 680 2689 0
2717 2689 2718 0
690 2717 2718 0
2720 2686 680 0
2719 173 2686 0
2719 2686 2720 0
689 2719 2720 0
2721 2717 690 0
2720 680 2717 0
2720 2717 2721 0
689 2720 2721 0
2723 2721 690 0
2722 689 2721 0
2722 2721 2723 0
177 2722 2723 0
2725 2677 173 0
2724 677 2677 0
2724 2677 2725 0
691 2724 2725 0
2726 2674 677 0
2692 42 2674 0
2692 2674 2726 0
683 2692 2726 0
2727 2724 691 0
2726 677 2724 0
2726 2724 2727 0
683 2726 2727 0
2728 2727 691 0
2697 683 2727 0
2697 2727 2728 0
176 2697 2728 0
2730 2722 177 0
2729 689 2722 0
2729 2722 2730 0
692 2729 2730 0
2731 2719 689 0
2725 173 2719 0
2725 2719 2731 0
691 2725 2731 0
2732 2729 692 0
2731 689 2729 0
2731 2729 2732 0
691 2731 2732 0
2733 2732 692 0
2728 691 2732 0
2728 2732 2733 0
176 2728 2733 0
2735 2730 177 0
2734 692 2730 0
2734 2730 2735 0
693 2734 2735 0
2736 2733 692 0
2711 176 2733 0
2711 2733 2736 0
688 2711 2736 0
2737 2734 693 0
2736 692 2734 0
2736 2734 2737 0
688 2736 2737 0
2738 2737 693 0
2716 688 2737 0
2716 2737 2738 0
45 2716 2738 0
2740 2718 46 0
2739 690 2718 0
2739 2718 2740 0
695 2739 2740 0
2742 2723 690 0
2741 177 2723 0
2741 2723 2742 0
694 2741 2742 0
2743 2739 695 0
2742 690 2739 0
2742 2739 2743 0
694 2742 2743 0
2745 2743 695 0
2744 694 2743 0
2744 2743 2745 0
179 2744 2745 0
2747 2735 177 0
2746 693 2735 0
2746 2735 2747 0
697 2746 2747 0
2749 2738 693 0
2748 45 2738 0
2748 2738 2749 0
696 2748 2749 0
2750 2746 697 0
2749 693 2746 0
2749 2746 2750 0
696 2749 2750 0
2752 2750 697 0
2751 696 2750 0
2751 2750 2752 0
178 2751 2752 0
2754 2744 179 0
2753 694 2744 0
2753 2744 2754 0
698 2753 2754 0
2755 2741 694 0
2747 177 2741 0
2747 2741 2755 0
697 2747 2755 0
2756 2753 698 0
2755 694 2753 0
2755 2753 2756 0
697 2755 2756 0
2757 2756 698 0
2752 697 2756 0
2752 2756 2757 0
178 2752 2757 0
2759 2754 179 0
2758 698 2754 0
2758 2754 2759 0
700 2758 2759 0
2761 2757 698 0
2760 178 2757 0
2760 2757 2761 0
699 2760 2761 0
2762 2758 700 0
2761 698 2758 0
2761 2758 2762 0
699 2761 2762 0
2764 2762 700 0
2763 699 2762 0
2763 2762 2764 0
11 2763 2764 0
2766 2664 12 0
2765 674 2664 0
2765 2664 2766 0
702 2765 2766 0
2768 2661 674 0
2767 172 2661 0
2767 2661 2768 0
701 2767 2768 0
2769 2765 702 0
2768 674 2765 0
2768 2765 2769 0
701 2768 2769 0
2771 2769 702 0
2770 701 2769 0
2770 2769 2771 0
181 2770 2771 0
2773 2654 172 0
2772 671 2654 0
2772 2654 2773 0
704 2772 2773 0
2775 2651 671 0
2774 44 2651 0
2774 2651 2775 0
703 2774 2775 0
2776 2772 704 0
2775 671 2772 0
2775 2772 2776 0
703 2775 2776 0
2778 2776 704 0
2777 703 2776 0
2777 2776 2778 0
180 2777 2778 0
2780 2770 181 0
2779 701 2770 0
2779 2770 2780 0
705 2779 2780 0
2781 2767 701 0
2773 172 2767 0
2773 2767 2781 0
704 2773 2781 0
2782 2779 705 0
2781 701 2779 0
2781 2779 2782 0
704 2781 2782 0
2783 2782 705 0
2778 704 2782 0
2778 2782 2783 0
180 2778 2783 0
2785 2780 181 0
2784 705 2780 0
2784 2780 2785 0
707 2784 2785 0
2787 2783 705 0
2786 180 2783 0
2786 2783 2787 0
706 2786 2787 0
2788 2784 707 0
2787 705 2784 0
2787 2784 2788 0
706 2787 2788 0
2790 2788 707 0
2789 706 2788 0
2789 2788 2790 0
47 2789 2790 0
2792 10436 44 0
2791 10448 10436 0
2791 10436 2792 0
709 2791 2792 0
2793 10449 10448 0
10450 10449 2793 0
708 10450 2793 0
2794 2791 709 0
2793 10448 2791 0
2793 2791 2794 0
708 2793 2794 0
2796 2794 709 0
2795 708 2794 0
2795 2794 2796 0
182 2795 2796 0
710 10451 10452 0
2797 10451 710 0
10453 10451 2797 0
10447 10453 2797 0
2798 2797 710 0
2671 10447 2797 0
2671 2797 2798 0
174 2671 2798 0
2800 2795 182 0
2799 708 2795 0
2799 2795 2800 0
711 2799 2800 0
2801 10450 708 0
10452 10450 2801 0
710 10452 2801 0
2802 2799 711 0
2801 708 2799 0
2801 2799 2802 0
710 2801 2802 0
2803 2802 711 0
2798 710 2802 0
2798 2802 2803 0
174 2798 2803 0
2805 2800 182 0
2804 711 2800 0
2804 2800 2805 0
712 2804 2805 0
2806 2803 711 0
2685 174 2803 0
2685 2803 2806 0
681 2685 2806 0
2807 2804 712 0
2806 711 2804 0
2806 2804 2807 0
681 2806 2807 0
2808 2807 712 0
2690 681 2807 0
2690 2807 2808 0
46 2690 2808 0
2810 2789 47 0
2809 706 2789 0
2809 2789 2810 0
714 2809 2810 0
2812 2786 706 0
2811 180 2786 0
2811 2786 2812 0
713 2811 2812 0
2813 2809 714 0
2812 706 2809 0
2812 2809 2813 0
713 2812 2813 0
2815 2813 714 0
2814 713 2813 0
2814 2813 2815 0
183 2814 2815 0
2817 2777 180 0
2816 703 2777 0
2816 2777 2817 0
715 2816 2817 0
2818 2774 703 0
2792 44 2774 0
2792 2774 2818 0
709 2792 2818 0
2819 2816 715 0
2818 703 2816 0
2818 2816 2819 0
709 2818 2819 0
2820 2819 715 0
2796 709 2819 0
2796 2819 2820 0
182 2796 2820 0
2822 2814 183 0
2821 713 2814 0
2821 2814 2822 0
716 2821 2822 0
2823 2811 713 0
2817 180 2811 0
2817 2811 2823 0
715 2817 2823 0
2824 2821 716 0
2823 713 2821 0
2823 2821 2824 0
715 2823 2824 0
2825 2824 716 0
2820 715 2824 0
2820 2824 2825 0
182 2820 2825 0
2827 2822 183 0
2826 716 2822 0
2826 2822 2827 0
717 2826 2827 0
2828 2825 716 0
2805 182 2825 0
2805 2825 2828 0
712 2805 2828 0
2829 2826 717 0
2828 716 2826 0
2828 2826 2829 0
712 2828 2829 0
2830 2829 717 0
2808 712 2829 0
2808 2829 2830 0
46 2808 2830 0
2832 2810 47 0
2831 714 2810 0
2831 2810 2832 0
719 2831 2832 0
2834 2815 714 0
2833 183 2815 0
2833 2815 2834 0
718 2833 2834 0
2835 2831 719 0
2834 714 2831 0
2834 2831 2835 0
718 2834 2835 0
2837 2835 719 0
2836 718 2835 0
2836 2835 2837 0
184 2836 2837 0
2839 2827 183 0
2838 717 2827 0
2838 2827 2839 0
720 2838 2839 0
2840 2830 717 0
2740 46 2830 0
2740 2830 2840 0
695 2740 2840 0
2841 2838 720 0
2840 717 2838 0
2840 2838 2841 0
695 2840 2841 0
2842 2841 720 0
2745 695 2841 0
2745 2841 2842 0
179 2745 2842 0
2844 2836 184 0
2843 718 2836 0
2843 2836 2844 0
721 2843 2844 0
2845 2833 718 0
2839 183 2833 0
2839 2833 2845 0
720 2839 2845 0
2846 2843 721 0
2845 718 2843 0
2845 2843 2846 0
720 2845 2846 0
2847 2846 721 0
2842 720 2846 0
2842 2846 2847 0
179 2842 2847 0
2849 2844 184 0
2848 721 2844 0
2848 2844 2849 0
722 2848 2849 0
2850 2847 721 0
2759 179 2847 0
2759 2847 2850 0
700 2759 2850 0
2851 2848 722 0
2850 721 2848 0
2850 2848 2851 0
700 2850 2851 0
2852 2851 722 0
2764 700 2851 0
2764 2851 2852 0
11 2764 2852 0
2854 2766 12 0
2853 702 2766 0
2853 2766 2854 0
724 2853 2854 0
2856 2771 702 0
2855 181 2771 0
2855 2771 2856 0
723 2855 2856 0
2857 2853 724 0
2856 702 2853 0
2856 2853 2857 0
723 2856 2857 0
2859 2857 724 0
2858 723 2857 0
2858 2857 2859 0
186 2858 2859 0
2861 2785 181 0
2860 707 2785 0
2860 2785 2861 0
726 2860 2861 0
2863 2790 707 0
2862 47 2790 0
2862 2790 2863 0
725 2862 2863 0
2864 2860 726 0
2863 707 2860 0
2863 2860 2864 0
725 2863 2864 0
2866 2864 726 0
2865 725 2864 0
2865 2864 2866 0
185 2865 2866 0
2868 2858 186 0
2867 723 2858 0
2867 2858 2868 0
727 2867 2868 0
2869 2855 723 0
2861 181 2855 0
2861 2855 2869 0
726 2861 2869 0
2870 2867 727 0
2869 723 2867 0
2869 2867 2870 0
726 2869 2870 0
2871 2870 727 0
2866 726 2870 0
2866 2870 2871 0
185 2866 2871 0
2873 2868 186 0
2872 727 2868 0
2872 2868 2873 0
729 2872 2873 0
2875 2871 727 0
2874 185 2871 0
2874 2871 2875 0
728 2874 2875 0
2876 2872 729 0
2875 727 2872 0
2875 2872 2876 0
728 2875 2876 0
2878 2876 729 0
2877 728 2876 0
2877 2876 2878 0
49 2877 2878 0
2880 2832 47 0
2879 719 2832 0
2879 2832 2880 0
731 2879 2880 0
2882 2837 719 0
2881 184 2837 0
2881 2837 2882 0
730 2881 2882 0
2883 2879 731 0
2882 719 2879 0
2882 2879 2883 0
730 2882 2883 0
2885 2883 731 0
2884 730 2883 0
2884 2883 2885 0
188 2884 2885 0
2887 2849 184 0
2886 722 2849 0
2886 2849 2887 0
733 2886 2887 0
2889 2852 722 0
2888 11 2852 0
2888 2852 2889 0
732 2888 2889 0
2890 2886 733 0
2889 722 2886 0
2889 2886 2890 0
732 2889 2890 0
2892 2890 733 0
2891 732 2890 0
2891 2890 2892 0
187 2891 2892 0
2894 2884 188 0
2893 730 2884 0
2893 2884 2894 0
734 2893 2894 0
2895 2881 730 0
2887 184 2881 0
2887 2881 2895 0
733 2887 2895 0
2896 2893 734 0
2895 730 2893 0
2895 2893 2896 0
733 2895 2896 0
2897 2896 734 0
2892 733 2896 0
2892 2896 2897 0
187 2892 2897 0
2899 2894 188 0
2898 734 2894 0
2898 2894 2899 0
736 2898 2899 0
2901 2897 734 0
2900 187 2897 0
2900 2897 2901 0
735 2900 2901 0
2902 2898 736 0
2901 734 2898 0
2901 2898 2902 0
735 2901 2902 0
2904 2902 736 0
2903 735 2902 0
2903 2902 2904 0
48 2903 2904 0
2906 2877 49 0
2905 728 2877 0
2905 2877 2906 0
738 2905 2906 0
2908 2874 728 0
2907 185 2874 0
2907 2874 2908 0
737 2907 2908 0
2909 2905 738 0
2908 728 2905 0
2908 2905 2909 0
737 2908 2909 0
2911 2909 738 0
2910 737 2909 0
2910 2909 2911 0
189 2910 2911 0
2913 2865 185 0
2912 725 2865 0
2912 2865 2913 0
739 2912 2913 0
2914 2862 725 0
2880 47 2862 0
2880 2862 2914 0
731 2880 2914 0
2915 2912 739 0
2914 725 2912 0
2914 2912 2915 0
731 2914 2915 0
2916 2915 739 0
2885 731 2915 0
2885 2915 2916 0
188 2885 2916 0
2918 2910 189 0
2917 737 2910 0
2917 2910 2918 0
740 2917 2918 0
2919 2907 737 0
2913 185 2907 0
2913 2907 2919 0
739 2913 2919 0
2920 2917 740 0
2919 737 2917 0
2919 2917 2920 0
739 2919 2920 0
2921 2920 740 0
2916 739 2920 0
2916 2920 2921 0
188 2916 2921 0
2923 2918 189 0
2922 740 2918 0
2922 2918 2923 0
741 2922 2923 0
2924 2921 740 0
2899 188 2921 0
2899 2921 2924 0
736 2899 2924 0
2925 2922 741 0
2924 740 2922 0
2924 2922 2925 0
736 2924 2925 0
2926 2925 741 0
2904 736 2925 0
2904 2925 2926 0
48 2904 2926 0
2928 2906 49 0
2927 738 2906 0
2927 2906 2928 0
743 2927 2928 0
2930 2911 738 0
2929 189 2911 0
2929 2911 2930 0
742 2929 2930 0
2931 2927 743 0
2930 738 2927 0
2930 2927 2931 0
742 2930 2931 0
2933 2931 743 0
2932 742 2931 0
2932 2931 2933 0
191 2932 2933 0
2935 2923 189 0
2934 741 2923 0
2934 2923 2935 0
745 2934 2935 0
2937 2926 741 0
2936 48 2926 0
2936 2926 2937 0
744 2936 2937 0
2938 2934 745 0
2937 741 2934 0
2937 2934 2938 0
744 2937 2938 0
2940 2938 745 0
2939 744 2938 0
2939 2938 2940 0
190 2939 2940 0
2942 2932 191 0
2941 742 2932 0
2941 2932 2942 0
746 2941 2942 0
2943 2929 742 0
2935 189 2929 0
2935 2929 2943 0
745 2935 2943 0
2944 2941 746 0
2943 742 2941 0
2943 2941 2944 0
745 2943 2944 0
2945 2944 746 0
2940 745 2944 0
2940 2944 2945 0
190 2940 2945 0
2947 2942 191 0
2946 746 2942 0
2946 2942 2947 0
748 2946 2947 0
2949 2945 746 0
2948 190 2945 0
2948 2945 2949 0
747 2948 2949 0
2950 2946 748 0
2949 746 2946 0
2949 2946 2950 0
747 2949 2950 0
2952 2950 748 0
2951 747 2950 0
2951 2950 2952 0
4 2951 2952 0
2954 2649 5 0
2953 669 2649 0
2953 2649 2954 0
750 2953 2954 0
2956 2646 669 0
2955 171 2646 0
2955 2646 2956 0
749 2955 2956 0
2957 2953 750 0
2956 669 2953 0
2956 2953 2957 0
749 2956 2957 0
2959 2957 750 0
2958 749 2957 0
2958 2957 2959 0
193 2958 2959 0
2961 2643 171 0
2960 10429 2643 0
2960 2643 2961 0
752 2960 2961 0
2963 10428 10429 0
2962 43 10428 0
2962 10428 2963 0
751 2962 2963 0
2964 2960 752 0
2963 10429 2960 0
2963 2960 2964 0
751 2963 2964 0
2966 2964 752 0
2965 751 2964 0
2965 2964 2966 0
192 2965 2966 0
2968 2958 193 0
2967 749 2958 0
2967 2958 2968 0
753 2967 2968 0
2969 2955 749 0
2961 171 2955 0
2961 2955 2969 0
752 2961 2969 0
2970 2967 753 0
2969 749 2967 0
2969 2967 2970 0
752 2969 2970 0
2971 2970 753 0
2966 752 2970 0
2966 2970 2971 0
192 2966 2971 0
2973 2968 193 0
2972 753 2968 0
2972 2968 2973 0
755 2972 2973 0
2975 2971 753 0
2974 192 2971 0
2974 2971 2975 0
754 2974 2975 0
2976 2972 755 0
2975 753 2972 0
2975 2972 2976 0
754 2975 2976 0
2978 2976 755 0
2977 754 2976 0
2977 2976 2978 0
51 2977 2978 0
2980 10425 43 0
2979 10454 10425 0
2979 10425 2980 0
757 2979 2980 0
2981 10455 10454 0
10456 10455 2981 0
756 10456 2981 0
2982 2979 757 0
2981 10454 2979 0
2981 2979 2982 0
756 2981 2982 0
2984 2982 757 0
2983 756 2982 0
2983 2982 2984 0
195 2983 2984 0
2985 10457 10458 0
10459 10457 2985 0
194 10459 2985 0
2987 2983 195 0
2986 756 2983 0
2986 2983 2987 0
758 2986 2987 0
2988 10456 756 0
10460 10456 2988 0
10458 10460 2988 0
2989 2986 758 0
2988 756 2986 0
2988 2986 2989 0
10458 2988 2989 0
2990 2989 758 0
2985 10458 2989 0
2985 2989 2990 0
194 2985 2990 0
2992 2987 195 0
2991 758 2987 0
2991 2987 2992 0
760 2991 2992 0
2994 2990 758 0
2993 194 2990 0
2993 2990 2994 0
759 2993 2994 0
2995 2991 760 0
2994 758 2991 0
2994 2991 2995 0
759 2994 2995 0
2997 2995 760 0
2996 759 2995 0
2996 2995 2997 0
50 2996 2997 0
2999 2977 51 0
2998 754 2977 0
2998 2977 2999 0
762 2998 2999 0
3001 2974 754 0
3000 192 2974 0
3000 2974 3001 0
761 3000 3001 0
3002 2998 762 0
3001 754 2998 0
3001 2998 3002 0
761 3001 3002 0
3004 3002 762 0
3003 761 3002 0
3003 3002 3004 0
196 3003 3004 0
3006 2965 192 0
3005 751 2965 0
3005 2965 3006 0
763 3005 3006 0
3007 2962 751 0
2980 43 2962 0
2980 2962 3007 0
757 2980 3007 0
3008 3005 763 0
3007 751 3005 0
3007 3005 3008 0
757 3007 3008 0
3009 3008 763 0
2984 757 3008 0
2984 3008 3009 0
195 2984 3009 0
3011 3003 196 0
3010 761 3003 0
3010 3003 3011 0
764 3010 3011 0
3012 3000 761 0
3006 192 3000 0
3006 3000 3012 0
763 3006 3012 0
3013 3010 764 0
3012 761 3010 0
3012 3010 3013 0
763 3012 3013 0
3014 3013 764 0
3009 763 3013 0
3009 3013 3014 0
195 3009 3014 0
3016 3011 196 0
3015 764 3011 0
3015 3011 3016 0
765 3015 3016 0
3017 3014 764 0
2992 195 3014 0
2992 3014 3017 0
760 2992 3017 0
3018 3015 765 0
3017 764 3015 0
3017 3015 3018 0
760 3017 3018 0
3019 3018 765 0
2997 760 3018 0
2997 3018 3019 0
50 2997 3019 0
3021 2999 51 0
3020 762 2999 0
3020 2999 3021 0
767 3020 3021 0
3023 3004 762 0
3022 196 3004 0
3022 3004 3023 0
766 3022 3023 0
3024 3020 767 0
3023 762 3020 0
3023 3020 3024 0
766 3023 3024 0
3026 3024 767 0
3025 766 3024 0
3025 3024 3026 0
198 3025 3026 0
3028 3016 196 0
3027 765 3016 0
3027 3016 3028 0
769 3027 3028 0
3030 3019 765 0
3029 50 3019 0
3029 3019 3030 0
768 3029 3030 0
3031 3027 769 0
3030 765 3027 0
3030 3027 3031 0
768 3030 3031 0
3033 3031 769 0
3032 768 3031 0
3032 3031 3033 0
197 3032 3033 0
3035 3025 198 0
3034 766 3025 0
3034 3025 3035 0
770 3034 3035 0
3036 3022 766 0
3028 196 3022 0
3028 3022 3036 0
769 3028 3036 0
3037 3034 770 0
3036 766 3034 0
3036 3034 3037 0
769 3036 3037 0
3038 3037 770 0
3033 769 3037 0
3033 3037 3038 0
197 3033 3038 0
3040 3035 198 0
3039 770 3035 0
3039 3035 3040 0
772 3039 3040 0
3042 3038 770 0
3041 197 3038 0
3041 3038 3042 0
771 3041 3042 0
3043 3039 772 0
3042 770 3039 0
3042 3039 3043 0
771 3042 3043 0
3045 3043 772 0
3044 771 3043 0
3044 3043 3045 0
13 3044 3045 0
773 10461 10462 0
10463 10461 773 0
3047 10463 773 0
3046 10464 10463 0
3046 10463 3047 0
52 3046 3047 0
3048 3046 52 0
10465 10464 3046 0
10465 3046 3048 0
10466 10465 3048 0
3050 3048 52 0
3049 10466 3048 0
3049 3048 3050 0
775 3049 3050 0
774 10467 10468 0
3051 3049 775 0
10468 10466 3049 0
10468 3049 3051 0
774 10468 3051 0
3053 3051 775 0
3052 774 3051 0
3052 3051 3053 0
199 3052 3053 0
3055 3052 199 0
3054 774 3052 0
3054 3052 3055 0
776 3054 3055 0
10469 10467 774 0
3056 3054 776 0
10469 774 3054 0
10469 3054 3056 0
10470 10469 3056 0
3057 3056 776 0
10471 10470 3056 0
10471 3056 3057 0
10443 10471 3057 0
3059 3055 199 0
3058 776 3055 0
3058 3055 3059 0
777 3058 3059 0
3060 3057 776 0
2660 10443 3057 0
2660 3057 3060 0
675 2660 3060 0
3061 3058 777 0
3060 776 3058 0
3060 3058 3061 0
675 3060 3061 0
3062 3061 777 0
2665 675 3061 0
2665 3061 3062 0
12 2665 3062 0
3064 3044 13 0
3063 771 3044 0
3063 3044 3064 0
779 3063 3064 0
3066 3041 771 0
3065 197 3041 0
3065 3041 3066 0
778 3065 3066 0
3067 3063 779 0
3066 771 3063 0
3066 3063 3067 0
778 3066 3067 0
3069 3067 779 0
3068 778 3067 0
3068 3067 3069 0
201 3068 3069 0
3071 3032 197 0
3070 768 3032 0
3070 3032 3071 0
781 3070 3071 0
3073 3029 768 0
3072 50 3029 0
3072 3029 3073 0
780 3072 3073 0
3074 3070 781 0
3073 768 3070 0
3073 3070 3074 0
780 3073 3074 0
3076 3074 781 0
3075 780 3074 0
3075 3074 3076 0
200 3075 3076 0
3078 3068 201 0
3077 778 3068 0
3077 3068 3078 0
782 3077 3078 0
3079 3065 778 0
3071 197 3065 0
3071 3065 3079 0
781 3071 3079 0
3080 3077 782 0
3079 778 3077 0
3079 3077 3080 0
781 3079 3080 0
3081 3080 782 0
3076 781 3080 0
3076 3080 3081 0
200 3076 3081 0
3083 3078 201 0
3082 782 3078 0
3082 3078 3083 0
784 3082 3083 0
3085 3081 782 0
3084 200 3081 0
3084 3081 3085 0
783 3084 3085 0
3086 3082 784 0
3085 782 3082 0
3085 3082 3086 0
783 3085 3086 0
3088 3086 784 0
3087 783 3086 0
3087 3086 3088 0
53 3087 3088 0
3090 2996 50 0
3089 759 2996 0
3089 2996 3090 0
786 3089 3090 0
3092 2993 759 0
3091 194 2993 0
3091 2993 3092 0
785 3091 3092 0
3093 3089 786 0
3092 759 3089 0
3092 3089 3093 0
785 3092 3093 0
3095 3093 786 0
3094 785 3093 0
3094 3093 3095 0
202 3094 3095 0
3096 10459 194 0
10472 10459 3096 0
787 10472 3096 0
10473 10472 787 0
10474 10473 787 0
3098 3094 202 0
3097 785 3094 0
3097 3094 3098 0
788 3097 3098 0
3099 3091 785 0
3096 194 3091 0
3096 3091 3099 0
787 3096 3099 0
3100 3097 788 0
3099 785 3097 0
3099 3097 3100 0
787 3099 3100 0
10475 3100 788 0
10474 787 3100 0
10474 3100 10475 0
3102 3098 202 0
3101 788 3098 0
3101 3098 3102 0
789 3101 3102 0
3103 10475 788 0
10462 10475 3103 0
773 10462 3103 0
3104 3101 789 0
3103 788 3101 0
3103 3101 3104 0
773 3103 3104 0
3105 3104 789 0
3047 773 3104 0
3047 3104 3105 0
52 3047 3105 0
3107 3087 53 0
3106 783 3087 0
3106 3087 3107 0
791 3106 3107 0
3109 3084 783 0
3108 200 3084 0
3108 3084 3109 0
790 3108 3109 0
3110 3106 791 0
3109 783 3106 0
3109 3106 3110 0
790 3109 3110 0
3112 3110 791 0
3111 790 3110 0
3111 3110 3112 0
203 3111 3112 0
3114 3075 200 0
3113 780 3075 0
3113 3075 3114 0
792 3113 3114 0
3115 3072 780 0
3090 50 3072 0
3090 3072 3115 0
786 3090 3115 0
3116 3113 792 0
3115 780 3113 0
3115 3113 3116 0
786 3115 3116 0
3117 3116 792 0
3095 786 3116 0
3095 3116 3117 0
202 3095 3117 0
3119 3111 203 0
3118 790 3111 0
3118 3111 3119 0
793 3118 3119 0
3120 3108 790 0
3114 200 3108 0
3114 3108 3120 0
792 3114 3120 0
3121 3118 793 0
3120 790 3118 0
3120 3118 3121 0
792 3120 3121 0
3122 3121 793 0
3117 792 3121 0
3117 3121 3122 0
202 3117 3122 0
3124 3119 203 0
3123 793 3119 0
3123 3119 3124 0
794 3123 3124 0
3125 3122 793 0
3102 202 3122 0
3102 3122 3125 0
789 3102 3125 0
3126 3123 794 0
3125 793 3123 0
3125 3123 3126 0
789 3125 3126 0
3127 3126 794 0
3105 789 3126 0
3105 3126 3127 0
52 3105 3127 0
3129 3107 53 0
3128 791 3107 0
3128 3107 3129 0
796 3128 3129 0
3131 3112 791 0
3130 203 3112 0
3130 3112 3131 0
795 3130 3131 0
3132 3128 796 0
3131 791 3128 0
3131 3128 3132 0
795 3131 3132 0
3134 3132 796 0
3133 795 3132 0
3133 3132 3134 0
204 3133 3134 0
3136 3124 203 0
3135 794 3124 0
3135 3124 3136 0
797 3135 3136 0
3137 3127 794 0
3050 52 3127 0
3050 3127 3137 0
775 3050 3137 0
3138 3135 797 0
3137 794 3135 0
3137 3135 3138 0
775 3137 3138 0
3139 3138 797 0
3053 775 3138 0
3053 3138 3139 0
199 3053 3139 0
3141 3133 204 0
3140 795 3133 0
3140 3133 3141 0
798 3140 3141 0
3142 3130 795 0
3136 203 3130 0
3136 3130 3142 0
797 3136 3142 0
3143 3140 798 0
3142 795 3140 0
3142 3140 3143 0
797 3142 3143 0
3144 3143 798 0
3139 797 3143 0
3139 3143 3144 0
199 3139 3144 0
3146 3141 204 0
3145 798 3141 0
3145 3141 3146 0
799 3145 3146 0
3147 3144 798 0
3059 199 3144 0
3059 3144 3147 0
777 3059 3147 0
3148 3145 799 0
3147 798 3145 0
3147 3145 3148 0
777 3147 3148 0
3149 3148 799 0
3062 777 3148 0
3062 3148 3149 0
12 3062 3149 0
3151 3064 13 0
3150 779 3064 0
3150 3064 3151 0
801 3150 3151 0
3153 3069 779 0
3152 201 3069 0
3152 3069 3153 0
800 3152 3153 0
3154 3150 801 0
3153 779 3150 0
3153 3150 3154 0
800 3153 3154 0
3156 3154 801 0
3155 800 3154 0
3155 3154 3156 0
206 3155 3156 0
3158 3083 201 0
3157 784 3083 0
3157 3083 3158 0
803 3157 3158 0
3160 3088 784 0
3159 53 3088 0
3159 3088 3160 0
802 3159 3160 0
3161 3157 803 0
3160 784 3157 0
3160 3157 3161 0
802 3160 3161 0
3163 3161 803 0
3162 802 3161 0
3162 3161 3163 0
205 3162 3163 0
3165 3155 206 0
3164 800 3155 0
3164 3155 3165 0
804 3164 3165 0
3166 3152 800 0
3158 201 3152 0
3158 3152 3166 0
803 3158 3166 0
3167 3164 804 0
3166 800 3164 0
3166 3164 3167 0
803 3166 3167 0
3168 3167 804 0
3163 803 3167 0
3163 3167 3168 0
205 3163 3168 0
3170 3165 206 0
3169 804 3165 0
3169 3165 3170 0
806 3169 3170 0
3172 3168 804 0
3171 205 3168 0
3171 3168 3172 0
805 3171 3172 0
3173 3169 806 0
3172 804 3169 0
3172 3169 3173 0
805 3172 3173 0
3175 3173 806 0
3174 805 3173 0
3174 3173 3175 0
54 3174 3175 0
3177 3129 53 0
3176 796 3129 0
3176 3129 3177 0
808 3176 3177 0
3179 3134 796 0
3178 204 3134 0
3178 3134 3179 0
807 3178 3179 0
3180 3176 808 0
3179 796 3176 0
3179 3176 3180 0
807 3179 3180 0
3182 3180 808 0
3181 807 3180 0
3181 3180 3182 0
207 3181 3182 0
3184 3146 204 0
3183 799 3146 0
3183 3146 3184 0
809 3183 3184 0
3185 3149 799 0
2854 12 3149 0
2854 3149 3185 0
724 2854 3185 0
3186 3183 809 0
3185 799 3183 0
3185 3183 3186 0
724 3185 3186 0
3187 3186 809 0
2859 724 3186 0
2859 3186 3187 0
186 2859 3187 0
3189 3181 207 0
3188 807 3181 0
3188 3181 3189 0
810 3188 3189 0
3190 3178 807 0
3184 204 3178 0
3184 3178 3190 0
809 3184 3190 0
3191 3188 810 0
3190 807 3188 0
3190 3188 3191 0
809 3190 3191 0
3192 3191 810 0
3187 809 3191 0
3187 3191 3192 0
186 3187 3192 0
3194 3189 207 0
3193 810 3189 0
3193 3189 3194 0
811 3193 3194 0
3195 3192 810 0
2873 186 3192 0
2873 3192 3195 0
729 2873 3195 0
3196 3193 811 0
3195 810 3193 0
3195 3193 3196 0
729 3195 3196 0
3197 3196 811 0
2878 729 3196 0
2878 3196 3197 0
49 2878 3197 0
3199 3174 54 0
3198 805 3174 0
3198 3174 3199 0
813 3198 3199 0
3201 3171 805 0
3200 205 3171 0
3200 3171 3201 0
812 3200 3201 0
3202 3198 813 0
3201 805 3198 0
3201 3198 3202 0
812 3201 3202 0
3204 3202 813 0
3203 812 3202 0
3203 3202 3204 0
208 3203 3204 0
3206 3162 205 0
3205 802 3162 0
3205 3162 3206 0
814 3205 3206 0
3207 3159 802 0
3177 53 3159 0
3177 3159 3207 0
808 3177 3207 0
3208 3205 814 0
3207 802 3205 0
3207 3205 3208 0
808 3207 3208 0
3209 3208 814 0
3182 808 3208 0
3182 3208 3209 0
207 3182 3209 0
3211 3203 208 0
3210 812 3203 0
3210 3203 3211 0
815 3210 3211 0
3212 3200 812 0
3206 205 3200 0
3206 3200 3212 0
814 3206 3212 0
3213 3210 815 0
3212 812 3210 0
3212 3210 3213 0
814 3212 3213 0
3214 3213 815 0
3209 814 3213 0
3209 3213 3214 0
207 3209 3214 0
3216 3211 208 0
3215 815 3211 0
3215 3211 3216 0
816 3215 3216 0
3217 3214 815 0
3194 207 3214 0
3194 3214 3217 0
811 3194 3217 0
3218 3215 816 0
3217 815 3215 0
3217 3215 3218 0
811 3217 3218 0
3219 3218 816 0
3197 811 3218 0
3197 3218 3219 0
49 3197 3219 0
3221 3199 54 0
3220 813 3199 0
3220 3199 3221 0
818 3220 3221 0
3223 3204 813 0
3222 208 3204 0
3222 3204 3223 0
817 3222 3223 0
3224 3220 818 0
3223 813 3220 0
3223 3220 3224 0
817 3223 3224 0
3226 3224 818 0
3225 817 3224 0
3225 3224 3226 0
209 3225 3226 0
3228 3216 208 0
3227 816 3216 0
3227 3216 3228 0
819 3227 3228 0
3229 3219 816 0
2928 49 3219 0
2928 3219 3229 0
743 2928 3229 0
3230 3227 819 0
3229 816 3227 0
3229 3227 3230 0
743 3229 3230 0
3231 3230 819 0
2933 743 3230 0
2933 3230 3231 0
191 2933 3231 0
3233 3225 209 0
3232 817 3225 0
3232 3225 3233 0
820 3232 3233 0
3234 3222 817 0
3228 208 3222 0
3228 3222 3234 0
819 3228 3234 0
3235 3232 820 0
3234 817 3232 0
3234 3232 3235 0
819 3234 3235 0
3236 3235 820 0
3231 819 3235 0
3231 3235 3236 0
191 3231 3236 0
3238 3233 209 0
3237 820 3233 0
3237 3233 3238 0
821 3237 3238 0
3239 3236 820 0
2947 191 3236 0
2947 3236 3239 0
748 2947 3239 0
3240 3237 821 0
3239 820 3237 0
3239 3237 3240 0
748 3239 3240 0
3241 3240 821 0
2952 748 3240 0
2952 3240 3241 0
4 2952 3241 0
3243 2954 5 0
3242 750 2954 0
3242 2954 3243 0
823 3242 3243 0
3245 2959 750 0
3244 193 2959 0
3244 2959 3245 0
822 3244 3245 0
3246 3242 823 0
3245 750 3242 0
3245 3242 3246 0
822 3245 3246 0
3248 3246 823 0
3247 822 3246 0
3247 3246 3248 0
211 3247 3248 0
3250 2973 193 0
3249 755 2973 0
3249 2973 3250 0
825 3249 3250 0
3252 2978 755 0
3251 51 2978 0
3251 2978 3252 0
824 3251 3252 0
3253 3249 825 0
3252 755 3249 0
3252 3249 3253 0
824 3252 3253 0
3255 3253 825 0
3254 824 3253 0
3254 3253 3255 0
210 3254 3255 0
3257 3247 211 0
3256 822 3247 0
3256 3247 3257 0
826 3256 3257 0
3258 3244 822 0
3250 193 3244 0
3250 3244 3258 0
825 3250 3258 0
3259 3256 826 0
3258 822 3256 0
3258 3256 3259 0
825 3258 3259 0
3260 3259 826 0
3255 825 3259 0
3255 3259 3260 0
210 3255 3260 0
3262 3257 211 0
3261 826 3257 0
3261 3257 3262 0
828 3261 3262 0
3264 3260 826 0
3263 210 3260 0
3263 3260 3264 0
827 3263 3264 0
3265 3261 828 0
3264 826 3261 0
3264 3261 3265 0
827 3264 3265 0
3267 3265 828 0
3266 827 3265 0
3266 3265 3267 0
56 3266 3267 0
3269 3021 51 0
3268 767 3021 0
3268 3021 3269 0
830 3268 3269 0
3271 3026 767 0
3270 198 3026 0
3270 3026 3271 0
829 3270 3271 0
3272 3268 830 0
3271 767 3268 0
3271 3268 3272 0
829 3271 3272 0
3274 3272 830 0
3273 829 3272 0
3273 3272 3274 0
213 3273 3274 0
3276 3040 198 0
3275 772 3040 0
3275 3040 3276 0
832 3275 3276 0
3278 3045 772 0
3277 13 3045 0
3277 3045 3278 0
831 3277 3278 0
3279 3275 832 0
3278 772 3275 0
3278 3275 3279 0
831 3278 3279 0
3281 3279 832 0
3280 831 3279 0
3280 3279 3281 0
212 3280 3281 0
3283 3273 213 0
3282 829 3273 0
3282 3273 3283 0
833 3282 3283 0
3284 3270 829 0
3276 198 3270 0
3276 3270 3284 0
832 3276 3284 0
3285 3282 833 0
3284 829 3282 0
3284 3282 3285 0
832 3284 3285 0
3286 3285 833 0
3281 832 3285 0
3281 3285 3286 0
212 3281 3286 0
3288 3283 213 0
3287 833 3283 0
3287 3283 3288 0
835 3287 3288 0
3290 3286 833 0
3289 212 3286 0
3289 3286 3290 0
834 3289 3290 0
3291 3287 835 0
3290 833 3287 0
3290 3287 3291 0
834 3290 3291 0
3293 3291 835 0
3292 834 3291 0
3292 3291 3293 0
55 3292 3293 0
3295 3266 56 0
3294 827 3266 0
3294 3266 3295 0
837 3294 3295 0
3297 3263 827 0
3296 210 3263 0
3296 3263 3297 0
836 3296 3297 0
3298 3294 837 0
3297 827 3294 0
3297 3294 3298 0
836 3297 3298 0
3300 3298 837 0
3299 836 3298 0
3299 3298 3300 0
214 3299 3300 0
3302 3254 210 0
3301 824 3254 0
3301 3254 3302 0
838 3301 3302 0
3303 3251 824 0
3269 51 3251 0
3269 3251 3303 0
830 3269 3303 0
3304 3301 838 0
3303 824 3301 0
3303 3301 3304 0
830 3303 3304 0
3305 3304 838 0
3274 830 3304 0
3274 3304 3305 0
213 3274 3305 0
3307 3299 214 0
3306 836 3299 0
3306 3299 3307 0
839 3306 3307 0
3308 3296 836 0
3302 210 3296 0
3302 3296 3308 0
838 3302 3308 0
3309 3306 839 0
3308 836 3306 0
3308 3306 3309 0
838 3308 3309 0
3310 3309 839 0
3305 838 3309 0
3305 3309 3310 0
213 3305 3310 0
3312 3307 214 0
3311 839 3307 0
3311 3307 3312 0
840 3311 3312 0
3313 3310 839 0
3288 213 3310 0
3288 3310 3313 0
835 3288 3313 0
3314 3311 840 0
3313 839 3311 0
3313 3311 3314 0
835 3313 3314 0
3315 3314 840 0
3293 835 3314 0
3293 3314 3315 0
55 3293 3315 0
3317 3295 56 0
3316 837 3295 0
3316 3295 3317 0
842 3316 3317 0
3319 3300 837 0
3318 214 3300 0
3318 3300 3319 0
841 3318 3319 0
3320 3316 842 0
3319 837 3316 0
3319 3316 3320 0
841 3319 3320 0
3322 3320 842 0
3321 841 3320 0
3321 3320 3322 0
216 3321 3322 0
3324 3312 214 0
3323 840 3312 0
3323 3312 3324 0
844 3323 3324 0
3326 3315 840 0
3325 55 3315 0
3325 3315 3326 0
843 3325 3326 0
3327 3323 844 0
3326 840 3323 0
3326 3323 3327 0
843 3326 3327 0
3329 3327 844 0
3328 843 3327 0
3328 3327 3329 0
215 3328 3329 0
3331 3321 216 0
3330 841 3321 0
3330 3321 3331 0
845 3330 3331 0
3332 3318 841 0
3324 214 3318 0
3324 3318 3332 0
844 3324 3332 0
3333 3330 845 0
3332 841 3330 0
3332 3330 3333 0
844 3332 3333 0
3334 3333 845 0
3329 844 3333 0
3329 3333 3334 0
215 3329 3334 0
3336 3331 216 0
3335 845 3331 0
3335 3331 3336 0
847 3335 3336 0
3338 3334 845 0
3337 215 3334 0
3337 3334 3338 0
846 3337 3338 0
3339 3335 847 0
3338 845 3335 0
3338 3335 3339 0
846 3338 3339 0
3341 3339 847 0
3340 846 3339 0
3340 3339 3341 0
15 3340 3341 0
3343 3151 13 0
3342 801 3151 0
3342 3151 3343 0
849 3342 3343 0
3345 3156 801 0
3344 206 3156 0
3344 3156 3345 0
848 3344 3345 0
3346 3342 849 0
3345 801 3342 0
3345 3342 3346 0
848 3345 3346 0
3348 3346 849 0
3347 848 3346 0
3347 3346 3348 0
218 3347 3348 0
3350 3170 206 0
3349 806 3170 0
3349 3170 3350 0
851 3349 3350 0
3352 3175 806 0
3351 54 3175 0
3351 3175 3352 0
850 3351 3352 0
3353 3349 851 0
3352 806 3349 0
3352 3349 3353 0
850 3352 3353 0
3355 3353 851 0
3354 850 3353 0
3354 3353 3355 0
217 3354 3355 0
3357 3347 218 0
3356 848 3347 0
3356 3347 3357 0
852 3356 3357 0
3358 3344 848 0
3350 206 3344 0
3350 3344 3358 0
851 3350 3358 0
3359 3356 852 0
3358 848 3356 0
3358 3356 3359 0
851 3358 3359 0
3360 3359 852 0
3355 851 3359 0
3355 3359 3360 0
217 3355 3360 0
3362 3357 218 0
3361 852 3357 0
3361 3357 3362 0
854 3361 3362 0
3364 3360 852 0
3363 217 3360 0
3363 3360 3364 0
853 3363 3364 0
3365 3361 854 0
3364 852 3361 0
3364 3361 3365 0
853 3364 3365 0
3367 3365 854 0
3366 853 3365 0
3366 3365 3367 0
58 3366 3367 0
3369 3221 54 0
3368 818 3221 0
3368 3221 3369 0
856 3368 3369 0
3371 3226 818 0
3370 209 3226 0
3370 3226 3371 0
855 3370 3371 0
3372 3368 856 0
3371 818 3368 0
3371 3368 3372 0
855 3371 3372 0
3374 3372 856 0
3373 855 3372 0
3373 3372 3374 0
220 3373 3374 0
3376 3238 209 0
3375 821 3238 0
3375 3238 3376 0
858 3375 3376 0
3378 3241 821 0
3377 4 3241 0
3377 3241 3378 0
857 3377 3378 0
3379 3375 858 0
3378 821 3375 0
3378 3375 3379 0
857 3378 3379 0
3381 3379 858 0
3380 857 3379 0
3380 3379 3381 0
219 3380 3381 0
3383 3373 220 0
3382 855 3373 0
3382 3373 3383 0
859 3382 3383 0
3384 3370 855 0
3376 209 3370 0
3376 3370 3384 0
858 3376 3384 0
3385 3382 859 0
3384 855 3382 0
3384 3382 3385 0
858 3384 3385 0
3386 3385 859 0
3381 858 3385 0
3381 3385 3386 0
219 3381 3386 0
3388 3383 220 0
3387 859 3383 0
3387 3383 3388 0
861 3387 3388 0
3390 3386 859 0
3389 219 3386 0
3389 3386 3390 0
860 3389 3390 0
3391 3387 861 0
3390 859 3387 0
3390 3387 3391 0
860 3390 3391 0
3393 3391 861 0
3392 860 3391 0
3392 3391 3393 0
57 3392 3393 0
3395 3366 58 0
3394 853 3366 0
3394 3366 3395 0
863 3394 3395 0
3397 3363 853 0
3396 217 3363 0
3396 3363 3397 0
862 3396 3397 0
3398 3394 863 0
3397 853 3394 0
3397 3394 3398 0
862 3397 3398 0
3400 3398 863 0
3399 862 3398 0
3399 3398 3400 0
221 3399 3400 0
3402 3354 217 0
3401 850 3354 0
3401 3354 3402 0
864 3401 3402 0
3403 3351 850 0
3369 54 3351 0
3369 3351 3403 0
856 3369 3403 0
3404 3401 864 0
3403 850 3401 0
3403 3401 3404 0
856 3403 3404 0
3405 3404 864 0
3374 856 3404 0
3374 3404 3405 0
220 3374 3405 0
3407 3399 221 0
3406 862 3399 0
3406 3399 3407 0
865 3406 3407 0
3408 3396 862 0
3402 217 3396 0
3402 3396 3408 0
864 3402 3408 0
3409 3406 865 0
3408 862 3406 0
3408 3406 3409 0
864 3408 3409 0
3410 3409 865 0
3405 864 3409 0
3405 3409 3410 0
220 3405 3410 0
3412 3407 221 0
3411 865 3407 0
3411 3407 3412 0
866 3411 3412 0
3413 3410 865 0
3388 220 3410 0
3388 3410 3413 0
861 3388 3413 0
3414 3411 866 0
3413 865 3411 0
3413 3411 3414 0
861 3413 3414 0
3415 3414 866 0
3393 861 3414 0
3393 3414 3415 0
57 3393 3415 0
3417 3395 58 0
3416 863 3395 0
3416 3395 3417 0
868 3416 3417 0
3419 3400 863 0
3418 221 3400 0
3418 3400 3419 0
867 3418 3419 0
3420 3416 868 0
3419 863 3416 0
3419 3416 3420 0
867 3419 3420 0
3422 3420 868 0
3421 867 3420 0
3421 3420 3422 0
223 3421 3422 0
3424 3412 221 0
3423 866 3412 0
3423 3412 3424 0
870 3423 3424 0
3426 3415 866 0
3425 57 3415 0
3425 3415 3426 0
869 3425 3426 0
3427 3423 870 0
3426 866 3423 0
3426 3423 3427 0
869 3426 3427 0
3429 3427 870 0
3428 869 3427 0
3428 3427 3429 0
222 3428 3429 0
3431 3421 223 0
3430 867 3421 0
3430 3421 3431 0
871 3430 3431 0
3432 3418 867 0
3424 221 3418 0
3424 3418 3432 0
870 3424 3432 0
3433 3430 871 0
3432 867 3430 0
3432 3430 3433 0
870 3432 3433 0
3434 3433 871 0
3429 870 3433 0
3429 3433 3434 0
222 3429 3434 0
3436 3431 223 0
3435 871 3431 0
3435 3431 3436 0
873 3435 3436 0
3438 3434 871 0
3437 222 3434 0
3437 3434 3438 0
872 3437 3438 0
3439 3435 873 0
3438 871 3435 0
3438 3435 3439 0
872 3438 3439 0
3441 3439 873 0
3440 872 3439 0
3440 3439 3441 0
14 3440 3441 0
3443 3340 15 0
3442 846 3340 0
3442 3340 3443 0
875 3442 3443 0
3445 3337 846 0
3444 215 3337 0
3444 3337 3445 0
874 3444 3445 0
3446 3442 875 0
3445 846 3442 0
3445 3442 3446 0
874 3445 3446 0
3448 3446 875 0
3447 874 3446 0
3447 3446 3448 0
225 3447 3448 0
3450 3328 215 0
3449 843 3328 0
3449 3328 3450 0
877 3449 3450 0
3452 3325 843 0
3451 55 3325 0
3451 3325 3452 0
876 3451 3452 0
3453 3449 877 0
3452 843 3449 0
3452 3449 3453 0
876 3452 3453 0
3455 3453 877 0
3454 876 3453 0
3454 3453 3455 0
224 3454 3455 0
3457 3447 225 0
3456 874 3447 0
3456 3447 3457 0
878 3456 3457 0
3458 3444 874 0
3450 215 3444 0
3450 3444 3458 0
877 3450 3458 0
3459 3456 878 0
3458 874 3456 0
3458 3456 3459 0
877 3458 3459 0
3460 3459 878 0
3455 877 3459 0
3455 3459 3460 0
224 3455 3460 0
3462 3457 225 0
3461 878 3457 0
3461 3457 3462 0
880 3461 3462 0
3464 3460 878 0
3463 224 3460 0
3463 3460 3464 0
879 3463 3464 0
3465 3461 880 0
3464 878 3461 0
3464 3461 3465 0
879 3464 3465 0
3467 3465 880 0
3466 879 3465 0
3466 3465 3467 0
59 3466 3467 0
3469 3292 55 0
3468 834 3292 0
3468 3292 3469 0
882 3468 3469 0
3471 3289 834 0
3470 212 3289 0
3470 3289 3471 0
881 3470 3471 0
3472 3468 882 0
3471 834 3468 0
3471 3468 3472 0
881 3471 3472 0
3474 3472 882 0
3473 881 3472 0
3473 3472 3474 0
226 3473 3474 0
3476 3280 212 0
3475 831 3280 0
3475 3280 3476 0
883 3475 3476 0
3477 3277 831 0
3343 13 3277 0
3343 3277 3477 0
849 3343 3477 0
3478 3475 883 0
3477 831 3475 0
3477 3475 3478 0
849 3477 3478 0
3479 3478 883 0
3348 849 3478 0
3348 3478 3479 0
218 3348 3479 0
3481 3473 226 0
3480 881 3473 0
3480 3473 3481 0
884 3480 3481 0
3482 3470 881 0
3476 212 3470 0
3476 3470 3482 0
883 3476 3482 0
3483 3480 884 0
3482 881 3480 0
3482 3480 3483 0
883 3482 3483 0
3484 3483 884 0
3479 883 3483 0
3479 3483 3484 0
218 3479 3484 0
3486 3481 226 0
3485 884 3481 0
3485 3481 3486 0
885 3485 3486 0
3487 3484 884 0
3362 218 3484 0
3362 3484 3487 0
854 3362 3487 0
3488 3485 885 0
3487 884 3485 0
3487 3485 3488 0
854 3487 3488 0
3489 3488 885 0
3367 854 3488 0
3367 3488 3489 0
58 3367 3489 0
3491 3466 59 0
3490 879 3466 0
3490 3466 3491 0
887 3490 3491 0
3493 3463 879 0
3492 224 3463 0
3492 3463 3493 0
886 3492 3493 0
3494 3490 887 0
3493 879 3490 0
3493 3490 3494 0
886 3493 3494 0
3496 3494 887 0
3495 886 3494 0
3495 3494 3496 0
227 3495 3496 0
3498 3454 224 0
3497 876 3454 0
3497 3454 3498 0
888 3497 3498 0
3499 3451 876 0
3469 55 3451 0
3469 3451 3499 0
882 3469 3499 0
3500 3497 888 0
3499 876 3497 0
3499 3497 3500 0
882 3499 3500 0
3501 3500 888 0
3474 882 3500 0
3474 3500 3501 0
226 3474 3501 0
3503 3495 227 0
3502 886 3495 0
3502 3495 3503 0
889 3502 3503 0
3504 3492 886 0
3498 224 3492 0
3498 3492 3504 0
888 3498 3504 0
3505 3502 889 0
3504 886 3502 0
3504 3502 3505 0
888 3504 3505 0
3506 3505 889 0
3501 888 3505 0
3501 3505 3506 0
226 3501 3506 0
3508 3503 227 0
3507 889 3503 0
3507 3503 3508 0
890 3507 3508 0
3509 3506 889 0
3486 226 3506 0
3486 3506 3509 0
885 3486 3509 0
3510 3507 890 0
3509 889 3507 0
3509 3507 3510 0
885 3509 3510 0
3511 3510 890 0
3489 885 3510 0
3489 3510 3511 0
58 3489 3511 0
3513 3491 59 0
3512 887 3491 0
3512 3491 3513 0
892 3512 3513 0
3515 3496 887 0
3514 227 3496 0
3514 3496 3515 0
891 3514 3515 0
3516 3512 892 0
3515 887 3512 0
3515 3512 3516 0
891 3515 3516 0
3518 3516 892 0
3517 891 3516 0
3517 3516 3518 0
228 3517 3518 0
3520 3508 227 0
3519 890 3508 0
3519 3508 3520 0
893 3519 3520 0
3521 3511 890 0
3417 58 3511 0
3417 3511 3521 0
868 3417 3521 0
3522 3519 893 0
3521 890 3519 0
3521 3519 3522 0
868 3521 3522 0
3523 3522 893 0
3422 868 3522 0
3422 3522 3523 0
223 3422 3523 0
3525 3517 228 0
3524 891 3517 0
3524 3517 3525 0
894 3524 3525 0
3526 3514 891 0
3520 227 3514 0
3520 3514 3526 0
893 3520 3526 0
3527 3524 894 0
3526 891 3524 0
3526 3524 3527 0
893 3526 3527 0
3528 3527 894 0
3523 893 3527 0
3523 3527 3528 0
223 3523 3528 0
3530 3525 228 0
3529 894 3525 0
3529 3525 3530 0
895 3529 3530 0
3531 3528 894 0
3436 223 3528 0
3436 3528 3531 0
873 3436 3531 0
3532 3529 895 0
3531 894 3529 0
3531 3529 3532 0
873 3531 3532 0
3533 3532 895 0
3441 873 3532 0
3441 3532 3533 0
14 3441 3533 0
3535 3443 15 0
3534 875 3443 0
3534 3443 3535 0
897 3534 3535 0
3537 3448 875 0
3536 225 3448 0
3536 3448 3537 0
896 3536 3537 0
3538 3534 897 0
3537 875 3534 0
3537 3534 3538 0
896 3537 3538 0
3540 3538 897 0
3539 896 3538 0
3539 3538 3540 0
230 3539 3540 0
3542 3462 225 0
3541 880 3462 0
3541 3462 3542 0
899 3541 3542 0
3544 3467 880 0
3543 59 3467 0
3543 3467 3544 0
898 3543 3544 0
3545 3541 899 0
3544 880 3541 0
3544 3541 3545 0
898 3544 3545 0
3547 3545 899 0
3546 898 3545 0
3546 3545 3547 0
229 3546 3547 0
3549 3539 230 0
3548 896 3539 0
3548 3539 3549 0
900 3548 3549 0
3550 3536 896 0
3542 225 3536 0
3542 3536 3550 0
899 3542 3550 0
3551 3548 900 0
3550 896 3548 0
3550 3548 3551 0
899 3550 3551 0
3552 3551 900 0
3547 899 3551 0
3547 3551 3552 0
229 3547 3552 0
3554 3549 230 0
3553 900 3549 0
3553 3549 3554 0
902 3553 3554 0
3556 3552 900 0
3555 229 3552 0
3555 3552 3556 0
901 3555 3556 0
3557 3553 902 0
3556 900 3553 0
3556 3553 3557 0
901 3556 3557 0
3559 3557 902 0
3558 901 3557 0
3558 3557 3559 0
61 3558 3559 0
3561 3513 59 0
3560 892 3513 0
3560 3513 3561 0
904 3560 3561 0
3563 3518 892 0
3562 228 3518 0
3562 3518 3563 0
903 3562 3563 0
3564 3560 904 0
3563 892 3560 0
3563 3560 3564 0
903 3563 3564 0
3566 3564 904 0
3565 903 3564 0
3565 3564 3566 0
232 3565 3566 0
3568 3530 228 0
3567 895 3530 0
3567 3530 3568 0
906 3567 3568 0
3570 3533 895 0
3569 14 3533 0
3569 3533 3570 0
905 3569 3570 0
3571 3567 906 0
3570 895 3567 0
3570 3567 3571 0
905 3570 3571 0
3573 3571 906 0
3572 905 3571 0
3572 3571 3573 0
231 3572 3573 0
3575 3565 232 0
3574 903 3565 0
3574 3565 3575 0
907 3574 3575 0
3576 3562 903 0
3568 228 3562 0
3568 3562 3576 0
906 3568 3576 0
3577 3574 907 0
3576 903 3574 0
3576 3574 3577 0
906 3576 3577 0
3578 3577 907 0
3573 906 3577 0
3573 3577 3578 0
231 3573 3578 0
3580 3575 232 0
3579 907 3575 0
3579 3575 3580 0
909 3579 3580 0
3582 3578 907 0
3581 231 3578 0
3581 3578 3582 0
908 3581 3582 0
3583 3579 909 0
3582 907 3579 0
3582 3579 3583 0
908 3582 3583 0
3585 3583 909 0
3584 908 3583 0
3584 3583 3585 0
60 3584 3585 0
3587 3558 61 0
3586 901 3558 0
3586 3558 3587 0
911 3586 3587 0
3589 3555 901 0
3588 229 3555 0
3588 3555 3589 0
910 3588 3589 0
3590 3586 911 0
3589 901 3586 0
3589 3586 3590 0
910 3589 3590 0
3592 3590 911 0
3591 910 3590 0
3591 3590 3592 0
233 3591 3592 0
3594 3546 229 0
3593 898 3546 0
3593 3546 3594 0
912 3593 3594 0
3595 3543 898 0
3561 59 3543 0
3561 3543 3595 0
904 3561 3595 0
3596 3593 912 0
3595 898 3593 0
3595 3593 3596 0
904 3595 3596 0
3597 3596 912 0
3566 904 3596 0
3566 3596 3597 0
232 3566 3597 0
3599 3591 233 0
3598 910 3591 0
3598 3591 3599 0
913 3598 3599 0
3600 3588 910 0
3594 229 3588 0
3594 3588 3600 0
912 3594 3600 0
3601 3598 913 0
3600 910 3598 0
3600 3598 3601 0
912 3600 3601 0
3602 3601 913 0
3597 912 3601 0
3597 3601 3602 0
232 3597 3602 0
3604 3599 233 0
3603 913 3599 0
3603 3599 3604 0
914 3603 3604 0
3605 3602 913 0
3580 232 3602 0
3580 3602 3605 0
909 3580 3605 0
3606 3603 914 0
3605 913 3603 0
3605 3603 3606 0
909 3605 3606 0
3607 3606 914 0
3585 909 3606 0
3585 3606 3607 0
60 3585 3607 0
3609 3587 61 0
3608 911 3587 0
3608 3587 3609 0
916 3608 3609 0
3611 3592 911 0
3610 233 3592 0
3610 3592 3611 0
915 3610 3611 0
3612 3608 916 0
3611 911 3608 0
3611 3608 3612 0
915 3611 3612 0
3614 3612 916 0
3613 915 3612 0
3613 3612 3614 0
235 3613 3614 0
3616 3604 233 0
3615 914 3604 0
3615 3604 3616 0
918 3615 3616 0
3618 3607 914 0
3617 60 3607 0
3617 3607 3618 0
917 3617 3618 0
3619 3615 918 0
3618 914 3615 0
3618 3615 3619 0
917 3618 3619 0
3621 3619 918 0
3620 917 3619 0
3620 3619 3621 0
234 3620 3621 0
3623 3613 235 0
3622 915 3613 0
3622 3613 3623 0
919 3622 3623 0
3624 3610 915 0
3616 233 3610 0
3616 3610 3624 0
918 3616 3624 0
3625 3622 919 0
3624 915 3622 0
3624 3622 3625 0
918 3624 3625 0
3626 3625 919 0
3621 918 3625 0
3621 3625 3626 0
234 3621 3626 0
3628 3623 235 0
3627 919 3623 0
3627 3623 3628 0
921 3627 3628 0
3630 3626 919 0
3629 234 3626 0
3629 3626 3630 0
920 3629 3630 0
3631 3627 921 0
3630 919 3627 0
3630 3627 3631 0
920 3630 3631 0
3633 3631 921 0
3632 920 3631 0
3632 3631 3633 0
2 3632 3633 0
3634 2599 1 0
10476 10400 2599 0
10476 2599 3634 0
10477 10476 3634 0
3636 10478 10477 0
3635 10479 10478 0
3635 10478 3636 0
236 3635 3636 0
3637 3635 236 0
10480 10479 3635 0
10480 3635 3637 0
10481 10480 3637 0
3639 3637 236 0
3638 10481 3637 0
3638 3637 3639 0
922 3638 3639 0
3640 3638 922 0
10482 10481 3638 0
10482 3638 3640 0
10483 10482 3640 0
3642 3640 922 0
3641 10483 3640 0
3641 3640 3642 0
62 3641 3642 0
3643 3641 62 0
10484 10483 3641 0
10484 3641 3643 0
10485 10484 3643 0
3644 3643 62 0
10486 10485 3643 0
10486 3643 3644 0
10487 10486 3644 0
3646 3632 2 0
3645 920 3632 0
3645 3632 3646 0
924 3645 3646 0
3648 3629 920 0
3647 234 3629 0
3647 3629 3648 0
923 3647 3648 0
3649 3645 924 0
3648 920 3645 0
3648 3645 3649 0
923 3648 3649 0
3651 3649 924 0
3650 923 3649 0
3650 3649 3651 0
238 3650 3651 0
3653 3620 234 0
3652 917 3620 0
3652 3620 3653 0
926 3652 3653 0
3655 3617 917 0
3654 60 3617 0
3654 3617 3655 0
925 3654 3655 0
3656 3652 926 0
3655 917 3652 0
3655 3652 3656 0
925 3655 3656 0
3658 3656 926 0
3657 925 3656 0
3657 3656 3658 0
237 3657 3658 0
3660 3650 238 0
3659 923 3650 0
3659 3650 3660 0
927 3659 3660 0
3661 3647 923 0
3653 234 3647 0
3653 3647 3661 0
926 3653 3661 0
3662 3659 927 0
3661 923 3659 0
3661 3659 3662 0
926 3661 3662 0
3663 3662 927 0
3658 926 3662 0
3658 3662 3663 0
237 3658 3663 0
3665 3660 238 0
3664 927 3660 0
3664 3660 3665 0
929 3664 3665 0
3667 3663 927 0
3666 237 3663 0
3666 3663 3667 0
928 3666 3667 0
3668 3664 929 0
3667 927 3664 0
3667 3664 3668 0
928 3667 3668 0
3670 3668 929 0
3669 928 3668 0
3669 3668 3670 0
64 3669 3670 0
3672 3584 60 0
3671 908 3584 0
3671 3584 3672 0
931 3671 3672 0
3674 3581 908 0
3673 231 3581 0
3673 3581 3674 0
930 3673 3674 0
3675 3671 931 0
3674 908 3671 0
3674 3671 3675 0
930 3674 3675 0
3677 3675 931 0
3676 930 3675 0
3676 3675 3677 0
240 3676 3677 0
3679 3572 231 0
3678 905 3572 0
3678 3572 3679 0
933 3678 3679 0
3681 3569 905 0
3680 14 3569 0
3680 3569 3681 0
932 3680 3681 0
3682 3678 933 0
3681 905 3678 0
3681 3678 3682 0
932 3681 3682 0
3684 3682 933 0
3683 932 3682 0
3683 3682 3684 0
239 3683 3684 0
3686 3676 240 0
3685 930 3676 0
3685 3676 3686 0
934 3685 3686 0
3687 3673 930 0
3679 231 3673 0
3679 3673 3687 0
933 3679 3687 0
3688 3685 934 0
3687 930 3685 0
3687 3685 3688 0
933 3687 3688 0
3689 3688 934 0
3684 933 3688 0
3684 3688 3689 0
239 3684 3689 0
3691 3686 240 0
3690 934 3686 0
3690 3686 3691 0
936 3690 3691 0
3693 3689 934 0
3692 239 3689 0
3692 3689 3693 0
935 3692 3693 0
3694 3690 936 0
3693 934 3690 0
3693 3690 3694 0
935 3693 3694 0
3696 3694 936 0
3695 935 3694 0
3695 3694 3696 0
63 3695 3696 0
3698 3669 64 0
3697 928 3669 0
3697 3669 3698 0
938 3697 3698 0
3700 3666 928 0
3699 237 3666 0
3699 3666 3700 0
937 3699 3700 0
3701 3697 938 0
3700 928 3697 0
3700 3697 3701 0
937 3700 3701 0
3703 3701 938 0
3702 937 3701 0
3702 3701 3703 0
241 3702 3703 0
3705 3657 237 0
3704 925 3657 0
3704 3657 3705 0
939 3704 3705 0
3706 3654 925 0
3672 60 3654 0
3672 3654 3706 0
931 3672 3706 0
3707 3704 939 0
3706 925 3704 0
3706 3704 3707 0
931 3706 3707 0
3708 3707 939 0
3677 931 3707 0
3677 3707 3708 0
240 3677 3708 0
3710 3702 241 0
3709 937 3702 0
3709 3702 3710 0
940 3709 3710 0
3711 3699 937 0
3705 237 3699 0
3705 3699 3711 0
939 3705 3711 0
3712 3709 940 0
3711 937 3709 0
3711 3709 3712 0
939 3711 3712 0
3713 3712 940 0
3708 939 3712 0
3708 3712 3713 0
240 3708 3713 0
3715 3710 241 0
3714 940 3710 0
3714 3710 3715 0
941 3714 3715 0
3716 3713 940 0
3691 240 3713 0
3691 3713 3716 0
936 3691 3716 0
3717 3714 941 0
3716 940 3714 0
3716 3714 3717 0
936 3716 3717 0
3718 3717 941 0
3696 936 3717 0
3696 3717 3718 0
63 3696 3718 0
3720 3698 64 0
3719 938 3698 0
3719 3698 3720 0
943 3719 3720 0
3722 3703 938 0
3721 241 3703 0
3721 3703 3722 0
942 3721 3722 0
3723 3719 943 0
3722 938 3719 0
3722 3719 3723 0
942 3722 3723 0
3725 3723 943 0
3724 942 3723 0
3724 3723 3725 0
243 3724 3725 0
3727 3715 241 0
3726 941 3715 0
3726 3715 3727 0
945 3726 3727 0
3729 3718 941 0
3728 63 3718 0
3728 3718 3729 0
944 3728 3729 0
3730 3726 945 0
3729 941 3726 0
3729 3726 3730 0
944 3729 3730 0
3732 3730 945 0
3731 944 3730 0
3731 3730 3732 0
242 3731 3732 0
3734 3724 243 0
3733 942 3724 0
3733 3724 3734 0
946 3733 3734 0
3735 3721 942 0
3727 241 3721 0
3727 3721 3735 0
945 3727 3735 0
3736 3733 946 0
3735 942 3733 0
3735 3733 3736 0
945 3735 3736 0
3737 3736 946 0
3732 945 3736 0
3732 3736 3737 0
242 3732 3737 0
3739 3734 243 0
3738 946 3734 0
3738 3734 3739 0
948 3738 3739 0
3741 3737 946 0
3740 242 3737 0
3740 3737 3741 0
947 3740 3741 0
3742 3738 948 0
3741 946 3738 0
3741 3738 3742 0
947 3741 3742 0
3744 3742 948 0
3743 947 3742 0
3743 3742 3744 0
16 3743 3744 0
3746 3440 14 0
3745 872 3440 0
3745 3440 3746 0
950 3745 3746 0
3748 3437 872 0
3747 222 3437 0
3747 3437 3748 0
949 3747 3748 0
3749 3745 950 0
3748 872 3745 0
3748 3745 3749 0
949 3748 3749 0
3751 3749 950 0
3750 949 3749 0
3750 3749 3751 0
245 3750 3751 0
3753 3428 222 0
3752 869 3428 0
3752 3428 3753 0
952 3752 3753 0
3755 3425 869 0
3754 57 3425 0
3754 3425 3755 0
951 3754 3755 0
3756 3752 952 0
3755 869 3752 0
3755 3752 3756 0
951 3755 3756 0
3758 3756 952 0
3757 951 3756 0
3757 3756 3758 0
244 3757 3758 0
3760 3750 245 0
3759 949 3750 0
3759 3750 3760 0
953 3759 3760 0
3761 3747 949 0
3753 222 3747 0
3753 3747 3761 0
952 3753 3761 0
3762 3759 953 0
3761 949 3759 0
3761 3759 3762 0
952 3761 3762 0
3763 3762 953 0
3758 952 3762 0
3758 3762 3763 0
244 3758 3763 0
3765 3760 245 0
3764 953 3760 0
3764 3760 3765 0
955 3764 3765 0
3767 3763 953 0
3766 244 3763 0
3766 3763 3767 0
954 3766 3767 0
3768 3764 955 0
3767 953 3764 0
3767 3764 3768 0
954 3767 3768 0
3770 3768 955 0
3769 954 3768 0
3769 3768 3770 0
66 3769 3770 0
3772 3392 57 0
3771 860 3392 0
3771 3392 3772 0
957 3771 3772 0
3774 3389 860 0
3773 219 3389 0
3773 3389 3774 0
956 3773 3774 0
3775 3771 957 0
3774 860 3771 0
3774 3771 3775 0
956 3774 3775 0
3777 3775 957 0
3776 956 3775 0
3776 3775 3777 0
247 3776 3777 0
3779 3380 219 0
3778 857 3380 0
3778 3380 3779 0
959 3778 3779 0
3781 3377 857 0
3780 4 3377 0
3780 3377 3781 0
958 3780 3781 0
3782 3778 959 0
3781 857 3778 0
3781 3778 3782 0
958 3781 3782 0
3784 3782 959 0
3783 958 3782 0
3783 3782 3784 0
246 3783 3784 0
3786 3776 247 0
3785 956 3776 0
3785 3776 3786 0
960 3785 3786 0
3787 3773 956 0
3779 219 3773 0
3779 3773 3787 0
959 3779 3787 0
3788 3785 960 0
3787 956 3785 0
3787 3785 3788 0
959 3787 3788 0
3789 3788 960 0
3784 959 3788 0
3784 3788 3789 0
246 3784 3789 0
3791 3786 247 0
3790 960 3786 0
3790 3786 3791 0
962 3790 3791 0
3793 3789 960 0
3792 246 3789 0
3792 3789 3793 0
961 3792 3793 0
3794 3790 962 0
3793 960 3790 0
3793 3790 3794 0
961 3793 3794 0
3796 3794 962 0
3795 961 3794 0
3795 3794 3796 0
65 3795 3796 0
3798 3769 66 0
3797 954 3769 0
3797 3769 3798 0
964 3797 3798 0
3800 3766 954 0
3799 244 3766 0
3799 3766 3800 0
963 3799 3800 0
3801 3797 964 0
3800 954 3797 0
3800 3797 3801 0
963 3800 3801 0
3803 3801 964 0
3802 963 3801 0
3802 3801 3803 0
248 3802 3803 0
3805 3757 244 0
3804 951 3757 0
3804 3757 3805 0
965 3804 3805 0
3806 3754 951 0
3772 57 3754 0
3772 3754 3806 0
957 3772 3806 0
3807 3804 965 0
3806 951 3804 0
3806 3804 3807 0
957 3806 3807 0
3808 3807 965 0
3777 957 3807 0
3777 3807 3808 0
247 3777 3808 0
3810 3802 248 0
3809 963 3802 0
3809 3802 3810 0
966 3809 3810 0
3811 3799 963 0
3805 244 3799 0
3805 3799 3811 0
965 3805 3811 0
3812 3809 966 0
3811 963 3809 0
3811 3809 3812 0
965 3811 3812 0
