#!ascii - generated by CreateLabelFiles project 
2876 5439
-9.7101 32.3289 -30.6457 0
-10.8301 32.5567 -29.5089 0
-10.4235 32.4474 -29.9351 0
-9.71343 32.0376 -30.3002 0
-9.45585 31.7643 -30.2262 0
-9.22387 31.7266 -30.5162 0
-11.5895 32.6485 -28.7123 0
-11.1511 32.6303 -29.0885 0
-12.1923 32.6778 -28.0053 0
-11.9085 32.6504 -28.3591 0
-11.4836 32.3731 -28.7503 0
-11.3963 32.1169 -28.7266 0
-10.8744 32.0669 -29.0963 0
-9.78875 31.8737 -29.8749 0
-9.25284 31.5667 -30.0813 0
-10.5099 32.2635 -29.5343 0
-10.3121 31.9903 -29.4804 0
-10.1832 31.7287 -29.4061 0
-9.14628 31.4375 -29.8708 0
-8.89408 31.4269 -30.1304 0
-10.0973 31.4988 -29.2843 0
-9.5558 31.4138 -29.6277 0
-9.14645 31.23 -29.708 0
-9.15048 31.0194 -29.5409 0
-8.81205 31.1028 -29.7372 0
-6.89165 31.98 -30.9129 0
-6.45936 32.1228 -30.6917 0
-7.92345 31.8941 -31.0182 0
-7.40755 31.8746 -31.0104 0
-7.16387 31.8136 -30.7288 0
-7.46733 31.7626 -30.4679 0
-6.98697 31.5667 -30.4967 0
-8.80606 32.0537 -30.9006 0
-8.38691 31.9478 -30.9933 0
-9.20755 32.1475 -30.8105 0
-9.02075 31.849 -30.7229 0
-8.84359 31.5722 -30.6173 0
-7.97035 31.7232 -30.5046 0
-7.7932 31.6091 -30.262 0
-8.17901 31.8065 -30.7705 0
-8.43349 31.6405 -30.5621 0
-8.69236 31.4396 -30.3887 0
-8.13814 31.3767 -30.1047 0
-7.65949 31.2206 -30.148 0
-8.56938 31.2987 -30.1691 0
-8.47372 31.187 -29.9393 0
-8.45461 30.9873 -29.7343 0
-6.24578 31.8954 -30.4278 0
-6.00262 32.3325 -30.4315 0
-6.80881 31.2641 -30.3072 0
-6.49291 31.4648 -30.4446 0
-6.08646 31.6379 -30.1598 0
-5.97183 31.3976 -29.8635 0
-5.68795 31.8231 -29.8308 0
-7.54826 30.8658 -30.0186 0
-7.13528 31.0484 -30.1887 0
-8.4355 30.7837 -29.5266 0
-8.02731 30.8467 -29.7514 0
-7.51058 30.6647 -29.7946 0
-7.5686 30.4719 -29.49 0
-7.0426 30.4788 -29.7605 0
-6.3434 31.0288 -29.8713 0
-5.95009 31.1929 -29.5476 0
-6.69201 30.9476 -30.1142 0
-6.68083 30.7607 -29.8027 0
-6.69627 30.5205 -29.5309 0
-5.93051 30.9494 -29.2293 0
-5.51772 31.3037 -29.2266 0
-6.71847 30.3097 -29.2058 0
-6.34419 30.6347 -29.218 0
-5.94603 30.7481 -28.8801 0
-5.92097 30.4478 -28.5986 0
-5.4388 30.7158 -28.6399 0
-1.96363 36.8588 -30.4358 0
-3.57527 35.8763 -31.1702 0
-2.84618 36.452 -30.6749 0
-2.29071 36.3312 -30.1184 0
-2.5708 35.5916 -30.0558 0
-1.75357 35.9147 -29.7477 0
-1.5604 34.7346 -29.3972 0
-4.72459 34.8555 -31.8921 0
-4.18637 35.3515 -31.5492 0
-5.70006 33.9609 -32.4642 0
-5.20838 34.3578 -32.2009 0
-4.84257 34.2694 -31.7666 0
-4.98012 33.6886 -31.6942 0
-4.47765 34.1382 -31.3517 0
-7.17754 33.9301 -32.5092 0
-6.44311 33.904 -32.5059 0
-7.75448 33.8935 -32.4987 0
-7.33385 33.5733 -32.3638 0
-6.89697 33.3121 -32.1186 0
-5.56282 33.4145 -31.916 0
-5.25019 33.2978 -31.5614 0
-5.9337 33.6449 -32.2453 0
-6.22315 33.3841 -32.014 0
-6.59286 33.1461 -31.8621 0
-5.73151 33.2576 -31.3286 0
-4.9848 33.1714 -31.1723 0
-6.3781 33.1312 -31.5072 0
-6.12912 33.062 -31.1565 0
-5.95085 32.952 -30.7811 0
-2.46249 34.5607 -29.672 0
-2.10291 34.2628 -29.28 0
-2.65834 33.7771 -29.2366 0
-3.35159 33.4211 -29.6338 0
-3.23207 33.314 -29.1775 0
-3.29615 35.0976 -30.548 0
-2.87666 34.9038 -30.0531 0
-3.72734 35.2519 -31.0614 0
-3.91636 34.632 -30.9945 0
-4.10911 33.9905 -30.9371 0
-3.53588 33.5846 -30.0606 0
-3.94321 33.0931 -30.0581 0
-3.19917 34.2416 -30.0596 0
-3.81937 33.7946 -30.5008 0
-4.39061 33.4727 -30.8744 0
-4.55901 32.8822 -30.3996 0
-4.39851 32.7158 -30.0154 0
-4.73636 33.053 -30.7827 0
-5.3101 33.0179 -30.5622 0
-5.75767 32.8136 -30.4296 0
-3.6565 32.772 -29.2904 0
-2.95667 32.9306 -28.9356 0
-3.10615 31.9227 -28.9112 0
-4.94907 32.549 -29.8706 0
-4.198 32.4749 -29.7121 0
-5.5574 32.5358 -30.1121 0
-5.37519 32.2482 -29.7981 0
-5.19841 31.9395 -29.5366 0
-3.81827 31.8889 -29.1755 0
-3.66029 31.5184 -28.923 0
-4.00711 32.2277 -29.4323 0
-4.55672 31.9264 -29.354 0
-4.99718 31.5575 -29.3321 0
-4.23806 31.1528 -28.8702 0
-4.94841 31.2951 -29.008 0
-4.8492 30.9106 -28.7597 0
-4.77161 30.5224 -28.5148 0
-4.75861 30.2094 -28.2 0
-4.48572 42.6294 -38.7851 0
-4.75751 42.6531 -37.1356 0
-4.77599 42.5284 -37.964 0
-5.50242 43.1147 -35.8699 0
-5.06409 42.9755 -36.5269 0
-6.85724 43.2069 -34.8632 0
-6.21685 43.015 -35.1991 0
-5.61697 42.6576 -35.6683 0
-5.63034 42.1933 -35.3393 0
-4.93791 42.3342 -36.0586 0
-8.13621 43.47 -34.5712 0
-7.51128 43.3936 -34.7387 0
-8.71259 43.5 -34.6084 0
-8.34637 42.8788 -34.6322 0
-7.86392 42.2188 -34.3359 0
-6.40071 42.0701 -34.8577 0
-5.64331 41.7403 -35.1596 0
-7.00869 42.677 -34.8413 0
-7.10787 42.1463 -34.645 0
-7.20975 41.502 -34.3624 0
-5.67538 41.2256 -34.972 0
-4.93927 41.4086 -35.4922 0
-6.47682 40.978 -34.5284 0
-5.70148 40.6684 -34.7603 0
-4.94403 40.4061 -35.1932 0
-4.21589 40.5241 -35.8691 0
-3.94316 40.3568 -35.4941 0
-2.41601 40.8028 -35.2843 0
-12.5031 32.7297 -27.6511 0
-12.1596 32.5014 -27.931 0
-12.6324 32.3994 -27.3578 0
-12.1359 32.113 -27.6696 0
-12.1508 32.3196 -27.8197 0
-11.7761 32.206 -28.2881 0
-11.2623 31.8534 -28.6362 0
-12.7684 31.9968 -26.97 0
-12.164 31.685 -27.3109 0
-12.146 31.9126 -27.4961 0
-12.8669 31.4646 -26.6138 0
-12.1951 31.1752 -26.9329 0
-12.1884 31.4368 -27.1165 0
-11.6281 31.1486 -27.7799 0
-10.9234 30.6358 -28.1772 0
-10.9903 30.945 -28.3247 0
-11.1322 31.5799 -28.5368 0
-10.6174 31.5321 -28.9258 0
-11.6319 31.7075 -28.0613 0
-11.029 31.2655 -28.4358 0
-10.3233 30.854 -28.7256 0
-9.93871 31.1753 -29.1753 0
-9.67923 30.4907 -28.9133 0
-9.77851 30.83 -29.0534 0
-9.42599 30.9024 -29.3193 0
-9.05949 30.7016 -29.3897 0
-12.8212 30.8695 -26.2535 0
-12.0968 30.6007 -26.5812 0
-12.1513 30.8968 -26.7507 0
-12.6299 30.3609 -25.8976 0
-12.0148 29.984 -26.2217 0
-12.0557 30.2967 -26.4018 0
-11.2738 30.1112 -26.9016 0
-10.422 29.5235 -27.2926 0
-10.52 29.8458 -27.506 0
-12.7408 29.8029 -25.5507 0
-11.9969 29.352 -25.9139 0
-12.001 29.6605 -26.0724 0
-12.614 29.2883 -25.0794 0
-11.9771 28.7178 -25.521 0
-11.98 29.0343 -25.7325 0
-11.1833 28.7049 -26.3276 0
-10.2711 28.1237 -26.5417 0
-10.3208 28.4212 -26.7875 0
-10.444 29.1299 -27.169 0
-9.81016 28.9184 -27.6482 0
-11.2543 29.3955 -26.636 0
-10.4034 28.7405 -27.0186 0
-9.6752 28.2819 -27.1345 0
-9.30876 28.5853 -27.6669 0
-9.3841 28.9342 -27.9099 0
-9.15224 27.9693 -27.0608 0
-9.24882 28.2742 -27.3944 0
-8.87548 28.2953 -27.6428 0
-8.41962 28.0264 -27.5673 0
-8.53731 28.3891 -27.8485 0
-8.96918 30.369 -29.2378 0
-8.71168 30.5809 -29.3764 0
-9.6216 30.1768 -28.7539 0
-9.25625 30.2354 -29.0266 0
-8.90152 30.0479 -29.0381 0
-8.83797 29.7327 -28.8321 0
-8.53739 29.9316 -28.9572 0
-10.7634 30.4155 -27.9342 0
-10.1303 30.2103 -28.4345 0
-11.4571 30.6828 -27.3164 0
-10.6309 30.1465 -27.7205 0
-9.93012 29.6025 -28.0553 0
-9.1457 29.6271 -28.6136 0
-8.76741 29.4067 -28.6119 0
-9.55761 29.8739 -28.5577 0
-9.48497 29.5862 -28.3551 0
-9.41818 29.2674 -28.1183 0
-8.70208 29.0802 -28.3684 0
-8.3437 29.242 -28.5115 0
-9.02955 28.9961 -28.1361 0
-8.63424 28.7522 -28.1022 0
-8.21848 28.6158 -27.9226 0
-8.32785 30.4584 -29.3524 0
-8.1247 29.8026 -28.8724 0
-8.22636 30.1344 -29.1022 0
-7.90558 30.3291 -29.28 0
-7.46925 30.1543 -29.2303 0
-7.87507 29.0683 -28.4017 0
-7.99084 29.4263 -28.6485 0
-7.76494 28.4752 -27.7257 0
-7.83729 28.7905 -28.0533 0
-7.45767 29.0111 -28.1652 0
-7.05315 29.0124 -27.8842 0
-7.09708 29.2658 -28.2587 0
-7.32645 29.8691 -28.9024 0
-6.97936 30.0102 -29.1225 0
-7.65883 29.6496 -28.7658 0
-7.16987 29.5182 -28.6269 0
-6.74702 29.5135 -28.3689 0
-6.61083 30.0811 -28.8267 0
-6.41997 29.6475 -27.9991 0
-6.48607 29.8591 -28.4164 0
-6.27 30.2154 -28.4733 0
-5.79398 30.1604 -28.2398 0
-12.6475 28.6533 -24.7088 0
-11.943 28.0328 -25.1878 0
-11.958 28.3869 -25.3221 0
-12.5557 27.9962 -24.3798 0
-11.9591 27.3373 -24.8981 0
-11.9407 27.687 -25.031 0
-11.0932 27.3872 -25.5166 0
-10.309 26.875 -25.5974 0
-10.2463 27.1578 -25.8379 0
-12.5507 27.3737 -24.0339 0
-11.8158 26.732 -24.5542 0
-11.9398 26.9448 -24.8092 0
-12.397 26.8532 -23.5561 0
-11.7533 26.2925 -23.9973 0
-11.6991 26.574 -24.2338 0
-10.8695 26.0577 -24.8817 0
-10.1467 25.6645 -24.7164 0
-10.2938 25.82 -25.0305 0
-10.3484 26.6124 -25.3196 0
-9.74574 26.5177 -25.5412 0
-11.0476 26.6368 -25.2632 0
-10.3112 26.2109 -25.2232 0
-9.76431 25.8357 -25.0804 0
-9.25224 26.3821 -25.2466 0
-9.28619 26.6678 -25.524 0
-9.08365 25.5563 -24.8735 0
-9.11656 25.9682 -25.079 0
-8.56503 26.0925 -25.0874 0
-7.94645 25.8239 -24.8019 0
-8.17709 26.2903 -24.9796 0
-12.3898 26.2101 -23.127 0
-11.7695 25.6903 -23.4766 0
-11.8109 26.0216 -23.7256 0
-12.3218 25.4519 -22.8516 0
-11.6932 24.9726 -23.0598 0
-11.7293 25.3313 -23.2543 0
-10.7099 25.1524 -23.5197 0
-9.86008 24.4835 -23.623 0
-9.80576 24.8413 -23.9015 0
-12.241 24.8175 -22.4463 0
-11.4681 24.3462 -22.6109 0
-11.6377 24.6262 -22.8799 0
-11.8533 24.316 -21.9214 0
-11.0909 23.6965 -22.1081 0
-11.2109 24.1013 -22.3075 0
-10.5367 23.7353 -22.6243 0
-9.85744 22.9442 -22.6119 0
-9.87654 23.3939 -22.8386 0
-9.86372 24.1519 -23.2962 0
-9.1362 23.8332 -23.6575 0
-10.7363 24.4089 -23.0717 0
-9.88421 23.7823 -23.0917 0
-9.15557 23.1057 -23.0249 0
-8.40228 23.337 -23.4272 0
-8.44407 23.7037 -23.773 0
-8.38595 22.5606 -22.7146 0
-8.37428 22.9803 -23.0365 0
-7.68157 22.8716 -23.041 0
-7.8295 25.3719 -24.5193 0
-7.41707 25.5882 -24.2971 0
-8.91089 25.2019 -24.6347 0
-8.32217 25.223 -24.6353 0
-7.68547 24.8768 -24.329 0
-7.51623 24.3993 -24.1627 0
-6.99267 24.434 -24.1445 0
-9.86957 25.4729 -24.5027 0
-9.41609 25.2692 -24.6816 0
-10.7379 25.7416 -24.1695 0
-9.78797 25.27 -24.1506 0
-9.12186 24.5831 -24.2691 0
-8.03935 24.4302 -24.1421 0
-7.38882 23.9372 -23.971 0
-8.64872 24.9387 -24.4335 0
-8.55049 24.5222 -24.1953 0
-8.52388 24.0972 -23.9839 0
-7.84095 23.6193 -23.7197 0
-5.68634 29.9851 -27.7565 0
-5.25926 30.0844 -27.9961 0
-6.36763 29.4712 -27.507 0
-6.08253 29.825 -27.5584 0
-5.60051 29.8291 -27.1961 0
-7.00604 28.7936 -27.4304 0
-6.66117 29.1034 -27.487 0
-7.61208 28.0878 -27.4062 0
-7.32512 28.4498 -27.4029 0
-6.90832 28.4947 -27.0314 0
-6.83329 28.2581 -26.625 0
-6.50098 28.6073 -26.575 0
-5.85732 29.2983 -26.5696 0
-6.31971 29.2829 -27.0022 0
-6.1572 28.9361 -26.5478 0
-6.02744 28.6319 -26.1064 0
-8.2792 27.7051 -27.1803 0
-7.95013 27.8749 -27.3195 0
-9.12617 27.696 -26.7472 0
-8.64823 27.672 -26.9389 0
-8.17722 27.4124 -26.7855 0
-8.26923 27.2845 -26.3946 0
-7.88537 27.4197 -26.4642 0
-10.249 27.8342 -26.2802 0
-9.65132 27.7397 -26.5712 0
-11.1037 28.0554 -25.9124 0
-10.2375 27.5054 -26.0476 0
-9.65502 27.0659 -26.106 0
-8.74912 27.292 -26.2338 0
-8.34676 27.18 -25.9728 0
-9.17283 27.4893 -26.4186 0
-9.20296 27.2019 -26.1476 0
-9.22807 26.8907 -25.8757 0
-8.40869 26.9987 -25.5518 0
-7.99966 27.2759 -25.5159 0
-8.84616 26.8083 -25.5367 0
-8.41582 26.7442 -25.1559 0
-7.82546 26.5551 -24.7686 0
-6.33676 28.009 -25.7329 0
-7.14819 27.8696 -26.6427 0
-6.814 28.061 -26.1784 0
-7.47772 27.7296 -27.0631 0
-7.52675 27.5763 -26.5889 0
-7.574 27.4463 -26.1069 0
-6.88563 27.7437 -25.2587 0
-6.88435 27.9315 -25.7163 0
-7.25887 27.634 -25.675 0
-7.60502 27.42 -25.5702 0
-7.02197 26.9773 -24.8388 0
-7.59203 27.2989 -25.0711 0
-7.40432 26.8213 -24.723 0
-7.20724 26.3068 -24.4106 0
-11.6557 23.5176 -21.6615 0
-10.8957 22.9596 -21.6793 0
-11.0162 23.2551 -21.9616 0
-11.5379 22.6998 -21.481 0
-10.7659 22.2022 -21.2653 0
-10.8636 22.5548 -21.5365 0
-10.1793 22.3966 -21.5565 0
-9.33571 21.8144 -21.2362 0
-9.51806 22.0694 -21.6431 0
-11.4169 21.919 -21.0887 0
-10.667 21.8531 -20.9551 0
-9.81294 22.528 -22.3606 0
-9.10563 22.3137 -22.4212 0
-10.468 22.8246 -22.2377 0
-9.67839 22.2722 -22.0123 0
-8.84936 21.6983 -21.7256 0
-12.8798 32.7919 -27.2809 0
-13.5322 33.1426 -26.1769 0
-13.38 32.8727 -26.8614 0
-13.0323 32.6337 -27.0926 0
-13.213 32.454 -26.9008 0
-14.2422 33.5348 -24.9107 0
-13.7193 33.3985 -25.5148 0
-14.6951 34.1488 -23.8833 0
-14.6663 33.7398 -24.2866 0
-14.3644 33.3655 -24.62 0
-14.3581 33.2383 -24.3425 0
-14.0722 32.9774 -24.9899 0
-13.625 32.5591 -26.3354 0
-13.3186 32.2397 -26.6838 0
-13.6842 32.9685 -25.8992 0
-13.8352 32.7478 -25.6703 0
-13.9021 32.5377 -25.4305 0
-13.4311 31.9918 -26.4916 0
-13.9541 32.3248 -25.1922 0
-13.7589 32.1061 -25.8875 0
-13.4947 31.7258 -26.3139 0
-13.5123 31.4311 -26.122 0
-13.7674 31.5895 -25.4432 0
-13.5073 31.1287 -25.935 0
-14.1333 32.6118 -24.4712 0
-13.9513 32.0991 -24.9512 0
-13.8693 31.9258 -24.6722 0
-13.9041 32.322 -23.8951 0
-13.7456 31.7561 -24.4151 0
-14.4307 33.6109 -23.7478 0
-14.3358 33.096 -24.0545 0
-14.491 34.1218 -23.6079 0
-14.1875 34.1009 -23.3407 0
-13.9179 34.0586 -23.0707 0
-14.0304 32.881 -23.4671 0
-13.7829 32.7793 -23.2026 0
-14.1973 33.0009 -23.7395 0
-13.9958 33.4775 -23.2058 0
-13.581 34.023 -22.8077 0
-13.3819 33.3321 -22.708 0
-13.5545 32.6697 -22.9441 0
-13.2341 33.9755 -22.5447 0
-12.8772 33.9184 -22.2681 0
-12.5607 33.7874 -21.9991 0
-13.3581 30.9215 -25.7473 0
-13.5169 31.6351 -24.1761 0
-13.5067 31.2071 -25.0017 0
-13.1965 30.7178 -25.5725 0
-13.3107 30.462 -25.3815 0
-13.359 32.5446 -22.6746 0
-13.437 32.0863 -23.4165 0
-12.2687 33.606 -21.7139 0
-12.8726 33.0802 -22.181 0
-13.255 32.368 -22.4038 0
-13.2537 32.1369 -22.1301 0
-13.5017 31.7048 -22.8858 0
-13.4503 30.8199 -24.5671 0
-13.4317 30.2089 -25.1966 0
-13.3819 31.4794 -23.955 0
-13.5497 31.2622 -23.6973 0
-13.6849 31.0432 -23.4492 0
-13.3553 29.9914 -24.9286 0
-13.7698 30.7999 -23.2118 0
-13.4802 30.403 -24.0287 0
-13.2093 29.7953 -24.6367 0
-13.2002 29.5249 -24.4027 0
-13.5719 29.8832 -23.5695 0
-13.2352 29.2278 -24.1911 0
-13.5648 31.2065 -22.3935 0
-13.8491 30.5538 -22.977 0
-13.7982 30.2315 -22.7874 0
-13.3651 30.5434 -22.054 0
-13.7418 29.9061 -22.5972 0
-12.6476 32.5566 -21.6235 0
-13.184 31.854 -21.8963 0
-12.0705 33.2837 -21.4292 0
-11.9023 32.9268 -21.146 0
-11.8337 32.5115 -20.8308 0
-12.8897 31.1729 -21.5781 0
-12.8534 30.8283 -21.3463 0
-13.0165 31.5188 -21.75 0
-12.3557 31.829 -21.1967 0
-11.7628 32.0935 -20.5497 0
-12.2879 31.0807 -20.6624 0
-12.8108 30.4833 -21.107 0
-11.4722 32.2857 -19.8367 0
-11.7538 31.6895 -20.2411 0
-11.7746 31.3286 -19.9222 0
-11.6477 30.9917 -19.6571 0
-13.1767 28.9287 -23.9829 0
-13.6963 29.5922 -22.3915 0
-13.412 29.2752 -23.1545 0
-13.0314 28.6463 -23.7419 0
-12.989 28.3322 -23.5496 0
-12.7262 30.1493 -20.874 0
-13.2926 29.8917 -21.6241 0
-11.4231 30.6747 -19.4629 0
-12.129 30.3989 -20.1619 0
-12.621 29.819 -20.6529 0
-12.5303 29.5192 -20.4374 0
-13.112 29.2468 -21.186 0
-13.3397 28.6511 -22.7438 0
-13.0146 28.0041 -23.3653 0
-13.6518 29.2797 -22.1857 0
-13.5771 28.9689 -21.9761 0
-13.4819 28.6542 -21.7654 0
-12.9761 27.7086 -23.1596 0
-13.4175 28.3314 -21.5812 0
-13.2294 28.0092 -22.3576 0
-12.921 27.3721 -22.9766 0
-12.8835 27.0434 -22.7906 0
-10.8191 30.9959 -18.7514 0
-10.2874 30.6017 -17.5383 0
-10.4927 30.3638 -18.3641 0
-10.3341 30.273 -17.3447 0
-10.4126 29.9829 -17.075 0
-10.5631 29.7294 -17.937 0
-10.7197 30.1457 -16.3654 0
-10.5462 29.6852 -16.8272 0
-10.8436 29.3724 -16.7257 0
-10.7794 29.0942 -17.5707 0
-13.0966 27.3481 -22.0137 0
-12.8037 26.7203 -22.6022 0
-12.9579 28.6194 -20.8104 0
-13.3659 28.0074 -21.4209 0
-13.2956 27.6768 -21.2712 0
-12.7862 27.9534 -20.5248 0
-13.2197 27.3434 -21.1339 0
-11.8171 29.7735 -19.7609 0
-12.4384 29.2229 -20.2247 0
-11.1917 30.3674 -19.2843 0
-10.963 30.0634 -19.1386 0
-10.8122 29.7519 -18.9752 0
-12.2371 28.5645 -19.9458 0
-12.2723 28.2369 -19.7745 0
-12.3364 28.8895 -20.0797 0
-11.5188 29.1371 -19.47 0
-10.8667 29.4358 -18.7919 0
-11.6271 28.4904 -19.1072 0
-12.3318 27.9055 -19.6 0
-10.9238 29.1208 -18.5942 0
-11.0165 28.7743 -18.5065 0
-11.0991 28.422 -18.439 0
-12.7256 26.3814 -22.4298 0
-13.155 26.9798 -21.038 0
-12.9843 26.653 -21.7651 0
-12.7615 25.9605 -22.4068 0
-12.7781 25.5481 -22.3637 0
-12.361 27.5683 -19.4802 0
-12.7679 27.2612 -20.2704 0
-11.1414 28.0861 -18.3254 0
-11.7296 27.7995 -18.9516 0
-12.3683 27.2274 -19.3941 0
-12.439 26.9147 -19.2691 0
-12.7689 26.5782 -20.0718 0
-12.9406 25.8807 -21.6516 0
-12.7583 25.278 -22.1536 0
-13.0937 26.5943 -20.9819 0
-13.0586 26.2468 -20.8832 0
-13.0949 25.965 -20.7194 0
-12.7404 25.0161 -21.942 0
-13.103 25.6786 -20.5613 0
-12.9452 25.3283 -21.279 0
-12.6191 24.7464 -21.7284 0
-12.5014 24.4677 -21.545 0
-12.7965 24.7431 -20.99 0
-12.4217 24.0799 -21.4931 0
-12.9147 25.9827 -19.7929 0
-13.0825 25.3803 -20.4479 0
-13.0599 25.0757 -20.3477 0
-12.7979 25.3731 -19.7307 0
-12.9341 24.6502 -20.5619 0
-11.7813 27.1447 -18.6994 0
-12.5664 26.6162 -19.1164 0
-11.1187 28.4477 -17.3226 0
-11.1205 27.7537 -18.195 0
-11.0965 27.4578 -18.0948 0
-11.1728 27.8542 -17.1225 0
-11.0232 27.184 -18.0078 0
-12.4876 26.0063 -19.0448 0
-12.3607 25.688 -19.0996 0
-12.6115 26.3123 -19.0218 0
-11.7281 26.5588 -18.5417 0
-11.0053 26.8997 -17.9091 0
-11.7828 25.9979 -18.424 0
-12.3101 25.3491 -19.2999 0
-11.1161 27.2623 -16.8627 0
-11.1009 26.6266 -17.7862 0
-11.1981 26.3226 -17.7118 0
-11.1486 26.5651 -16.7733 0
-11.441 25.9455 -17.8393 0
-11.2275 29.5527 -16.057 0
-11.1333 29.0673 -16.5976 0
-11.4343 27.204 -15.9033 0
-11.4531 26.8269 -15.8708 0
-11.3697 27.8938 -16.0471 0
-11.4415 27.5625 -15.9798 0
-12.1001 27.8567 -15.2389 0
-12.7565 28.3539 -14.6697 0
-12.9119 28.0385 -14.6204 0
-11.33 28.4683 -16.3624 0
-11.3937 28.1837 -16.2077 0
-11.2361 28.7658 -16.4815 0
-11.5837 29.0155 -15.7132 0
-12.5945 28.6601 -14.7634 0
-11.8418 28.4751 -15.4136 0
-12.2262 27.1346 -15.1204 0
-11.6556 26.4321 -16.0028 0
-13.0065 27.6921 -14.5252 0
-13.0941 27.321 -14.5152 0
-13.0943 26.8953 -14.5217 0
-12.3541 23.6706 -21.5173 0
-12.8071 24.2422 -20.7863 0
-12.6799 23.9168 -21.1829 0
-12.289 23.2646 -21.4523 0
-12.2008 22.8663 -21.341 0
-12.2689 25.0134 -19.4991 0
-12.6053 24.6037 -20.2058 0
-11.6906 25.5612 -17.9762 0
-11.9677 25.286 -18.7602 0
-12.5043 24.6609 -19.7273 0
-12.8295 24.3026 -20.0412 0
-13.0118 23.9271 -20.4705 0
-12.6156 23.1077 -21.0962 0
-12.1327 22.4786 -21.1733 0
-12.8163 23.8556 -20.8235 0
-12.9829 23.5102 -20.8987 0
-13.0808 23.1347 -20.9245 0
-12.0891 22.0907 -21.0416 0
-13.2074 22.7226 -20.9127 0
-12.7141 22.3169 -21.0925 0
-12.0744 21.6913 -20.9606 0
-11.7906 26.019 -16.1425 0
-11.6701 25.7789 -17.0614 0
-13.0518 26.4463 -14.5904 0
-12.2945 26.2801 -15.2388 0
-11.7161 25.5201 -16.3498 0
-11.6106 25.0056 -16.5933 0
-11.7064 24.7973 -17.5895 0
-12.0953 25.2024 -15.6819 0
-11.6558 24.4955 -16.729 0
-12.8858 25.9179 -14.7305 0
-12.6331 25.3529 -14.9225 0
-12.3589 24.8046 -15.0856 0
-11.7134 23.9995 -16.8064 0
-11.8655 23.8456 -17.9732 0
-12.2169 24.2648 -15.2586 0
-11.9164 24.1514 -15.9126 0
-11.7216 23.4887 -16.9695 0
-11.7223 22.959 -17.249 0
-11.9312 22.8373 -18.2722 0
-12.8086 21.3909 -21.0809 0
-13.5254 23.1433 -20.6392 0
-13.3266 22.2843 -20.9141 0
-13.311 21.7759 -20.9401 0
-13.5974 22.1383 -20.7836 0
-13.2005 21.2355 -20.9772 0
-12.5045 24.5296 -19.3841 0
-13.0944 23.9183 -20.1744 0
-11.8235 25.0944 -18.2376 0
-11.8847 24.627 -18.5188 0
-11.9944 24.1732 -18.6968 0
-13.273 22.9665 -20.2642 0
-13.2868 22.4308 -20.3457 0
-13.2187 23.4584 -20.2023 0
-12.7609 23.665 -19.5849 0
-12.1902 23.7304 -18.8494 0
-13.0446 22.6978 -19.7976 0
-13.4005 21.8928 -20.4349 0
-12.3232 23.2524 -18.982 0
-12.4394 22.7564 -19.0848 0
-12.5889 22.2692 -19.1704 0
-13.2435 20.6915 -21.0885 0
-13.5828 21.3092 -20.7041 0
-13.6204 21.0108 -21.0371 0
-12.7726 21.7872 -19.2143 0
-13.3305 21.6728 -19.9443 0
-13.7395 20.7652 -20.7977 0
-13.7432 20.2858 -20.762 0
-13.5334 19.9146 -21.0608 0
-13.2815 20.1283 -21.234 0
-13.1672 19.6249 -21.1229 0
-13.4993 20.6192 -20.0405 0
-13.7292 19.8141 -20.7223 0
-12.2584 21.7892 -18.4269 0
-13.0411 21.2706 -19.2439 0
-13.1572 20.765 -19.3824 0
-12.6441 20.7886 -18.6937 0
-13.2946 20.2634 -19.5297 0
-13.2064 18.5382 -20.6546 0
-12.9215 17.9026 -20.6291 0
-13.5519 19.1983 -20.7234 0
-13.3511 19.3929 -20.134 0
-13.2358 19.6018 -19.7776 0
-12.9931 18.0048 -20.2909 0
-12.8109 17.212 -20.4969 0
-12.7805 19.633 -19.1951 0
-13.0907 18.8992 -19.9854 0
-13.0045 18.23 -20.0088 0
-12.7915 18.4229 -19.5479 0
-12.9566 17.6217 -19.9891 0
-11.6899 23.0724 -16.3492 0
-11.8057 22.4228 -17.4187 0
-12.4047 19.1982 -18.9177 0
-12.4072 18.5944 -19.0439 0
-12.373 20.3398 -18.3022 0
-12.3793 19.7902 -18.6241 0
-12.0132 21.3373 -17.7583 0
-12.1526 20.8518 -18.036 0
-11.9083 21.8702 -17.5252 0
-11.4961 21.9511 -16.7928 0
-12.7836 16.5168 -20.2477 0
-12.1083 16.572 -20.6875 0
-12.99 17.0954 -19.8273 0
-12.8775 16.8013 -20.0175 0
-12.8443 16.0155 -19.8418 0
-13.1657 15.633 -19.4766 0
-12.6187 15.2851 -19.7107 0
-12.797 17.3012 -19.4975 0
-13.3361 15.931 -19.3893 0
-13.7161 15.3038 -19.1209 0
-13.1488 16.62 -19.5733 0
-12.5445 57.5806 -32.5203 0
-12.7261 57.8563 -33.0404 0
-12.3154 57.3832 -32.0529 0
-11.8484 57.4418 -32.4813 0
-11.4533 57.7237 -33.0393 0
-11.115 57.5229 -32.4696 0
-10.8144 57.2293 -31.8832 0
-10.9774 56.6964 -30.8164 0
-10.6861 56.1656 -30.1561 0
-11.3079 55.9229 -27.7935 0
-10.2387 55.7164 -29.3798 0
-10.2377 55.4431 -28.283 0
-10.7922 55.6213 -27.9828 0
-10.2222 55.4112 -27.4062 0
-10.1324 55.5425 -26.642 0
-10.9587 55.8158 -26.1395 0
-11.3358 55.7403 -25.9449 0
-11.7389 55.7905 -25.7857 0
-12.9073 56.0522 -27.3372 0
-12.3533 55.9847 -26.4826 0
-13.3629 56.0726 -27.1894 0
-13.8463 56.1567 -26.9479 0
-10.277 55.5222 -25.7582 0
-9.8794 55.4851 -26.0068 0
-7.34092 51.579 -39.393 0
-7.35458 51.4168 -39.708 0
-7.48443 50.975 -39.4103 0
-7.69017 50.8226 -39.7733 0
-12.4135 58.3193 -34.1659 0
-12.4506 57.9967 -35.195 0
-12.813 57.6638 -34.5519 0
-13.3457 57.4419 -32.7205 0
-12.759 57.3179 -35.3242 0
-12.7644 56.9466 -35.9178 0
-12.1357 57.1331 -36.8862 0
-12.0856 56.7242 -37.3111 0
-11.8457 55.7492 -37.5895 0
-11.5257 55.2861 -37.2824 0
-12.1058 56.2943 -37.5984 0
-10.493 55.1498 -37.0662 0
-9.86065 55.2367 -37.2217 0
-9.69599 54.7073 -36.8754 0
-9.56647 54.1765 -36.5846 0
-10.7426 55.6018 -37.3867 0
-7.30471 51.284 -38.7593 0
-7.28324 51.443 -38.462 0
-7.33887 51.6526 -38.146 0
-7.50539 51.9095 -37.8282 0
-7.7802 52.1821 -36.7379 0
-7.69249 52.1239 -37.5517 0
-7.88599 52.3352 -37.2696 0
-8.08647 52.543 -36.98 0
-8.29019 52.7238 -36.6847 0
-8.27852 53.0552 -37.0413 0
-8.5065 53.1954 -36.6983 0
-8.9653 54.1671 -36.8921 0
-8.96045 53.6425 -36.6651 0
-8.85467 53.2827 -36.311 0
-14.3523 55.9947 -27.6635 0
-14.8722 56.0839 -27.5361 0
-15.3238 55.898 -27.4914 0
-15.872 55.8074 -28.3545 0
-16.5995 54.9562 -29.7915 0
-16.2136 55.4162 -28.5691 0
-17.0485 54.4431 -30.1959 0
-17.4548 53.9046 -30.5153 0
-17.5919 53.3828 -31.3652 0
-17.8748 52.9625 -31.3682 0
-17.7294 52.5007 -31.8701 0
-17.8218 52.0275 -31.7567 0
-18.028 51.5738 -31.7365 0
-17.6586 51.1673 -32.1588 0
-17.3744 50.6626 -31.9308 0
-17.3496 50.0373 -31.7975 0
-16.9473 49.5451 -32.1894 0
-16.8851 45.9074 -32.3997 0
-16.8343 48.3447 -32.4694 0
-16.942 47.7319 -32.2805 0
-17.1126 48.87 -32.0843 0
-17.2307 46.333 -32.1698 0
-17.1334 46.8143 -32.5174 0
-16.75 47.2695 -32.6451 0
-16.0999 43.0844 -31.0041 0
-16.5754 43.4201 -30.9872 0
-16.3854 43.9194 -31.4012 0
-16.7966 44.3081 -31.2746 0
-16.6728 44.7273 -31.7381 0
-17.1003 45.0911 -31.6063 0
-16.9644 45.4954 -32.0135 0
-16.1719 42.6678 -30.4962 0
-16.3157 42.2441 -30.0491 0
-15.9183 41.9069 -30.0775 0
-15.7884 41.1189 -29.6561 0
-16.0737 41.5051 -29.6084 0
-15.7128 40.3363 -29.0592 0
-15.9654 40.7429 -29.1044 0
-15.8034 39.5518 -28.3286 0
-15.9831 39.9366 -28.3993 0
-16.1454 39.2343 -27.6337 0
-16.0503 38.8705 -27.613 0
-15.8574 38.5861 -27.5251 0
-16.1095 38.3734 -26.8506 0
-15.7097 38.2563 -26.7857 0
-15.4388 38.0679 -26.7565 0
-15.6928 37.8233 -26.1161 0
-15.4709 37.5772 -26.1459 0
-15.2577 37.3423 -26.1645 0
-15.4102 37.2382 -25.5291 0
-15.2563 37.0351 -25.5474 0
-15.1523 36.8044 -25.5849 0
-15.2188 36.7974 -24.9519 0
-15.2277 36.7809 -24.2969 0
-15.1214 36.5408 -24.4426 0
-15.1206 36.5344 -23.8684 0
-14.3395 35.2378 -23.356 0
-14.5516 35.3331 -23.5076 0
-14.982 36.2577 -23.6565 0
-15.0529 36.5473 -23.3362 0
-14.8676 36.2662 -23.2843 0
-14.6295 36.3202 -23 0
-14.5926 35.9362 -23.4552 0
-14.7148 35.3932 -23.711 0
-7.93826 50.6669 -40.1196 0
-8.21217 50.4684 -40.46 0
-8.35789 50.2222 -40.8234 0
-8.3275 49.7277 -40.6921 0
-8.50575 49.979 -41.2271 0
-8.51997 49.7115 -41.721 0
-8.30175 49.4061 -42.344 0
-8.42662 48.7631 -42.3706 0
-8.70866 48.5026 -41.6564 0
-4.32577 44.4617 -40.7617 0
-3.73737 44.5242 -41.4624 0
-3.32962 44.2734 -41.2312 0
-2.95994 43.9671 -41.0168 0
-2.81368 43.4516 -40.9149 0
-8.45845 48.0499 -41.6902 0
-7.92281 47.2646 -40.86 0
-8.09529 47.5404 -41.8083 0
-7.7332 46.9755 -42.0218 0
-8.02162 46.6398 -41.3861 0
-7.88901 46.6184 -40.9398 0
-7.66347 46.3189 -41.1886 0
-7.28035 46.033 -41.001 0
-6.66658 46.2954 -41.4169 0
-6.11628 46.1412 -41.3472 0
-5.32546 46.0812 -42.0038 0
-5.07114 45.6286 -41.7577 0
-4.85736 45.1474 -41.5132 0
-4.02243 44.9773 -41.6526 0
-0.967097 40.391 -34.4153 0
-0.30594 39.4951 -34.3214 0
-0.362148 38.664 -33.5368 0
-0.608161 37.9737 -32.7949 0
-0.106296 37.3915 -32.4078 0
-0.303795 36.8556 -31.73 0
-0.364887 36.4835 -31.1357 0
-1.06576 36.7248 -30.7671 0
-0.479737 36.1171 -30.6006 0
-0.739275 35.712 -30.1331 0
-1.15355 35.3335 -29.5265 0
-0.525373 34.6017 -29.453 0
-1.06286 34.2283 -29.1547 0
-1.67411 33.8125 -29.0105 0
-1.41601 33.3967 -28.7552 0
-2.11389 32.966 -28.7095 0
-2.62245 32.4375 -28.8052 0
-2.43626 31.9882 -28.5658 0
-2.99074 31.5435 -28.6317 0
-3.55297 31.1241 -28.6688 0
-3.5726 30.827 -28.2696 0
-4.13218 30.4489 -28.2715 0
-4.16802 30.2117 -27.887 0
-2.59723 43.0632 -40.642 0
-3.5418 42.9181 -39.4713 0
-3.24704 42.6362 -39.1967 0
-4.07358 42.3682 -38.4503 0
-3.60664 42.0888 -38.1313 0
-4.15181 41.8086 -37.3463 0
-4.63007 42.4415 -36.9523 0
-4.44865 42.1145 -36.6944 0
-4.2517 41.671 -36.3859 0
-4.19541 41.1847 -36.1173 0
-4.2298 40.8828 -35.9799 0
-3.19937 40.938 -36.2934 0
-2.87348 40.8461 -35.9187 0
-1.38652 41.2519 -35.689 0
-1.10607 40.9411 -35.0494 0
-7.62605 22.4917 -22.6343 0
-7.11217 22.6971 -23.0987 0
-7.02878 22.3023 -22.6612 0
-7.25342 25.0763 -24.109 0
-6.83473 23.912 -24.0054 0
-6.68458 23.283 -23.9806 0
-7.2597 23.4363 -23.8634 0
-7.16904 23.0493 -23.5881 0
-7.02245 25.7912 -24.1408 0
-6.81006 25.2183 -23.9334 0
-6.53919 24.5529 -23.99 0
-6.32897 23.9524 -23.8631 0
-5.07419 29.7487 -26.8642 0
-5.49022 29.5318 -26.7027 0
-5.31166 29.1465 -26.2349 0
-5.66012 28.9022 -26.122 0
-5.45484 28.3866 -25.7352 0
-5.84474 28.1522 -25.7062 0
-5.74413 27.7708 -25.2917 0
-6.34705 27.7799 -25.2859 0
-6.12984 27.2169 -24.9615 0
-6.65229 27.1858 -24.9318 0
-6.39795 26.5935 -24.6229 0
-6.81099 26.4475 -24.5163 0
-6.58046 25.8553 -24.2383 0
-4.72091 30.0736 -27.6824 0
-4.60392 29.836 -27.147 0
-10.6342 21.4446 -20.6806 0
-11.3832 21.5262 -20.8828 0
-9.88218 21.3555 -20.5078 0
-8.50835 21.1709 -20.9119 0
-9.2003 21.4975 -20.8553 0
-9.92232 21.7634 -20.8322 0
-7.88547 20.8128 -20.8206 0
-7.61237 21.9505 -22.3311 0
-8.37558 22.0498 -22.4206 0
-8.27949 21.7003 -22.0803 0
-8.18231 21.363 -21.6895 0
-8.02541 21.0921 -21.253 0
-14.5597 34.6213 -23.4906 0
-14.1652 34.6349 -23.2328 0
-13.7989 34.6224 -22.9766 0
-13.4307 34.6075 -22.7196 0
-13.0345 34.5964 -22.4287 0
-12.655 34.5626 -22.1398 0
-12.2033 34.4965 -21.8416 0
-11.8675 34.3435 -21.5358 0
-11.6599 33.9792 -21.2303 0
-11.4785 33.6119 -20.9191 0
-11.4998 33.165 -20.5261 0
-11.46 32.7295 -20.1983 0
-11.2788 31.5936 -19.2039 0
-10.8885 31.8518 -18.4619 0
-11.1302 32.1276 -18.7522 0
-11.3116 32.4638 -19.0508 0
-11.2831 32.9083 -19.4342 0
-10.6562 31.5398 -18.2234 0
-10.4354 31.2299 -18.0043 0
-10.3127 30.9394 -17.7429 0
-10.4127 31.1122 -16.8859 0
-10.4833 30.7691 -16.7515 0
-11.0789 30.8868 -16.1242 0
-11.1917 30.6022 -15.9265 0
-11.4083 30.3027 -15.7585 0
-11.5901 30.0406 -15.538 0
-11.8202 29.7851 -15.3589 0
-12.0462 29.5223 -15.1736 0
-13.5184 28.498 -14.1192 0
-12.2385 29.2435 -15.0356 0
-13.3528 28.8113 -14.1653 0
-13.1991 29.12 -14.2783 0
-12.4256 28.9625 -14.8964 0
-13.6672 28.1751 -14.0598 0
-13.7764 27.8127 -14.0356 0
-13.8527 27.4404 -14.0253 0
-14.7044 27.4532 -13.6804 0
-14.6792 27.0222 -13.7158 0
-11.4194 21.0919 -20.6974 0
-12.1086 21.2543 -20.7857 0
-13.8116 26.549 -14.1462 0
-13.6866 26.0241 -14.276 0
-13.5202 25.4931 -14.4477 0
-13.3104 24.935 -14.5934 0
-12.1473 20.8083 -20.7435 0
-12.0981 20.2775 -20.7004 0
-12.8078 20.4139 -21.0628 0
-12.7822 19.9099 -21.0969 0
-12.648 19.4457 -20.9844 0
-12.4793 18.9969 -20.8065 0
-13.0171 19.1472 -20.9935 0
-12.7776 18.6618 -20.8781 0
-13.1058 18.9678 -20.7743 0
-12.3363 18.1805 -20.8184 0
-11.9365 17.7269 -20.7736 0
-12.4074 17.842 -20.6842 0
-11.6712 17.2931 -21.0017 0
-12.1019 23.7151 -15.446 0
-13.0885 24.362 -14.8035 0
-11.9979 23.1701 -15.599 0
-11.8203 22.6035 -15.8109 0
-12.274 19.1761 -18.3823 0
-12.0335 20.2752 -17.6353 0
-12.0477 19.7387 -17.9878 0
-11.5591 21.4109 -17.0522 0
-11.715 22.0282 -16.0581 0
-11.7791 20.8378 -17.3323 0
-12.3241 18.0077 -19.1771 0
-12.163 18.6351 -18.5635 0
-11.4198 16.7239 -21.1427 0
-13.153 14.9335 -19.2954 0
-11.5482 15.9053 -20.8111 0
-11.9634 15.1047 -20.2031 0
-12.4481 14.5369 -19.5949 0
-12.3993 17.4723 -19.0987 0
-12.3646 16.9323 -19.0928 0
-13.1689 16.3813 -19.0697 0
-12.6325 16.5224 -18.8443 0
-12.8041 16.0265 -18.5903 0
-13.5465 15.6757 -18.3797 0
-13.7887 15.5763 -19.0241 0
-13.4624 16.192 -19.265 0
-13.8292 15.8336 -18.9024 0
-13.7024 14.6351 -18.7994 0
-14.1958 15.152 -18.6156 0
-14.1081 15.6277 -18.4504 0
644 2563 2564 0
643 2565 2563 0
643 2563 644 0
1 643 644 0
646 643 1 0
645 2565 643 0
645 643 646 0
164 645 646 0
648 2566 2565 0
647 2567 2566 0
647 2566 648 0
163 647 648 0
649 645 164 0
648 2565 645 0
648 645 649 0
163 648 649 0
651 649 164 0
650 163 649 0
650 649 651 0
42 650 651 0
653 650 42 0
652 163 650 0
652 650 653 0
165 652 653 0
654 647 163 0
2568 2567 647 0
2568 647 654 0
2569 2568 654 0
2570 652 165 0
654 163 652 0
654 652 2570 0
2569 654 2570 0
2571 2570 165 0
656 653 42 0
655 165 653 0
655 653 656 0
2572 655 656 0
657 2571 165 0
2573 2571 657 0
2574 2573 657 0
2575 655 2572 0
657 165 655 0
657 655 2575 0
2574 657 2575 0
658 2575 2572 0
2576 2575 658 0
2577 2576 658 0
660 646 1 0
659 164 646 0
659 646 660 0
167 659 660 0
662 651 164 0
661 42 651 0
661 651 662 0
166 661 662 0
663 659 167 0
662 164 659 0
662 659 663 0
166 662 663 0
665 663 167 0
664 166 663 0
664 663 665 0
43 664 665 0
667 656 42 0
666 2572 656 0
666 656 667 0
168 666 667 0
669 658 2572 0
668 2577 658 0
668 658 669 0
2578 668 669 0
670 666 168 0
669 2572 666 0
669 666 670 0
2578 669 670 0
671 670 168 0
2579 2578 670 0
2579 670 671 0
2580 2579 671 0
673 664 43 0
672 166 664 0
672 664 673 0
2581 672 673 0
674 661 166 0
667 42 661 0
667 661 674 0
168 667 674 0
675 672 2581 0
674 166 672 0
674 672 675 0
168 674 675 0
2582 675 2581 0
671 168 675 0
671 675 2582 0
2580 671 2582 0
676 673 43 0
2583 2581 673 0
2583 673 676 0
2584 2583 676 0
2585 668 2578 0
2586 2577 668 0
2586 668 2585 0
169 2587 2588 0
169 2588 2589 0
678 2589 2590 0
677 169 2589 0
677 2589 678 0
5 677 678 0
679 2564 2591 0
679 2591 2592 0
2593 679 2592 0
2594 644 2564 0
680 1 644 0
680 644 2594 0
170 680 2594 0
681 679 2593 0
2594 2564 679 0
2594 679 681 0
170 2594 681 0
683 681 2593 0
682 170 681 0
682 681 683 0
44 682 683 0
684 2595 2596 0
683 2593 2595 0
683 2595 684 0
44 683 684 0
685 2596 2597 0
685 2597 2598 0
172 685 2598 0
687 684 2596 0
686 44 684 0
686 684 687 0
171 686 687 0
688 685 172 0
687 2596 685 0
687 685 688 0
171 687 688 0
690 688 172 0
689 171 688 0
689 688 690 0
10 689 690 0
173 2599 2600 0
172 2598 2601 0
691 2599 173 0
2601 2599 691 0
172 2601 691 0
692 691 173 0
690 172 691 0
690 691 692 0
10 690 692 0
174 2602 2603 0
174 2603 2604 0
693 174 2604 0
693 2604 2605 0
46 693 2605 0
695 2600 2606 0
694 173 2600 0
694 2600 695 0
176 694 695 0
697 692 173 0
696 10 692 0
696 692 697 0
175 696 697 0
698 694 176 0
697 173 694 0
697 694 698 0
175 697 698 0
700 698 176 0
699 175 698 0
699 698 700 0
45 699 700 0
702 693 46 0
701 174 693 0
701 693 702 0
177 701 702 0
703 2602 174 0
695 2606 2602 0
695 2602 703 0
176 695 703 0
704 701 177 0
703 174 701 0
703 701 704 0
176 703 704 0
705 704 177 0
700 176 704 0
700 704 705 0
45 700 705 0
707 702 46 0
706 177 702 0
706 702 707 0
179 706 707 0
709 705 177 0
708 45 705 0
708 705 709 0
178 708 709 0
710 706 179 0
709 177 706 0
709 706 710 0
178 709 710 0
712 710 179 0
711 178 710 0
711 710 712 0
4 711 712 0
714 677 5 0
713 169 677 0
713 677 714 0
180 713 714 0
2607 2587 169 0
715 713 180 0
2607 169 713 0
2607 713 715 0
2608 2607 715 0
717 715 180 0
716 2608 715 0
716 715 717 0
47 716 717 0
718 716 47 0
2609 2608 716 0
2609 716 718 0
2610 2609 718 0
720 718 47 0
719 2610 718 0
719 718 720 0
181 719 720 0
2611 719 181 0
2612 2610 719 0
2612 719 2611 0
722 2611 181 0
721 2613 2611 0
721 2611 722 0
11 721 722 0
723 721 11 0
2614 2613 721 0
2614 721 723 0
2615 2614 723 0
725 723 11 0
724 2615 723 0
724 723 725 0
183 724 725 0
726 2616 2615 0
2617 2616 726 0
182 2617 726 0
727 724 183 0
726 2615 724 0
726 724 727 0
182 726 727 0
729 727 183 0
728 182 727 0
728 727 729 0
48 728 729 0
730 2618 2619 0
2605 2618 730 0
46 2605 730 0
732 728 48 0
731 182 728 0
731 728 732 0
184 731 732 0
2620 2617 182 0
733 731 184 0
2620 182 731 0
2620 731 733 0
2619 2620 733 0
734 733 184 0
730 2619 733 0
730 733 734 0
46 730 734 0
736 732 48 0
735 184 732 0
735 732 736 0
185 735 736 0
737 734 184 0
707 46 734 0
707 734 737 0
179 707 737 0
738 735 185 0
737 184 735 0
737 735 738 0
179 737 738 0
739 738 185 0
712 179 738 0
712 738 739 0
4 712 739 0
741 714 5 0
740 180 714 0
740 714 741 0
187 740 741 0
743 717 180 0
742 47 717 0
742 717 743 0
186 742 743 0
744 740 187 0
743 180 740 0
743 740 744 0
186 743 744 0
746 744 187 0
745 186 744 0
745 744 746 0
50 745 746 0
748 720 47 0
747 181 720 0
747 720 748 0
189 747 748 0
750 722 181 0
749 11 722 0
749 722 750 0
188 749 750 0
751 747 189 0
750 181 747 0
750 747 751 0
188 750 751 0
753 751 189 0
752 188 751 0
752 751 753 0
49 752 753 0
755 745 50 0
754 186 745 0
754 745 755 0
190 754 755 0
756 742 186 0
748 47 742 0
748 742 756 0
189 748 756 0
757 754 190 0
756 186 754 0
756 754 757 0
189 756 757 0
758 757 190 0
753 189 757 0
753 757 758 0
49 753 758 0
760 755 50 0
759 190 755 0
759 755 760 0
192 759 760 0
762 758 190 0
761 49 758 0
761 758 762 0
191 761 762 0
763 759 192 0
762 190 759 0
762 759 763 0
191 762 763 0
765 763 192 0
764 191 763 0
764 763 765 0
13 764 765 0
767 725 11 0
766 183 725 0
766 725 767 0
194 766 767 0
769 729 183 0
768 48 729 0
768 729 769 0
193 768 769 0
770 766 194 0
769 183 766 0
769 766 770 0
193 769 770 0
772 770 194 0
771 193 770 0
771 770 772 0
52 771 772 0
774 736 48 0
773 185 736 0
773 736 774 0
196 773 774 0
776 739 185 0
775 4 739 0
775 739 776 0
195 775 776 0
777 773 196 0
776 185 773 0
776 773 777 0
195 776 777 0
779 777 196 0
778 195 777 0
778 777 779 0
51 778 779 0
781 771 52 0
780 193 771 0
780 771 781 0
197 780 781 0
782 768 193 0
774 48 768 0
774 768 782 0
196 774 782 0
783 780 197 0
782 193 780 0
782 780 783 0
196 782 783 0
784 783 197 0
779 196 783 0
779 783 784 0
51 779 784 0
786 781 52 0
785 197 781 0
785 781 786 0
199 785 786 0
788 784 197 0
787 51 784 0
787 784 788 0
198 787 788 0
789 785 199 0
788 197 785 0
788 785 789 0
198 788 789 0
791 789 199 0
790 198 789 0
790 789 791 0
12 790 791 0
793 764 13 0
792 191 764 0
792 764 793 0
201 792 793 0
795 761 191 0
794 49 761 0
794 761 795 0
200 794 795 0
796 792 201 0
795 191 792 0
795 792 796 0
200 795 796 0
798 796 201 0
797 200 796 0
797 796 798 0
53 797 798 0
800 752 49 0
799 188 752 0
799 752 800 0
202 799 800 0
801 749 188 0
767 11 749 0
767 749 801 0
194 767 801 0
802 799 202 0
801 188 799 0
801 799 802 0
194 801 802 0
803 802 202 0
772 194 802 0
772 802 803 0
52 772 803 0
805 797 53 0
804 200 797 0
804 797 805 0
203 804 805 0
806 794 200 0
800 49 794 0
800 794 806 0
202 800 806 0
807 804 203 0
806 200 804 0
806 804 807 0
202 806 807 0
808 807 203 0
803 202 807 0
803 807 808 0
52 803 808 0
810 805 53 0
809 203 805 0
809 805 810 0
204 809 810 0
811 808 203 0
786 52 808 0
786 808 811 0
199 786 811 0
812 809 204 0
811 203 809 0
811 809 812 0
199 811 812 0
813 812 204 0
791 199 812 0
791 812 813 0
12 791 813 0
815 793 13 0
814 201 793 0
814 793 815 0
206 814 815 0
817 798 201 0
816 53 798 0
816 798 817 0
205 816 817 0
818 814 206 0
817 201 814 0
817 814 818 0
205 817 818 0
820 818 206 0
819 205 818 0
819 818 820 0
55 819 820 0
822 810 53 0
821 204 810 0
821 810 822 0
208 821 822 0
824 813 204 0
823 12 813 0
823 813 824 0
207 823 824 0
825 821 208 0
824 204 821 0
824 821 825 0
207 824 825 0
827 825 208 0
826 207 825 0
826 825 827 0
54 826 827 0
829 819 55 0
828 205 819 0
828 819 829 0
209 828 829 0
830 816 205 0
822 53 816 0
822 816 830 0
208 822 830 0
831 828 209 0
830 205 828 0
830 828 831 0
208 830 831 0
832 831 209 0
827 208 831 0
827 831 832 0
54 827 832 0
834 829 55 0
833 209 829 0
833 829 834 0
211 833 834 0
836 832 209 0
835 54 832 0
835 832 836 0
210 835 836 0
837 833 211 0
836 209 833 0
836 833 837 0
210 836 837 0
839 837 211 0
838 210 837 0
838 837 839 0
2 838 839 0
841 660 1 0
840 167 660 0
840 660 841 0
213 840 841 0
843 665 167 0
842 43 665 0
842 665 843 0
212 842 843 0
844 840 213 0
843 167 840 0
843 840 844 0
212 843 844 0
846 844 213 0
845 212 844 0
845 844 846 0
56 845 846 0
847 676 43 0
2621 2584 676 0
2621 676 847 0
214 2621 847 0
2622 2621 214 0
848 2622 214 0
2623 2622 848 0
2624 2623 848 0
850 845 56 0
849 212 845 0
849 845 850 0
215 849 850 0
851 842 212 0
847 43 842 0
847 842 851 0
214 847 851 0
852 849 215 0
851 212 849 0
851 849 852 0
214 851 852 0
853 852 215 0
848 214 852 0
848 852 853 0
2624 848 853 0
855 850 56 0
854 215 850 0
854 850 855 0
217 854 855 0
857 853 215 0
856 2624 853 0
856 853 857 0
216 856 857 0
858 854 217 0
857 215 854 0
857 854 858 0
216 857 858 0
860 858 217 0
859 216 858 0
859 858 860 0
14 859 860 0
862 859 14 0
861 216 859 0
861 859 862 0
218 861 862 0
2625 856 216 0
2626 2624 856 0
2626 856 2625 0
2627 861 218 0
2625 216 861 0
2625 861 2627 0
2628 2627 218 0
864 862 14 0
863 218 862 0
863 862 864 0
219 863 864 0
2629 2628 218 0
865 863 219 0
2629 218 863 0
2629 863 865 0
2630 2629 865 0
866 865 219 0
2631 2630 865 0
2631 865 866 0
57 2631 866 0
2632 2631 57 0
867 2632 57 0
2633 2632 867 0
2634 2633 867 0
869 838 2 0
868 210 838 0
868 838 869 0
221 868 869 0
871 835 210 0
870 54 835 0
870 835 871 0
220 870 871 0
872 868 221 0
871 210 868 0
871 868 872 0
220 871 872 0
874 872 221 0
873 220 872 0
873 872 874 0
59 873 874 0
876 826 54 0
875 207 826 0
875 826 876 0
223 875 876 0
878 823 207 0
877 12 823 0
877 823 878 0
222 877 878 0
879 875 223 0
878 207 875 0
878 875 879 0
222 878 879 0
881 879 223 0
880 222 879 0
880 879 881 0
58 880 881 0
883 873 59 0
882 220 873 0
882 873 883 0
224 882 883 0
884 870 220 0
876 54 870 0
876 870 884 0
223 876 884 0
885 882 224 0
884 220 882 0
884 882 885 0
223 884 885 0
886 885 224 0
881 223 885 0
881 885 886 0
58 881 886 0
888 883 59 0
887 224 883 0
887 883 888 0
226 887 888 0
890 886 224 0
889 58 886 0
889 886 890 0
225 889 890 0
891 887 226 0
890 224 887 0
890 887 891 0
225 890 891 0
893 891 226 0
892 225 891 0
892 891 893 0
16 892 893 0
895 790 12 0
894 198 790 0
894 790 895 0
228 894 895 0
897 787 198 0
896 51 787 0
896 787 897 0
227 896 897 0
898 894 228 0
897 198 894 0
897 894 898 0
227 897 898 0
900 898 228 0
899 227 898 0
899 898 900 0
61 899 900 0
902 778 51 0
901 195 778 0
901 778 902 0
230 901 902 0
904 775 195 0
903 4 775 0
903 775 904 0
229 903 904 0
905 901 230 0
904 195 901 0
904 901 905 0
229 904 905 0
907 905 230 0
906 229 905 0
906 905 907 0
60 906 907 0
909 899 61 0
908 227 899 0
908 899 909 0
231 908 909 0
910 896 227 0
902 51 896 0
902 896 910 0
230 902 910 0
911 908 231 0
910 227 908 0
910 908 911 0
230 910 911 0
912 911 231 0
907 230 911 0
907 911 912 0
60 907 912 0
914 909 61 0
913 231 909 0
913 909 914 0
233 913 914 0
916 912 231 0
915 60 912 0
915 912 916 0
232 915 916 0
917 913 233 0
916 231 913 0
916 913 917 0
232 916 917 0
919 917 233 0
918 232 917 0
918 917 919 0
15 918 919 0
921 892 16 0
920 225 892 0
920 892 921 0
235 920 921 0
923 889 225 0
922 58 889 0
922 889 923 0
234 922 923 0
924 920 235 0
923 225 920 0
923 920 924 0
234 923 924 0
926 924 235 0
925 234 924 0
925 924 926 0
62 925 926 0
928 880 58 0
927 222 880 0
927 880 928 0
236 927 928 0
929 877 222 0
895 12 877 0
895 877 929 0
228 895 929 0
930 927 236 0
929 222 927 0
929 927 930 0
228 929 930 0
931 930 236 0
900 228 930 0
900 930 931 0
61 900 931 0
933 925 62 0
932 234 925 0
932 925 933 0
237 932 933 0
934 922 234 0
928 58 922 0
928 922 934 0
236 928 934 0
935 932 237 0
934 234 932 0
934 932 935 0
236 934 935 0
936 935 237 0
931 236 935 0
931 935 936 0
61 931 936 0
938 933 62 0
937 237 933 0
937 933 938 0
238 937 938 0
939 936 237 0
914 61 936 0
914 936 939 0
233 914 939 0
940 937 238 0
939 237 937 0
939 937 940 0
233 939 940 0
941 940 238 0
919 233 940 0
919 940 941 0
15 919 941 0
943 921 16 0
942 235 921 0
942 921 943 0
240 942 943 0
945 926 235 0
944 62 926 0
944 926 945 0
239 944 945 0
946 942 240 0
945 235 942 0
945 942 946 0
239 945 946 0
948 946 240 0
947 239 946 0
947 946 948 0
64 947 948 0
950 938 62 0
949 238 938 0
949 938 950 0
242 949 950 0
952 941 238 0
951 15 941 0
951 941 952 0
241 951 952 0
953 949 242 0
952 238 949 0
952 949 953 0
241 952 953 0
955 953 242 0
954 241 953 0
954 953 955 0
63 954 955 0
957 947 64 0
956 239 947 0
956 947 957 0
243 956 957 0
958 944 239 0
950 62 944 0
950 944 958 0
242 950 958 0
959 956 243 0
958 239 956 0
958 956 959 0
242 958 959 0
960 959 243 0
955 242 959 0
955 959 960 0
63 955 960 0
962 957 64 0
961 243 957 0
961 957 962 0
245 961 962 0
964 960 243 0
963 63 960 0
963 960 964 0
244 963 964 0
965 961 245 0
964 243 961 0
964 961 965 0
244 964 965 0
967 965 245 0
966 244 965 0
966 965 967 0
6 966 967 0
969 711 4 0
968 178 711 0
968 711 969 0
247 968 969 0
971 708 178 0
970 45 708 0
970 708 971 0
246 970 971 0
972 968 247 0
971 178 968 0
971 968 972 0
246 971 972 0
974 972 247 0
973 246 972 0
973 972 974 0
66 973 974 0
976 699 45 0
975 175 699 0
975 699 976 0
249 975 976 0
978 696 175 0
977 10 696 0
977 696 978 0
248 977 978 0
979 975 249 0
978 175 975 0
978 975 979 0
248 978 979 0
981 979 249 0
980 248 979 0
980 979 981 0
65 980 981 0
983 973 66 0
982 246 973 0
982 973 983 0
250 982 983 0
984 970 246 0
976 45 970 0
976 970 984 0
249 976 984 0
985 982 250 0
984 246 982 0
984 982 985 0
249 984 985 0
986 985 250 0
981 249 985 0
981 985 986 0
65 981 986 0
988 983 66 0
987 250 983 0
987 983 988 0
252 987 988 0
990 986 250 0
989 65 986 0
989 986 990 0
251 989 990 0
991 987 252 0
990 250 987 0
990 987 991 0
251 990 991 0
993 991 252 0
992 251 991 0
992 991 993 0
17 992 993 0
995 689 10 0
994 171 689 0
994 689 995 0
254 994 995 0
997 686 171 0
996 44 686 0
996 686 997 0
253 996 997 0
998 994 254 0
997 171 994 0
997 994 998 0
253 997 998 0
1000 998 254 0
999 253 998 0
999 998 1000 0
67 999 1000 0
1002 682 44 0
1001 170 682 0
1001 682 1002 0
255 1001 1002 0
1003 680 170 0
841 1 680 0
841 680 1003 0
213 841 1003 0
1004 1001 255 0
1003 170 1001 0
1003 1001 1004 0
213 1003 1004 0
1005 1004 255 0
846 213 1004 0
846 1004 1005 0
56 846 1005 0
1007 999 67 0
1006 253 999 0
1006 999 1007 0
256 1006 1007 0
1008 996 253 0
1002 44 996 0
1002 996 1008 0
255 1002 1008 0
1009 1006 256 0
1008 253 1006 0
1008 1006 1009 0
255 1008 1009 0
1010 1009 256 0
1005 255 1009 0
1005 1009 1010 0
56 1005 1010 0
1012 1007 67 0
1011 256 1007 0
1011 1007 1012 0
257 1011 1012 0
1013 1010 256 0
855 56 1010 0
855 1010 1013 0
217 855 1013 0
1014 1011 257 0
1013 256 1011 0
1013 1011 1014 0
217 1013 1014 0
1015 1014 257 0
860 217 1014 0
860 1014 1015 0
14 860 1015 0
1017 992 17 0
1016 251 992 0
1016 992 1017 0
259 1016 1017 0
1019 989 251 0
1018 65 989 0
1018 989 1019 0
258 1018 1019 0
1020 1016 259 0
1019 251 1016 0
1019 1016 1020 0
258 1019 1020 0
1022 1020 259 0
1021 258 1020 0
1021 1020 1022 0
68 1021 1022 0
1024 980 65 0
1023 248 980 0
1023 980 1024 0
260 1023 1024 0
1025 977 248 0
995 10 977 0
995 977 1025 0
254 995 1025 0
1026 1023 260 0
1025 248 1023 0
1025 1023 1026 0
254 1025 1026 0
1027 1026 260 0
1000 254 1026 0
1000 1026 1027 0
67 1000 1027 0
1029 1021 68 0
1028 258 1021 0
1028 1021 1029 0
261 1028 1029 0
1030 1018 258 0
1024 65 1018 0
1024 1018 1030 0
260 1024 1030 0
1031 1028 261 0
1030 258 1028 0
1030 1028 1031 0
260 1030 1031 0
1032 1031 261 0
1027 260 1031 0
1027 1031 1032 0
67 1027 1032 0
1034 1029 68 0
1033 261 1029 0
1033 1029 1034 0
262 1033 1034 0
1035 1032 261 0
1012 67 1032 0
1012 1032 1035 0
257 1012 1035 0
1036 1033 262 0
1035 261 1033 0
1035 1033 1036 0
257 1035 1036 0
1037 1036 262 0
1015 257 1036 0
1015 1036 1037 0
14 1015 1037 0
1039 1017 17 0
1038 259 1017 0
1038 1017 1039 0
264 1038 1039 0
1041 1022 259 0
1040 68 1022 0
1040 1022 1041 0
263 1040 1041 0
1042 1038 264 0
1041 259 1038 0
1041 1038 1042 0
263 1041 1042 0
1044 1042 264 0
1043 263 1042 0
1043 1042 1044 0
69 1043 1044 0
1046 1034 68 0
1045 262 1034 0
1045 1034 1046 0
265 1045 1046 0
1047 1037 262 0
864 14 1037 0
864 1037 1047 0
219 864 1047 0
1048 1045 265 0
1047 262 1045 0
1047 1045 1048 0
219 1047 1048 0
1049 1048 265 0
866 219 1048 0
866 1048 1049 0
57 866 1049 0
1051 1043 69 0
1050 263 1043 0
1050 1043 1051 0
266 1050 1051 0
1052 1040 263 0
1046 68 1040 0
1046 1040 1052 0
265 1046 1052 0
1053 1050 266 0
1052 263 1050 0
1052 1050 1053 0
265 1052 1053 0
1054 1053 266 0
1049 265 1053 0
1049 1053 1054 0
57 1049 1054 0
1056 1051 69 0
1055 266 1051 0
1055 1051 1056 0
267 1055 1056 0
1057 1054 266 0
867 57 1054 0
867 1054 1057 0
2634 867 1057 0
1058 1055 267 0
1057 266 1055 0
1057 1055 1058 0
2634 1057 1058 0
1059 1058 267 0
2635 2634 1058 0
2635 1058 1059 0
2636 2635 1059 0
1061 966 6 0
1060 244 966 0
1060 966 1061 0
269 1060 1061 0
1063 963 244 0
1062 63 963 0
1062 963 1063 0
268 1062 1063 0
1064 1060 269 0
1063 244 1060 0
1063 1060 1064 0
268 1063 1064 0
1066 1064 269 0
1065 268 1064 0
1065 1064 1066 0
71 1065 1066 0
1068 954 63 0
1067 241 954 0
1067 954 1068 0
271 1067 1068 0
1070 951 241 0
1069 15 951 0
1069 951 1070 0
270 1069 1070 0
1071 1067 271 0
1070 241 1067 0
1070 1067 1071 0
270 1070 1071 0
1073 1071 271 0
1072 270 1071 0
1072 1071 1073 0
70 1072 1073 0
1075 1065 71 0
1074 268 1065 0
1074 1065 1075 0
272 1074 1075 0
1076 1062 268 0
1068 63 1062 0
1068 1062 1076 0
271 1068 1076 0
1077 1074 272 0
1076 268 1074 0
1076 1074 1077 0
271 1076 1077 0
1078 1077 272 0
1073 271 1077 0
1073 1077 1078 0
70 1073 1078 0
1080 1075 71 0
1079 272 1075 0
1079 1075 1080 0
274 1079 1080 0
1082 1078 272 0
1081 70 1078 0
1081 1078 1082 0
273 1081 1082 0
1083 1079 274 0
1082 272 1079 0
1082 1079 1083 0
273 1082 1083 0
1085 1083 274 0
1084 273 1083 0
1084 1083 1085 0
18 1084 1085 0
1087 918 15 0
1086 232 918 0
1086 918 1087 0
276 1086 1087 0
1089 915 232 0
1088 60 915 0
1088 915 1089 0
275 1088 1089 0
1090 1086 276 0
1089 232 1086 0
1089 1086 1090 0
275 1089 1090 0
1092 1090 276 0
1091 275 1090 0
1091 1090 1092 0
72 1091 1092 0
1094 906 60 0
1093 229 906 0
1093 906 1094 0
277 1093 1094 0
1095 903 229 0
969 4 903 0
969 903 1095 0
247 969 1095 0
1096 1093 277 0
1095 229 1093 0
1095 1093 1096 0
247 1095 1096 0
1097 1096 277 0
974 247 1096 0
974 1096 1097 0
66 974 1097 0
1099 1091 72 0
1098 275 1091 0
1098 1091 1099 0
278 1098 1099 0
1100 1088 275 0
1094 60 1088 0
1094 1088 1100 0
277 1094 1100 0
1101 1098 278 0
1100 275 1098 0
1100 1098 1101 0
277 1100 1101 0
1102 1101 278 0
1097 277 1101 0
1097 1101 1102 0
66 1097 1102 0
1104 1099 72 0
1103 278 1099 0
1103 1099 1104 0
279 1103 1104 0
1105 1102 278 0
988 66 1102 0
988 1102 1105 0
252 988 1105 0
1106 1103 279 0
1105 278 1103 0
1105 1103 1106 0
252 1105 1106 0
1107 1106 279 0
993 252 1106 0
993 1106 1107 0
17 993 1107 0
1109 1084 18 0
1108 273 1084 0
1108 1084 1109 0
281 1108 1109 0
1111 1081 273 0
1110 70 1081 0
1110 1081 1111 0
280 1110 1111 0
1112 1108 281 0
1111 273 1108 0
1111 1108 1112 0
280 1111 1112 0
1114 1112 281 0
1113 280 1112 0
1113 1112 1114 0
73 1113 1114 0
1116 1072 70 0
1115 270 1072 0
1115 1072 1116 0
282 1115 1116 0
1117 1069 270 0
1087 15 1069 0
1087 1069 1117 0
276 1087 1117 0
1118 1115 282 0
1117 270 1115 0
1117 1115 1118 0
276 1117 1118 0
1119 1118 282 0
1092 276 1118 0
1092 1118 1119 0
72 1092 1119 0
1121 1113 73 0
1120 280 1113 0
1120 1113 1121 0
283 1120 1121 0
1122 1110 280 0
1116 70 1110 0
1116 1110 1122 0
282 1116 1122 0
1123 1120 283 0
1122 280 1120 0
1122 1120 1123 0
282 1122 1123 0
1124 1123 283 0
