#!ascii - generated by CreateLabelFiles project 
3351 6390
1417 1407 91 0
1416 352 1407 0
1416 1407 1417 0
356 1416 1417 0
1418 1404 352 0
1410 86 1404 0
1410 1404 1418 0
355 1410 1418 0
1419 1416 356 0
1418 352 1416 0
1418 1416 1419 0
355 1418 1419 0
1420 1419 356 0
1415 355 1419 0
1415 1419 1420 0
90 1415 1420 0
1422 1417 91 0
1421 356 1417 0
1421 1417 1422 0
358 1421 1422 0
1424 1420 356 0
1423 90 1420 0
1423 1420 1424 0
357 1423 1424 0
1425 1421 358 0
1424 356 1421 0
1424 1421 1425 0
357 1424 1425 0
1427 1425 358 0
1426 357 1425 0
1426 1425 1427 0
23 1426 1427 0
1429 1384 21 0
1428 348 1384 0
1428 1384 1429 0
360 1428 1429 0
1431 1389 348 0
1430 89 1389 0
1430 1389 1431 0
359 1430 1431 0
1432 1428 360 0
1431 348 1428 0
1431 1428 1432 0
359 1431 1432 0
1434 1432 360 0
1433 359 1432 0
1433 1432 1434 0
93 1433 1434 0
1436 1398 89 0
1435 351 1398 0
1435 1398 1436 0
362 1435 1436 0
1438 1401 351 0
1437 4 1401 0
1437 1401 1438 0
361 1437 1438 0
1439 1435 362 0
1438 351 1435 0
1438 1435 1439 0
361 1438 1439 0
1441 1439 362 0
1440 361 1439 0
1440 1439 1441 0
92 1440 1441 0
1443 1433 93 0
1442 359 1433 0
1442 1433 1443 0
363 1442 1443 0
1444 1430 359 0
1436 89 1430 0
1436 1430 1444 0
362 1436 1444 0
1445 1442 363 0
1444 359 1442 0
1444 1442 1445 0
362 1444 1445 0
1446 1445 363 0
1441 362 1445 0
1441 1445 1446 0
92 1441 1446 0
1448 1443 93 0
1447 363 1443 0
1447 1443 1448 0
365 1447 1448 0
1450 1446 363 0
1449 92 1446 0
1449 1446 1450 0
364 1449 1450 0
1451 1447 365 0
1450 363 1447 0
1450 1447 1451 0
364 1450 1451 0
1453 1451 365 0
1452 364 1451 0
1452 1451 1453 0
22 1452 1453 0
1455 1426 23 0
1454 357 1426 0
1454 1426 1455 0
367 1454 1455 0
1457 1423 357 0
1456 90 1423 0
1456 1423 1457 0
366 1456 1457 0
1458 1454 367 0
1457 357 1454 0
1457 1454 1458 0
366 1457 1458 0
1460 1458 367 0
1459 366 1458 0
1459 1458 1460 0
94 1459 1460 0
1462 1414 90 0
1461 354 1414 0
1461 1414 1462 0
368 1461 1462 0
1463 1411 354 0
1429 21 1411 0
1429 1411 1463 0
360 1429 1463 0
1464 1461 368 0
1463 354 1461 0
1463 1461 1464 0
360 1463 1464 0
1465 1464 368 0
1434 360 1464 0
1434 1464 1465 0
93 1434 1465 0
1467 1459 94 0
1466 366 1459 0
1466 1459 1467 0
369 1466 1467 0
1468 1456 366 0
1462 90 1456 0
1462 1456 1468 0
368 1462 1468 0
1469 1466 369 0
1468 366 1466 0
1468 1466 1469 0
368 1468 1469 0
1470 1469 369 0
1465 368 1469 0
1465 1469 1470 0
93 1465 1470 0
1472 1467 94 0
1471 369 1467 0
1471 1467 1472 0
370 1471 1472 0
1473 1470 369 0
1448 93 1470 0
1448 1470 1473 0
365 1448 1473 0
1474 1471 370 0
1473 369 1471 0
1473 1471 1474 0
365 1473 1474 0
1475 1474 370 0
1453 365 1474 0
1453 1474 1475 0
22 1453 1475 0
1477 1455 23 0
1476 367 1455 0
1476 1455 1477 0
372 1476 1477 0
1479 1460 367 0
1478 94 1460 0
1478 1460 1479 0
371 1478 1479 0
1480 1476 372 0
1479 367 1476 0
1479 1476 1480 0
371 1479 1480 0
1482 1480 372 0
1481 371 1480 0
1481 1480 1482 0
96 1481 1482 0
1484 1472 94 0
1483 370 1472 0
1483 1472 1484 0
374 1483 1484 0
1486 1475 370 0
1485 22 1475 0
1485 1475 1486 0
373 1485 1486 0
1487 1483 374 0
1486 370 1483 0
1486 1483 1487 0
373 1486 1487 0
1489 1487 374 0
1488 373 1487 0
1488 1487 1489 0
95 1488 1489 0
1491 1481 96 0
1490 371 1481 0
1490 1481 1491 0
375 1490 1491 0
1492 1478 371 0
1484 94 1478 0
1484 1478 1492 0
374 1484 1492 0
1493 1490 375 0
1492 371 1490 0
1492 1490 1493 0
374 1492 1493 0
1494 1493 375 0
1489 374 1493 0
1489 1493 1494 0
95 1489 1494 0
1496 1491 96 0
1495 375 1491 0
1495 1491 1496 0
377 1495 1496 0
1498 1494 375 0
1497 95 1494 0
1497 1494 1498 0
376 1497 1498 0
1499 1495 377 0
1498 375 1495 0
1498 1495 1499 0
376 1498 1499 0
1501 1499 377 0
1500 376 1499 0
1500 1499 1501 0
0 1500 1501 0
379 3159 3160 0
378 3161 3162 0
1502 3159 379 0
3162 3159 1502 0
378 3162 1502 0
1504 1502 379 0
1503 378 1502 0
1503 1502 1504 0
24 1503 1504 0
13 3084 3163 0
1506 1503 24 0
1505 378 1503 0
1505 1503 1506 0
381 1505 1506 0
1507 3161 378 0
3164 3161 1507 0
380 3164 1507 0
1508 1505 381 0
1507 378 1505 0
1507 1505 1508 0
380 1507 1508 0
1510 1508 381 0
1509 380 1508 0
1509 1508 1510 0
97 1509 1510 0
1511 1509 97 0
3165 380 1509 0
3165 1509 1511 0
3166 3165 1511 0
3167 3164 380 0
3167 380 3165 0
1513 1511 97 0
1512 3166 1511 0
1512 1511 1513 0
382 1512 1513 0
1514 3168 3166 0
3169 3168 1514 0
3170 3169 1514 0
1515 1512 382 0
1514 3166 1512 0
1514 1512 1515 0
3170 1514 1515 0
1516 1515 382 0
3163 3170 1515 0
3163 1515 1516 0
13 3163 1516 0
1518 1506 24 0
1517 381 1506 0
1517 1506 1518 0
384 1517 1518 0
1520 1510 381 0
1519 97 1510 0
1519 1510 1520 0
383 1519 1520 0
1521 1517 384 0
1520 381 1517 0
1520 1517 1521 0
383 1520 1521 0
1523 1521 384 0
1522 383 1521 0
1522 1521 1523 0
98 1522 1523 0
1525 1513 97 0
1524 382 1513 0
1524 1513 1525 0
385 1524 1525 0
1526 1516 382 0
852 13 1516 0
852 1516 1526 0
213 852 1526 0
1527 1524 385 0
1526 382 1524 0
1526 1524 1527 0
213 1526 1527 0
1528 1527 385 0
857 213 1527 0
857 1527 1528 0
56 857 1528 0
1530 1522 98 0
1529 383 1522 0
1529 1522 1530 0
386 1529 1530 0
1531 1519 383 0
1525 97 1519 0
1525 1519 1531 0
385 1525 1531 0
1532 1529 386 0
1531 383 1529 0
1531 1529 1532 0
385 1531 1532 0
1533 1532 386 0
1528 385 1532 0
1528 1532 1533 0
56 1528 1533 0
1535 1530 98 0
1534 386 1530 0
1534 1530 1535 0
387 1534 1535 0
1536 1533 386 0
871 56 1533 0
871 1533 1536 0
218 871 1536 0
1537 1534 387 0
1536 386 1534 0
1536 1534 1537 0
218 1536 1537 0
1538 1537 387 0
876 218 1537 0
876 1537 1538 0
1 876 1538 0
1540 3171 3172 0
1539 3173 3171 0
1539 3171 1540 0
25 1539 1540 0
1541 1539 25 0
3174 3173 1539 0
3174 1539 1541 0
388 3174 1541 0
3175 3174 388 0
3176 3175 388 0
1543 1541 25 0
1542 388 1541 0
1542 1541 1543 0
390 1542 1543 0
1545 3176 388 0
1544 3177 3176 0
1544 3176 1545 0
389 1544 1545 0
1546 1542 390 0
1545 388 1542 0
1545 1542 1546 0
389 1545 1546 0
1548 1546 390 0
1547 389 1546 0
1547 1546 1548 0
100 1547 1548 0
1550 3178 3177 0
1549 3179 3178 0
1549 3178 1550 0
392 1549 1550 0
391 3180 3181 0
1551 1549 392 0
3181 3179 1549 0
3181 1549 1551 0
391 3181 1551 0
1553 1551 392 0
1552 391 1551 0
1552 1551 1553 0
99 1552 1553 0
1555 1547 100 0
1554 389 1547 0
1554 1547 1555 0
393 1554 1555 0
1556 1544 389 0
1550 3177 1544 0
1550 1544 1556 0
392 1550 1556 0
1557 1554 393 0
1556 389 1554 0
1556 1554 1557 0
392 1556 1557 0
1558 1557 393 0
1553 392 1557 0
1553 1557 1558 0
99 1553 1558 0
1560 1555 100 0
1559 393 1555 0
1559 1555 1560 0
395 1559 1560 0
1562 1558 393 0
1561 99 1558 0
1561 1558 1562 0
394 1561 1562 0
1563 1559 395 0
1562 393 1559 0
1562 1559 1563 0
394 1562 1563 0
1565 1563 395 0
1564 394 1563 0
1564 1563 1565 0
6 1564 1565 0
101 3182 3183 0
3184 3182 101 0
1566 3184 101 0
3185 3184 1566 0
396 3185 1566 0
3186 3185 396 0
1567 3186 396 0
3187 3186 1567 0
3188 3187 1567 0
1569 1564 6 0
1568 394 1564 0
1568 1564 1569 0
398 1568 1569 0
1571 1561 394 0
1570 99 1561 0
1570 1561 1571 0
397 1570 1571 0
1572 1568 398 0
1571 394 1568 0
1571 1568 1572 0
397 1571 1572 0
1574 1572 398 0
1573 397 1572 0
1573 1572 1574 0
103 1573 1574 0
1576 1552 99 0
1575 391 1552 0
1575 1552 1576 0
399 1575 1576 0
3189 3180 391 0
1577 1575 399 0
3189 391 1575 0
3189 1575 1577 0
3190 3189 1577 0
1578 1577 399 0
3191 3190 1577 0
3191 1577 1578 0
102 3191 1578 0
1580 1573 103 0
1579 397 1573 0
1579 1573 1580 0
400 1579 1580 0
1581 1570 397 0
1576 99 1570 0
1576 1570 1581 0
399 1576 1581 0
1582 1579 400 0
1581 397 1579 0
1581 1579 1582 0
399 1581 1582 0
1583 1582 400 0
1578 399 1582 0
1578 1582 1583 0
102 1578 1583 0
1585 1580 103 0
1584 400 1580 0
1584 1580 1585 0
402 1584 1585 0
1587 1583 400 0
1586 102 1583 0
1586 1583 1587 0
401 1586 1587 0
1588 1584 402 0
1587 400 1584 0
1587 1584 1588 0
401 1587 1588 0
1590 1588 402 0
1589 401 1588 0
1589 1588 1590 0
26 1589 1590 0
1592 1589 26 0
1591 401 1589 0
1591 1589 1592 0
403 1591 1592 0
1594 1586 401 0
1593 102 1586 0
1593 1586 1594 0
3192 1593 1594 0
1595 1591 403 0
1594 401 1591 0
1594 1591 1595 0
3192 1594 1595 0
1596 1595 403 0
3193 3192 1595 0
3193 1595 1596 0
3194 3193 1596 0
3195 3191 102 0
3196 1593 3192 0
3195 102 1593 0
3195 1593 3196 0
1598 1592 26 0
1597 403 1592 0
1597 1592 1598 0
405 1597 1598 0
1599 1596 403 0
3197 3194 1596 0
3197 1596 1599 0
404 3197 1599 0
1600 1597 405 0
1599 403 1597 0
1599 1597 1600 0
404 1599 1600 0
1602 1600 405 0
1601 404 1600 0
1601 1600 1602 0
104 1601 1602 0
406 3198 3199 0
3200 3198 406 0
3201 3200 406 0
101 3183 3201 0
1603 1601 104 0
3202 404 1601 0
3202 1601 1603 0
407 3202 1603 0
1604 3197 404 0
3199 3197 1604 0
406 3199 1604 0
1605 3202 407 0
1604 404 3202 0
1604 3202 1605 0
406 1604 1605 0
1606 1605 407 0
3201 406 1605 0
3201 1605 1606 0
101 3201 1606 0
1608 1603 104 0
1607 407 1603 0
1607 1603 1608 0
408 1607 1608 0
1609 1606 407 0
1566 101 1606 0
1566 1606 1609 0
396 1566 1609 0
1610 1607 408 0
1609 407 1607 0
1609 1607 1610 0
396 1609 1610 0
1611 1610 408 0
1567 396 1610 0
1567 1610 1611 0
3188 1567 1611 0
1613 1569 6 0
1612 398 1569 0
1612 1569 1613 0
410 1612 1613 0
1615 1574 398 0
1614 103 1574 0
1614 1574 1615 0
409 1614 1615 0
1616 1612 410 0
1615 398 1612 0
1615 1612 1616 0
409 1615 1616 0
1618 1616 410 0
1617 409 1616 0
1617 1616 1618 0
106 1617 1618 0
1620 1585 103 0
1619 402 1585 0
1619 1585 1620 0
412 1619 1620 0
1622 1590 402 0
1621 26 1590 0
1621 1590 1622 0
411 1621 1622 0
1623 1619 412 0
1622 402 1619 0
1622 1619 1623 0
411 1622 1623 0
1625 1623 412 0
1624 411 1623 0
1624 1623 1625 0
105 1624 1625 0
1627 1617 106 0
1626 409 1617 0
1626 1617 1627 0
413 1626 1627 0
1628 1614 409 0
1620 103 1614 0
1620 1614 1628 0
412 1620 1628 0
1629 1626 413 0
1628 409 1626 0
1628 1626 1629 0
412 1628 1629 0
1630 1629 413 0
1625 412 1629 0
1625 1629 1630 0
105 1625 1630 0
1632 1627 106 0
1631 413 1627 0
1631 1627 1632 0
415 1631 1632 0
1634 1630 413 0
1633 105 1630 0
1633 1630 1634 0
414 1633 1634 0
1635 1631 415 0
1634 413 1631 0
1634 1631 1635 0
414 1634 1635 0
1637 1635 415 0
1636 414 1635 0
1636 1635 1637 0
27 1636 1637 0
1639 1598 26 0
1638 405 1598 0
1638 1598 1639 0
417 1638 1639 0
1641 1602 405 0
1640 104 1602 0
1640 1602 1641 0
416 1640 1641 0
1642 1638 417 0
1641 405 1638 0
1641 1638 1642 0
416 1641 1642 0
1644 1642 417 0
1643 416 1642 0
1643 1642 1644 0
107 1643 1644 0
1646 1608 104 0
1645 408 1608 0
1645 1608 1646 0
3203 1645 1646 0
1647 1611 408 0
3204 3188 1611 0
3204 1611 1647 0
3205 3204 1647 0
1648 1645 3203 0
1647 408 1645 0
1647 1645 1648 0
3205 1647 1648 0
1649 1648 3203 0
3206 3205 1648 0
3206 1648 1649 0
3207 3206 1649 0
1651 1643 107 0
1650 416 1643 0
1650 1643 1651 0
418 1650 1651 0
1652 1640 416 0
1646 104 1640 0
1646 1640 1652 0
3203 1646 1652 0
1653 1650 418 0
1652 416 1650 0
1652 1650 1653 0
3203 1652 1653 0
3208 1653 418 0
1649 3203 1653 0
1649 1653 3208 0
3207 1649 3208 0
1655 1651 107 0
1654 418 1651 0
1654 1651 1655 0
419 1654 1655 0
1656 3208 418 0
3160 3208 1656 0
379 3160 1656 0
1657 1654 419 0
1656 418 1654 0
1656 1654 1657 0
379 1656 1657 0
1658 1657 419 0
1504 379 1657 0
1504 1657 1658 0
24 1504 1658 0
1660 1636 27 0
1659 414 1636 0
1659 1636 1660 0
421 1659 1660 0
1662 1633 414 0
1661 105 1633 0
1661 1633 1662 0
420 1661 1662 0
1663 1659 421 0
1662 414 1659 0
1662 1659 1663 0
420 1662 1663 0
1665 1663 421 0
1664 420 1663 0
1664 1663 1665 0
108 1664 1665 0
1667 1624 105 0
1666 411 1624 0
1666 1624 1667 0
422 1666 1667 0
1668 1621 411 0
1639 26 1621 0
1639 1621 1668 0
417 1639 1668 0
1669 1666 422 0
1668 411 1666 0
1668 1666 1669 0
417 1668 1669 0
1670 1669 422 0
1644 417 1669 0
1644 1669 1670 0
107 1644 1670 0
1672 1664 108 0
1671 420 1664 0
1671 1664 1672 0
423 1671 1672 0
1673 1661 420 0
1667 105 1661 0
1667 1661 1673 0
422 1667 1673 0
1674 1671 423 0
1673 420 1671 0
1673 1671 1674 0
422 1673 1674 0
1675 1674 423 0
1670 422 1674 0
1670 1674 1675 0
107 1670 1675 0
1677 1672 108 0
1676 423 1672 0
1676 1672 1677 0
424 1676 1677 0
1678 1675 423 0
1655 107 1675 0
1655 1675 1678 0
419 1655 1678 0
1679 1676 424 0
1678 423 1676 0
1678 1676 1679 0
419 1678 1679 0
1680 1679 424 0
1658 419 1679 0
1658 1679 1680 0
24 1658 1680 0
1682 1660 27 0
1681 421 1660 0
1681 1660 1682 0
426 1681 1682 0
1684 1665 421 0
1683 108 1665 0
1683 1665 1684 0
425 1683 1684 0
1685 1681 426 0
1684 421 1681 0
1684 1681 1685 0
425 1684 1685 0
1687 1685 426 0
1686 425 1685 0
1686 1685 1687 0
109 1686 1687 0
1689 1677 108 0
1688 424 1677 0
1688 1677 1689 0
427 1688 1689 0
1690 1680 424 0
1518 24 1680 0
1518 1680 1690 0
384 1518 1690 0
1691 1688 427 0
1690 424 1688 0
1690 1688 1691 0
384 1690 1691 0
1692 1691 427 0
1523 384 1691 0
1523 1691 1692 0
98 1523 1692 0
1694 1686 109 0
1693 425 1686 0
1693 1686 1694 0
428 1693 1694 0
1695 1683 425 0
1689 108 1683 0
1689 1683 1695 0
427 1689 1695 0
1696 1693 428 0
1695 425 1693 0
1695 1693 1696 0
427 1695 1696 0
1697 1696 428 0
1692 427 1696 0
1692 1696 1697 0
98 1692 1697 0
1699 1694 109 0
1698 428 1694 0
1698 1694 1699 0
429 1698 1699 0
1700 1697 428 0
1535 98 1697 0
1535 1697 1700 0
387 1535 1700 0
1701 1698 429 0
1700 428 1698 0
1700 1698 1701 0
387 1700 1701 0
1702 1701 429 0
1538 387 1701 0
1538 1701 1702 0
1 1538 1702 0
431 3209 3210 0
1704 1540 3172 0
1703 25 1540 0
1703 1540 1704 0
430 1703 1704 0
1705 3209 431 0
1704 3172 3209 0
1704 3209 1705 0
430 1704 1705 0
1707 1705 431 0
1706 430 1705 0
1706 1705 1707 0
110 1706 1707 0
432 3211 3212 0
431 3210 3213 0
3214 3211 432 0
431 3213 3214 0
1708 3214 432 0
1707 431 3214 0
1707 3214 1708 0
110 1707 1708 0
1710 3212 3215 0
1709 432 3212 0
1709 3212 1710 0
434 1709 1710 0
1712 1708 432 0
1711 110 1708 0
1711 1708 1712 0
433 1711 1712 0
1713 1709 434 0
1712 432 1709 0
1712 1709 1713 0
433 1712 1713 0
1715 1713 434 0
1714 433 1713 0
1714 1713 1715 0
29 1714 1715 0
1717 1543 25 0
1716 390 1543 0
1716 1543 1717 0
436 1716 1717 0
1719 1548 390 0
1718 100 1548 0
1718 1548 1719 0
435 1718 1719 0
1720 1716 436 0
1719 390 1716 0
1719 1716 1720 0
435 1719 1720 0
1722 1720 436 0
1721 435 1720 0
1721 1720 1722 0
112 1721 1722 0
1724 1560 100 0
1723 395 1560 0
1723 1560 1724 0
438 1723 1724 0
1726 1565 395 0
1725 6 1565 0
1725 1565 1726 0
437 1725 1726 0
1727 1723 438 0
1726 395 1723 0
1726 1723 1727 0
437 1726 1727 0
1729 1727 438 0
1728 437 1727 0
1728 1727 1729 0
111 1728 1729 0
1731 1721 112 0
1730 435 1721 0
1730 1721 1731 0
439 1730 1731 0
1732 1718 435 0
1724 100 1718 0
1724 1718 1732 0
438 1724 1732 0
1733 1730 439 0
1732 435 1730 0
1732 1730 1733 0
438 1732 1733 0
1734 1733 439 0
1729 438 1733 0
1729 1733 1734 0
111 1729 1734 0
1736 1731 112 0
1735 439 1731 0
1735 1731 1736 0
441 1735 1736 0
1738 1734 439 0
1737 111 1734 0
1737 1734 1738 0
440 1737 1738 0
1739 1735 441 0
1738 439 1735 0
1738 1735 1739 0
440 1738 1739 0
1741 1739 441 0
1740 440 1739 0
1740 1739 1741 0
28 1740 1741 0
1743 1714 29 0
1742 433 1714 0
1742 1714 1743 0
443 1742 1743 0
1745 1711 433 0
1744 110 1711 0
1744 1711 1745 0
442 1744 1745 0
1746 1742 443 0
1745 433 1742 0
1745 1742 1746 0
442 1745 1746 0
1748 1746 443 0
1747 442 1746 0
1747 1746 1748 0
113 1747 1748 0
1750 1706 110 0
1749 430 1706 0
1749 1706 1750 0
444 1749 1750 0
1751 1703 430 0
1717 25 1703 0
1717 1703 1751 0
436 1717 1751 0
1752 1749 444 0
1751 430 1749 0
1751 1749 1752 0
436 1751 1752 0
1753 1752 444 0
1722 436 1752 0
1722 1752 1753 0
112 1722 1753 0
1755 1747 113 0
1754 442 1747 0
1754 1747 1755 0
445 1754 1755 0
1756 1744 442 0
1750 110 1744 0
1750 1744 1756 0
444 1750 1756 0
1757 1754 445 0
1756 442 1754 0
1756 1754 1757 0
444 1756 1757 0
1758 1757 445 0
1753 444 1757 0
1753 1757 1758 0
112 1753 1758 0
1760 1755 113 0
1759 445 1755 0
1759 1755 1760 0
446 1759 1760 0
1761 1758 445 0
1736 112 1758 0
1736 1758 1761 0
441 1736 1761 0
1762 1759 446 0
1761 445 1759 0
1761 1759 1762 0
441 1761 1762 0
1763 1762 446 0
1741 441 1762 0
1741 1762 1763 0
28 1741 1763 0
1765 1743 29 0
1764 443 1743 0
1764 1743 1765 0
448 1764 1765 0
1767 1748 443 0
1766 113 1748 0
1766 1748 1767 0
447 1766 1767 0
1768 1764 448 0
1767 443 1764 0
1767 1764 1768 0
447 1767 1768 0
1770 1768 448 0
1769 447 1768 0
1769 1768 1770 0
115 1769 1770 0
1772 1760 113 0
1771 446 1760 0
1771 1760 1772 0
450 1771 1772 0
1774 1763 446 0
1773 28 1763 0
1773 1763 1774 0
449 1773 1774 0
1775 1771 450 0
1774 446 1771 0
1774 1771 1775 0
449 1774 1775 0
1777 1775 450 0
1776 449 1775 0
1776 1775 1777 0
114 1776 1777 0
1779 1769 115 0
1778 447 1769 0
1778 1769 1779 0
451 1778 1779 0
1780 1766 447 0
1772 113 1766 0
1772 1766 1780 0
450 1772 1780 0
1781 1778 451 0
1780 447 1778 0
1780 1778 1781 0
450 1780 1781 0
1782 1781 451 0
1777 450 1781 0
1777 1781 1782 0
114 1777 1782 0
1784 1779 115 0
1783 451 1779 0
1783 1779 1784 0
453 1783 1784 0
1786 1782 451 0
1785 114 1782 0
1785 1782 1786 0
452 1785 1786 0
1787 1783 453 0
1786 451 1783 0
1786 1783 1787 0
452 1786 1787 0
1789 1787 453 0
1788 452 1787 0
1788 1787 1789 0
7 1788 1789 0
1791 1613 6 0
1790 410 1613 0
1790 1613 1791 0
455 1790 1791 0
1793 1618 410 0
1792 106 1618 0
1792 1618 1793 0
454 1792 1793 0
1794 1790 455 0
1793 410 1790 0
1793 1790 1794 0
454 1793 1794 0
1796 1794 455 0
1795 454 1794 0
1795 1794 1796 0
117 1795 1796 0
1798 1632 106 0
1797 415 1632 0
1797 1632 1798 0
457 1797 1798 0
1800 1637 415 0
1799 27 1637 0
1799 1637 1800 0
456 1799 1800 0
1801 1797 457 0
1800 415 1797 0
1800 1797 1801 0
456 1800 1801 0
1803 1801 457 0
1802 456 1801 0
1802 1801 1803 0
116 1802 1803 0
1805 1795 117 0
1804 454 1795 0
1804 1795 1805 0
458 1804 1805 0
1806 1792 454 0
1798 106 1792 0
1798 1792 1806 0
457 1798 1806 0
1807 1804 458 0
1806 454 1804 0
1806 1804 1807 0
457 1806 1807 0
1808 1807 458 0
1803 457 1807 0
1803 1807 1808 0
116 1803 1808 0
1810 1805 117 0
1809 458 1805 0
1809 1805 1810 0
460 1809 1810 0
1812 1808 458 0
1811 116 1808 0
1811 1808 1812 0
459 1811 1812 0
1813 1809 460 0
1812 458 1809 0
1812 1809 1813 0
459 1812 1813 0
1815 1813 460 0
1814 459 1813 0
1814 1813 1815 0
30 1814 1815 0
1817 1682 27 0
1816 426 1682 0
1816 1682 1817 0
462 1816 1817 0
1819 1687 426 0
1818 109 1687 0
1818 1687 1819 0
461 1818 1819 0
1820 1816 462 0
1819 426 1816 0
1819 1816 1820 0
461 1819 1820 0
1822 1820 462 0
1821 461 1820 0
1821 1820 1822 0
118 1821 1822 0
1824 1699 109 0
1823 429 1699 0
1823 1699 1824 0
463 1823 1824 0
1825 1702 429 0
1214 1 1702 0
1214 1702 1825 0
304 1214 1825 0
1826 1823 463 0
1825 429 1823 0
1825 1823 1826 0
304 1825 1826 0
1827 1826 463 0
1219 304 1826 0
1219 1826 1827 0
79 1219 1827 0
1829 1821 118 0
1828 461 1821 0
1828 1821 1829 0
464 1828 1829 0
1830 1818 461 0
1824 109 1818 0
1824 1818 1830 0
463 1824 1830 0
1831 1828 464 0
1830 461 1828 0
1830 1828 1831 0
463 1830 1831 0
1832 1831 464 0
1827 463 1831 0
1827 1831 1832 0
79 1827 1832 0
1834 1829 118 0
1833 464 1829 0
1833 1829 1834 0
465 1833 1834 0
1835 1832 464 0
1233 79 1832 0
1233 1832 1835 0
309 1233 1835 0
1836 1833 465 0
1835 464 1833 0
1835 1833 1836 0
309 1835 1836 0
1837 1836 465 0
1238 309 1836 0
1238 1836 1837 0
20 1238 1837 0
1839 1814 30 0
1838 459 1814 0
1838 1814 1839 0
467 1838 1839 0
1841 1811 459 0
1840 116 1811 0
1840 1811 1841 0
466 1840 1841 0
1842 1838 467 0
1841 459 1838 0
1841 1838 1842 0
466 1841 1842 0
1844 1842 467 0
1843 466 1842 0
1843 1842 1844 0
119 1843 1844 0
1846 1802 116 0
1845 456 1802 0
1845 1802 1846 0
468 1845 1846 0
1847 1799 456 0
1817 27 1799 0
1817 1799 1847 0
462 1817 1847 0
1848 1845 468 0
1847 456 1845 0
1847 1845 1848 0
462 1847 1848 0
1849 1848 468 0
1822 462 1848 0
1822 1848 1849 0
118 1822 1849 0
1851 1843 119 0
1850 466 1843 0
1850 1843 1851 0
469 1850 1851 0
1852 1840 466 0
1846 116 1840 0
1846 1840 1852 0
468 1846 1852 0
1853 1850 469 0
1852 466 1850 0
1852 1850 1853 0
468 1852 1853 0
1854 1853 469 0
1849 468 1853 0
1849 1853 1854 0
118 1849 1854 0
1856 1851 119 0
1855 469 1851 0
1855 1851 1856 0
470 1855 1856 0
1857 1854 469 0
1834 118 1854 0
1834 1854 1857 0
465 1834 1857 0
1858 1855 470 0
1857 469 1855 0
1857 1855 1858 0
465 1857 1858 0
1859 1858 470 0
1837 465 1858 0
1837 1858 1859 0
20 1837 1859 0
1861 1839 30 0
1860 467 1839 0
1860 1839 1861 0
472 1860 1861 0
1863 1844 467 0
1862 119 1844 0
1862 1844 1863 0
471 1862 1863 0
1864 1860 472 0
1863 467 1860 0
1863 1860 1864 0
471 1863 1864 0
1866 1864 472 0
1865 471 1864 0
1865 1864 1866 0
120 1865 1866 0
1868 1856 119 0
1867 470 1856 0
1867 1856 1868 0
473 1867 1868 0
1869 1859 470 0
1288 20 1859 0
1288 1859 1869 0
323 1288 1869 0
1870 1867 473 0
1869 470 1867 0
1869 1867 1870 0
323 1869 1870 0
1871 1870 473 0
1293 323 1870 0
1293 1870 1871 0
84 1293 1871 0
1873 1865 120 0
1872 471 1865 0
1872 1865 1873 0
474 1872 1873 0
1874 1862 471 0
1868 119 1862 0
1868 1862 1874 0
473 1868 1874 0
1875 1872 474 0
1874 471 1872 0
1874 1872 1875 0
473 1874 1875 0
1876 1875 474 0
1871 473 1875 0
1871 1875 1876 0
84 1871 1876 0
1878 1873 120 0
1877 474 1873 0
1877 1873 1878 0
475 1877 1878 0
1879 1876 474 0
1307 84 1876 0
1307 1876 1879 0
328 1307 1879 0
1880 1877 475 0
1879 474 1877 0
1879 1877 1880 0
328 1879 1880 0
1881 1880 475 0
1312 328 1880 0
1312 1880 1881 0
5 1312 1881 0
1883 1788 7 0
1882 452 1788 0
1882 1788 1883 0
477 1882 1883 0
1885 1785 452 0
1884 114 1785 0
1884 1785 1885 0
476 1884 1885 0
1886 1882 477 0
1885 452 1882 0
1885 1882 1886 0
476 1885 1886 0
1888 1886 477 0
1887 476 1886 0
1887 1886 1888 0
122 1887 1888 0
1890 1776 114 0
1889 449 1776 0
1889 1776 1890 0
479 1889 1890 0
1892 1773 449 0
1891 28 1773 0
1891 1773 1892 0
478 1891 1892 0
1893 1889 479 0
1892 449 1889 0
1892 1889 1893 0
478 1892 1893 0
1895 1893 479 0
1894 478 1893 0
1894 1893 1895 0
121 1894 1895 0
1897 1887 122 0
1896 476 1887 0
1896 1887 1897 0
480 1896 1897 0
1898 1884 476 0
1890 114 1884 0
1890 1884 1898 0
479 1890 1898 0
1899 1896 480 0
1898 476 1896 0
1898 1896 1899 0
479 1898 1899 0
1900 1899 480 0
1895 479 1899 0
1895 1899 1900 0
121 1895 1900 0
1902 1897 122 0
1901 480 1897 0
1901 1897 1902 0
482 1901 1902 0
1904 1900 480 0
1903 121 1900 0
1903 1900 1904 0
481 1903 1904 0
1905 1901 482 0
1904 480 1901 0
1904 1901 1905 0
481 1904 1905 0
1907 1905 482 0
1906 481 1905 0
1906 1905 1907 0
31 1906 1907 0
1909 1740 28 0
1908 440 1740 0
1908 1740 1909 0
484 1908 1909 0
1911 1737 440 0
1910 111 1737 0
1910 1737 1911 0
483 1910 1911 0
1912 1908 484 0
1911 440 1908 0
1911 1908 1912 0
483 1911 1912 0
1914 1912 484 0
1913 483 1912 0
1913 1912 1914 0
123 1913 1914 0
1916 1728 111 0
1915 437 1728 0
1915 1728 1916 0
485 1915 1916 0
1917 1725 437 0
1791 6 1725 0
1791 1725 1917 0
455 1791 1917 0
1918 1915 485 0
1917 437 1915 0
1917 1915 1918 0
455 1917 1918 0
1919 1918 485 0
1796 455 1918 0
1796 1918 1919 0
117 1796 1919 0
1921 1913 123 0
1920 483 1913 0
1920 1913 1921 0
486 1920 1921 0
1922 1910 483 0
1916 111 1910 0
1916 1910 1922 0
485 1916 1922 0
1923 1920 486 0
1922 483 1920 0
1922 1920 1923 0
485 1922 1923 0
1924 1923 486 0
1919 485 1923 0
1919 1923 1924 0
117 1919 1924 0
1926 1921 123 0
1925 486 1921 0
1925 1921 1926 0
487 1925 1926 0
1927 1924 486 0
1810 117 1924 0
1810 1924 1927 0
460 1810 1927 0
1928 1925 487 0
1927 486 1925 0
1927 1925 1928 0
460 1927 1928 0
1929 1928 487 0
1815 460 1928 0
1815 1928 1929 0
30 1815 1929 0
1931 1906 31 0
1930 481 1906 0
1930 1906 1931 0
489 1930 1931 0
1933 1903 481 0
1932 121 1903 0
1932 1903 1933 0
488 1932 1933 0
1934 1930 489 0
1933 481 1930 0
1933 1930 1934 0
488 1933 1934 0
1936 1934 489 0
1935 488 1934 0
1935 1934 1936 0
124 1935 1936 0
1938 1894 121 0
1937 478 1894 0
1937 1894 1938 0
490 1937 1938 0
1939 1891 478 0
1909 28 1891 0
1909 1891 1939 0
484 1909 1939 0
1940 1937 490 0
1939 478 1937 0
1939 1937 1940 0
484 1939 1940 0
1941 1940 490 0
1914 484 1940 0
1914 1940 1941 0
123 1914 1941 0
1943 1935 124 0
1942 488 1935 0
1942 1935 1943 0
491 1942 1943 0
1944 1932 488 0
1938 121 1932 0
1938 1932 1944 0
490 1938 1944 0
1945 1942 491 0
1944 488 1942 0
1944 1942 1945 0
490 1944 1945 0
1946 1945 491 0
1941 490 1945 0
1941 1945 1946 0
123 1941 1946 0
1948 1943 124 0
1947 491 1943 0
1947 1943 1948 0
492 1947 1948 0
1949 1946 491 0
1926 123 1946 0
1926 1946 1949 0
487 1926 1949 0
1950 1947 492 0
1949 491 1947 0
1949 1947 1950 0
487 1949 1950 0
1951 1950 492 0
1929 487 1950 0
1929 1950 1951 0
30 1929 1951 0
1953 1931 31 0
1952 489 1931 0
1952 1931 1953 0
494 1952 1953 0
1955 1936 489 0
1954 124 1936 0
1954 1936 1955 0
493 1954 1955 0
1956 1952 494 0
1955 489 1952 0
1955 1952 1956 0
493 1955 1956 0
1958 1956 494 0
1957 493 1956 0
1957 1956 1958 0
125 1957 1958 0
1960 1948 124 0
1959 492 1948 0
1959 1948 1960 0
495 1959 1960 0
1961 1951 492 0
1861 30 1951 0
1861 1951 1961 0
472 1861 1961 0
1962 1959 495 0
1961 492 1959 0
1961 1959 1962 0
472 1961 1962 0
1963 1962 495 0
1866 472 1962 0
1866 1962 1963 0
120 1866 1963 0
1965 1957 125 0
1964 493 1957 0
1964 1957 1965 0
496 1964 1965 0
1966 1954 493 0
1960 124 1954 0
1960 1954 1966 0
495 1960 1966 0
1967 1964 496 0
1966 493 1964 0
1966 1964 1967 0
495 1966 1967 0
1968 1967 496 0
1963 495 1967 0
1963 1967 1968 0
120 1963 1968 0
1970 1965 125 0
1969 496 1965 0
1969 1965 1970 0
497 1969 1970 0
1971 1968 496 0
1878 120 1968 0
1878 1968 1971 0
475 1878 1971 0
1972 1969 497 0
1971 496 1969 0
1971 1969 1972 0
475 1971 1972 0
1973 1972 497 0
1881 475 1972 0
1881 1972 1973 0
5 1881 1973 0
1975 1883 7 0
1974 477 1883 0
1974 1883 1975 0
499 1974 1975 0
1977 1888 477 0
1976 122 1888 0
1976 1888 1977 0
498 1976 1977 0
1978 1974 499 0
1977 477 1974 0
1977 1974 1978 0
498 1977 1978 0
1980 1978 499 0
1979 498 1978 0
1979 1978 1980 0
127 1979 1980 0
1982 1902 122 0
1981 482 1902 0
1981 1902 1982 0
501 1981 1982 0
1984 1907 482 0
1983 31 1907 0
1983 1907 1984 0
500 1983 1984 0
1985 1981 501 0
1984 482 1981 0
1984 1981 1985 0
500 1984 1985 0
1987 1985 501 0
1986 500 1985 0
1986 1985 1987 0
126 1986 1987 0
1989 1979 127 0
1988 498 1979 0
1988 1979 1989 0
502 1988 1989 0
1990 1976 498 0
1982 122 1976 0
1982 1976 1990 0
501 1982 1990 0
1991 1988 502 0
1990 498 1988 0
1990 1988 1991 0
501 1990 1991 0
1992 1991 502 0
1987 501 1991 0
1987 1991 1992 0
126 1987 1992 0
1994 1989 127 0
1993 502 1989 0
1993 1989 1994 0
504 1993 1994 0
1996 1992 502 0
1995 126 1992 0
1995 1992 1996 0
503 1995 1996 0
1997 1993 504 0
1996 502 1993 0
1996 1993 1997 0
503 1996 1997 0
1999 1997 504 0
1998 503 1997 0
1998 1997 1999 0
32 1998 1999 0
2001 1953 31 0
2000 494 1953 0
2000 1953 2001 0
506 2000 2001 0
2003 1958 494 0
2002 125 1958 0
2002 1958 2003 0
505 2002 2003 0
2004 2000 506 0
2003 494 2000 0
2003 2000 2004 0
505 2003 2004 0
2006 2004 506 0
2005 505 2004 0
2005 2004 2006 0
128 2005 2006 0
2008 1970 125 0
2007 497 1970 0
2007 1970 2008 0
507 2007 2008 0
2009 1973 497 0
1403 5 1973 0
1403 1973 2009 0
353 1403 2009 0
2010 2007 507 0
2009 497 2007 0
2009 2007 2010 0
353 2009 2010 0
2011 2010 507 0
1408 353 2010 0
1408 2010 2011 0
91 1408 2011 0
2013 2005 128 0
2012 505 2005 0
2012 2005 2013 0
508 2012 2013 0
2014 2002 505 0
2008 125 2002 0
2008 2002 2014 0
507 2008 2014 0
2015 2012 508 0
2014 505 2012 0
2014 2012 2015 0
507 2014 2015 0
2016 2015 508 0
2011 507 2015 0
2011 2015 2016 0
91 2011 2016 0
2018 2013 128 0
2017 508 2013 0
2017 2013 2018 0
509 2017 2018 0
2019 2016 508 0
1422 91 2016 0
1422 2016 2019 0
358 1422 2019 0
2020 2017 509 0
2019 508 2017 0
2019 2017 2020 0
358 2019 2020 0
2021 2020 509 0
1427 358 2020 0
1427 2020 2021 0
23 1427 2021 0
2023 1998 32 0
2022 503 1998 0
2022 1998 2023 0
511 2022 2023 0
2025 1995 503 0
2024 126 1995 0
2024 1995 2025 0
510 2024 2025 0
2026 2022 511 0
2025 503 2022 0
2025 2022 2026 0
510 2025 2026 0
2028 2026 511 0
2027 510 2026 0
2027 2026 2028 0
129 2027 2028 0
2030 1986 126 0
2029 500 1986 0
2029 1986 2030 0
512 2029 2030 0
2031 1983 500 0
2001 31 1983 0
2001 1983 2031 0
506 2001 2031 0
2032 2029 512 0
2031 500 2029 0
2031 2029 2032 0
506 2031 2032 0
2033 2032 512 0
2006 506 2032 0
2006 2032 2033 0
128 2006 2033 0
2035 2027 129 0
2034 510 2027 0
2034 2027 2035 0
513 2034 2035 0
2036 2024 510 0
2030 126 2024 0
2030 2024 2036 0
512 2030 2036 0
2037 2034 513 0
2036 510 2034 0
2036 2034 2037 0
512 2036 2037 0
2038 2037 513 0
2033 512 2037 0
2033 2037 2038 0
128 2033 2038 0
2040 2035 129 0
2039 513 2035 0
2039 2035 2040 0
514 2039 2040 0
2041 2038 513 0
2018 128 2038 0
2018 2038 2041 0
509 2018 2041 0
2042 2039 514 0
2041 513 2039 0
2041 2039 2042 0
509 2041 2042 0
2043 2042 514 0
2021 509 2042 0
2021 2042 2043 0
23 2021 2043 0
2045 2023 32 0
2044 511 2023 0
2044 2023 2045 0
516 2044 2045 0
2047 2028 511 0
2046 129 2028 0
2046 2028 2047 0
515 2046 2047 0
2048 2044 516 0
2047 511 2044 0
2047 2044 2048 0
515 2047 2048 0
2050 2048 516 0
2049 515 2048 0
2049 2048 2050 0
130 2049 2050 0
2052 2040 129 0
2051 514 2040 0
2051 2040 2052 0
517 2051 2052 0
2053 2043 514 0
1477 23 2043 0
1477 2043 2053 0
372 1477 2053 0
2054 2051 517 0
2053 514 2051 0
2053 2051 2054 0
372 2053 2054 0
2055 2054 517 0
1482 372 2054 0
1482 2054 2055 0
96 1482 2055 0
2057 2049 130 0
2056 515 2049 0
2056 2049 2057 0
518 2056 2057 0
2058 2046 515 0
2052 129 2046 0
2052 2046 2058 0
517 2052 2058 0
2059 2056 518 0
2058 515 2056 0
2058 2056 2059 0
517 2058 2059 0
2060 2059 518 0
2055 517 2059 0
2055 2059 2060 0
96 2055 2060 0
2062 2057 130 0
2061 518 2057 0
2061 2057 2062 0
519 2061 2062 0
2063 2060 518 0
1496 96 2060 0
1496 2060 2063 0
377 1496 2063 0
2064 2061 519 0
2063 518 2061 0
2063 2061 2064 0
377 2063 2064 0
2065 2064 519 0
1501 377 2064 0
1501 2064 2065 0
0 1501 2065 0
3216 1710 3215 0
2066 434 1710 0
2066 1710 3216 0
3217 2066 3216 0
2068 1715 434 0
2067 29 1715 0
2067 1715 2068 0
520 2067 2068 0
2069 2066 3217 0
2068 434 2066 0
2068 2066 2069 0
520 2068 2069 0
3218 2069 3217 0
2070 520 2069 0
2070 2069 3218 0
3219 2070 3218 0
2072 1765 29 0
2071 448 1765 0
2071 1765 2072 0
522 2071 2072 0
2074 1770 448 0
2073 115 1770 0
2073 1770 2074 0
521 2073 2074 0
2075 2071 522 0
2074 448 2071 0
2074 2071 2075 0
521 2074 2075 0
2077 2075 522 0
2076 521 2075 0
2076 2075 2077 0
132 2076 2077 0
2079 1784 115 0
2078 453 1784 0
2078 1784 2079 0
524 2078 2079 0
2081 1789 453 0
2080 7 1789 0
2080 1789 2081 0
523 2080 2081 0
2082 2078 524 0
2081 453 2078 0
2081 2078 2082 0
523 2081 2082 0
2084 2082 524 0
2083 523 2082 0
2083 2082 2084 0
131 2083 2084 0
2086 2076 132 0
2085 521 2076 0
2085 2076 2086 0
525 2085 2086 0
2087 2073 521 0
2079 115 2073 0
2079 2073 2087 0
524 2079 2087 0
2088 2085 525 0
2087 521 2085 0
2087 2085 2088 0
524 2087 2088 0
2089 2088 525 0
2084 524 2088 0
2084 2088 2089 0
131 2084 2089 0
2091 2086 132 0
2090 525 2086 0
2090 2086 2091 0
527 2090 2091 0
2093 2089 525 0
2092 131 2089 0
2092 2089 2093 0
526 2092 2093 0
2094 2090 527 0
2093 525 2090 0
2093 2090 2094 0
526 2093 2094 0
2096 2094 527 0
2095 526 2094 0
2095 2094 2096 0
33 2095 2096 0
133 3220 3221 0
2098 2070 3219 0
2097 520 2070 0
2097 2070 2098 0
528 2097 2098 0
2099 2067 520 0
2072 29 2067 0
2072 2067 2099 0
522 2072 2099 0
2100 2097 528 0
2099 520 2097 0
2099 2097 2100 0
522 2099 2100 0
2101 2100 528 0
2077 522 2100 0
2077 2100 2101 0
132 2077 2101 0
2103 3220 133 0
2102 3222 3220 0
2102 3220 2103 0
529 2102 2103 0
2104 3223 3222 0
2098 3219 3223 0
2098 3223 2104 0
528 2098 2104 0
2105 2102 529 0
2104 3222 2102 0
2104 2102 2105 0
528 2104 2105 0
2106 2105 529 0
2101 528 2105 0
2101 2105 2106 0
132 2101 2106 0
2108 2103 133 0
2107 529 2103 0
2107 2103 2108 0
530 2107 2108 0
2109 2106 529 0
2091 132 2106 0
2091 2106 2109 0
527 2091 2109 0
2110 2107 530 0
2109 529 2107 0
2109 2107 2110 0
527 2109 2110 0
2111 2110 530 0
2096 527 2110 0
2096 2110 2111 0
33 2096 2111 0
3224 133 3221 0
2113 2108 133 0
2112 530 2108 0
2112 2108 2113 0
532 2112 2113 0
2115 2111 530 0
2114 33 2111 0
2114 2111 2115 0
531 2114 2115 0
2116 2112 532 0
2115 530 2112 0
2115 2112 2116 0
531 2115 2116 0
2118 2116 532 0
2117 531 2116 0
2117 2116 2118 0
134 2117 2118 0
2119 3225 3226 0
2119 3226 3227 0
533 2119 3227 0
2113 133 3224 0
2113 3224 3228 0
532 2113 3228 0
2120 2119 533 0
3228 3225 2119 0
3228 2119 2120 0
532 3228 2120 0
2121 2120 533 0
2118 532 2120 0
2118 2120 2121 0
134 2118 2121 0
2122 533 3227 0
2122 3227 3229 0
535 2122 3229 0
2124 2121 533 0
2123 134 2121 0
2123 2121 2124 0
534 2123 2124 0
2125 2122 535 0
2124 533 2122 0
2124 2122 2125 0
534 2124 2125 0
2127 2125 535 0
2126 534 2125 0
2126 2125 2127 0
9 2126 2127 0
2129 1975 7 0
2128 499 1975 0
2128 1975 2129 0
537 2128 2129 0
2131 1980 499 0
2130 127 1980 0
2130 1980 2131 0
536 2130 2131 0
2132 2128 537 0
2131 499 2128 0
2131 2128 2132 0
536 2131 2132 0
2134 2132 537 0
2133 536 2132 0
2133 2132 2134 0
136 2133 2134 0
2136 1994 127 0
2135 504 1994 0
2135 1994 2136 0
539 2135 2136 0
2138 1999 504 0
2137 32 1999 0
2137 1999 2138 0
538 2137 2138 0
2139 2135 539 0
2138 504 2135 0
2138 2135 2139 0
538 2138 2139 0
2141 2139 539 0
2140 538 2139 0
2140 2139 2141 0
135 2140 2141 0
2143 2133 136 0
2142 536 2133 0
2142 2133 2143 0
540 2142 2143 0
2144 2130 536 0
2136 127 2130 0
2136 2130 2144 0
539 2136 2144 0
2145 2142 540 0
2144 536 2142 0
2144 2142 2145 0
539 2144 2145 0
2146 2145 540 0
2141 539 2145 0
2141 2145 2146 0
135 2141 2146 0
2148 2143 136 0
2147 540 2143 0
2147 2143 2148 0
542 2147 2148 0
2150 2146 540 0
2149 135 2146 0
2149 2146 2150 0
541 2149 2150 0
2151 2147 542 0
2150 540 2147 0
2150 2147 2151 0
541 2150 2151 0
2153 2151 542 0
2152 541 2151 0
2152 2151 2153 0
35 2152 2153 0
2155 2045 32 0
2154 516 2045 0
2154 2045 2155 0
544 2154 2155 0
2157 2050 516 0
2156 130 2050 0
2156 2050 2157 0
543 2156 2157 0
2158 2154 544 0
2157 516 2154 0
2157 2154 2158 0
543 2157 2158 0
2160 2158 544 0
2159 543 2158 0
2159 2158 2160 0
138 2159 2160 0
2162 2062 130 0
2161 519 2062 0
2161 2062 2162 0
546 2161 2162 0
2164 2065 519 0
2163 0 2065 0
2163 2065 2164 0
545 2163 2164 0
2165 2161 546 0
2164 519 2161 0
2164 2161 2165 0
545 2164 2165 0
2167 2165 546 0
2166 545 2165 0
2166 2165 2167 0
137 2166 2167 0
2169 2159 138 0
2168 543 2159 0
2168 2159 2169 0
547 2168 2169 0
2170 2156 543 0
2162 130 2156 0
2162 2156 2170 0
546 2162 2170 0
2171 2168 547 0
2170 543 2168 0
2170 2168 2171 0
546 2170 2171 0
2172 2171 547 0
2167 546 2171 0
2167 2171 2172 0
137 2167 2172 0
2174 2169 138 0
2173 547 2169 0
2173 2169 2174 0
549 2173 2174 0
2176 2172 547 0
2175 137 2172 0
2175 2172 2176 0
548 2175 2176 0
2177 2173 549 0
2176 547 2173 0
2176 2173 2177 0
548 2176 2177 0
2179 2177 549 0
2178 548 2177 0
2178 2177 2179 0
34 2178 2179 0
2181 2152 35 0
2180 541 2152 0
2180 2152 2181 0
551 2180 2181 0
2183 2149 541 0
2182 135 2149 0
2182 2149 2183 0
550 2182 2183 0
2184 2180 551 0
2183 541 2180 0
2183 2180 2184 0
550 2183 2184 0
2186 2184 551 0
2185 550 2184 0
2185 2184 2186 0
139 2185 2186 0
2188 2140 135 0
2187 538 2140 0
2187 2140 2188 0
552 2187 2188 0
2189 2137 538 0
2155 32 2137 0
2155 2137 2189 0
544 2155 2189 0
2190 2187 552 0
2189 538 2187 0
2189 2187 2190 0
544 2189 2190 0
2191 2190 552 0
2160 544 2190 0
2160 2190 2191 0
138 2160 2191 0
2193 2185 139 0
2192 550 2185 0
2192 2185 2193 0
553 2192 2193 0
2194 2182 550 0
2188 135 2182 0
2188 2182 2194 0
552 2188 2194 0
2195 2192 553 0
2194 550 2192 0
2194 2192 2195 0
552 2194 2195 0
2196 2195 553 0
2191 552 2195 0
2191 2195 2196 0
138 2191 2196 0
2198 2193 139 0
2197 553 2193 0
2197 2193 2198 0
554 2197 2198 0
2199 2196 553 0
2174 138 2196 0
2174 2196 2199 0
549 2174 2199 0
2200 2197 554 0
2199 553 2197 0
2199 2197 2200 0
549 2199 2200 0
2201 2200 554 0
2179 549 2200 0
2179 2200 2201 0
34 2179 2201 0
2203 2181 35 0
2202 551 2181 0
2202 2181 2203 0
556 2202 2203 0
2205 2186 551 0
2204 139 2186 0
2204 2186 2205 0
555 2204 2205 0
2206 2202 556 0
2205 551 2202 0
2205 2202 2206 0
555 2205 2206 0
2208 2206 556 0
2207 555 2206 0
2207 2206 2208 0
141 2207 2208 0
2210 2198 139 0
2209 554 2198 0
2209 2198 2210 0
558 2209 2210 0
2212 2201 554 0
2211 34 2201 0
2211 2201 2212 0
557 2211 2212 0
2213 2209 558 0
2212 554 2209 0
2212 2209 2213 0
557 2212 2213 0
2215 2213 558 0
2214 557 2213 0
2214 2213 2215 0
140 2214 2215 0
2217 2207 141 0
2216 555 2207 0
2216 2207 2217 0
559 2216 2217 0
2218 2204 555 0
2210 139 2204 0
2210 2204 2218 0
558 2210 2218 0
2219 2216 559 0
2218 555 2216 0
2218 2216 2219 0
558 2218 2219 0
2220 2219 559 0
2215 558 2219 0
2215 2219 2220 0
140 2215 2220 0
2222 2217 141 0
2221 559 2217 0
2221 2217 2222 0
561 2221 2222 0
2224 2220 559 0
2223 140 2220 0
2223 2220 2224 0
560 2223 2224 0
2225 2221 561 0
2224 559 2221 0
2224 2221 2225 0
560 2224 2225 0
2227 2225 561 0
2226 560 2225 0
2226 2225 2227 0
8 2226 2227 0
2229 2126 9 0
2228 534 2126 0
2228 2126 2229 0
563 2228 2229 0
2231 2123 534 0
2230 134 2123 0
2230 2123 2231 0
562 2230 2231 0
2232 2228 563 0
2231 534 2228 0
2231 2228 2232 0
562 2231 2232 0
2234 2232 563 0
2233 562 2232 0
2233 2232 2234 0
143 2233 2234 0
2236 2117 134 0
2235 531 2117 0
2235 2117 2236 0
565 2235 2236 0
2238 2114 531 0
2237 33 2114 0
2237 2114 2238 0
564 2237 2238 0
2239 2235 565 0
2238 531 2235 0
2238 2235 2239 0
564 2238 2239 0
2241 2239 565 0
2240 564 2239 0
2240 2239 2241 0
142 2240 2241 0
2243 2233 143 0
2242 562 2233 0
2242 2233 2243 0
566 2242 2243 0
2244 2230 562 0
2236 134 2230 0
2236 2230 2244 0
565 2236 2244 0
2245 2242 566 0
2244 562 2242 0
2244 2242 2245 0
565 2244 2245 0
2246 2245 566 0
2241 565 2245 0
2241 2245 2246 0
142 2241 2246 0
2248 2243 143 0
2247 566 2243 0
2247 2243 2248 0
568 2247 2248 0
2250 2246 566 0
2249 142 2246 0
2249 2246 2250 0
567 2249 2250 0
2251 2247 568 0
2250 566 2247 0
2250 2247 2251 0
567 2250 2251 0
2253 2251 568 0
2252 567 2251 0
2252 2251 2253 0
36 2252 2253 0
2255 2095 33 0
2254 526 2095 0
2254 2095 2255 0
570 2254 2255 0
2257 2092 526 0
2256 131 2092 0
2256 2092 2257 0
569 2256 2257 0
2258 2254 570 0
2257 526 2254 0
2257 2254 2258 0
569 2257 2258 0
2260 2258 570 0
2259 569 2258 0
2259 2258 2260 0
144 2259 2260 0
2262 2083 131 0
2261 523 2083 0
2261 2083 2262 0
571 2261 2262 0
2263 2080 523 0
2129 7 2080 0
2129 2080 2263 0
537 2129 2263 0
2264 2261 571 0
2263 523 2261 0
2263 2261 2264 0
537 2263 2264 0
2265 2264 571 0
2134 537 2264 0
2134 2264 2265 0
136 2134 2265 0
2267 2259 144 0
2266 569 2259 0
2266 2259 2267 0
572 2266 2267 0
2268 2256 569 0
2262 131 2256 0
2262 2256 2268 0
571 2262 2268 0
2269 2266 572 0
2268 569 2266 0
2268 2266 2269 0
571 2268 2269 0
2270 2269 572 0
2265 571 2269 0
2265 2269 2270 0
136 2265 2270 0
2272 2267 144 0
2271 572 2267 0
2271 2267 2272 0
573 2271 2272 0
2273 2270 572 0
2148 136 2270 0
2148 2270 2273 0
542 2148 2273 0
2274 2271 573 0
2273 572 2271 0
2273 2271 2274 0
542 2273 2274 0
2275 2274 573 0
2153 542 2274 0
2153 2274 2275 0
35 2153 2275 0
2277 2252 36 0
2276 567 2252 0
2276 2252 2277 0
575 2276 2277 0
2279 2249 567 0
2278 142 2249 0
2278 2249 2279 0
574 2278 2279 0
2280 2276 575 0
2279 567 2276 0
2279 2276 2280 0
574 2279 2280 0
2282 2280 575 0
2281 574 2280 0
2281 2280 2282 0
145 2281 2282 0
2284 2240 142 0
2283 564 2240 0
2283 2240 2284 0
576 2283 2284 0
2285 2237 564 0
2255 33 2237 0
2255 2237 2285 0
570 2255 2285 0
2286 2283 576 0
2285 564 2283 0
2285 2283 2286 0
570 2285 2286 0
2287 2286 576 0
2260 570 2286 0
2260 2286 2287 0
144 2260 2287 0
2289 2281 145 0
2288 574 2281 0
2288 2281 2289 0
577 2288 2289 0
2290 2278 574 0
2284 142 2278 0
2284 2278 2290 0
576 2284 2290 0
2291 2288 577 0
2290 574 2288 0
2290 2288 2291 0
576 2290 2291 0
2292 2291 577 0
2287 576 2291 0
2287 2291 2292 0
144 2287 2292 0
2294 2289 145 0
2293 577 2289 0
2293 2289 2294 0
578 2293 2294 0
2295 2292 577 0
2272 144 2292 0
2272 2292 2295 0
573 2272 2295 0
2296 2293 578 0
2295 577 2293 0
2295 2293 2296 0
573 2295 2296 0
2297 2296 578 0
2275 573 2296 0
2275 2296 2297 0
35 2275 2297 0
2299 2277 36 0
2298 575 2277 0
2298 2277 2299 0
580 2298 2299 0
2301 2282 575 0
2300 145 2282 0
2300 2282 2301 0
579 2300 2301 0
2302 2298 580 0
2301 575 2298 0
2301 2298 2302 0
579 2301 2302 0
2304 2302 580 0
2303 579 2302 0
2303 2302 2304 0
146 2303 2304 0
2306 2294 145 0
2305 578 2294 0
2305 2294 2306 0
581 2305 2306 0
2307 2297 578 0
2203 35 2297 0
2203 2297 2307 0
556 2203 2307 0
2308 2305 581 0
2307 578 2305 0
2307 2305 2308 0
556 2307 2308 0
2309 2308 581 0
2208 556 2308 0
2208 2308 2309 0
141 2208 2309 0
2311 2303 146 0
2310 579 2303 0
2310 2303 2311 0
582 2310 2311 0
2312 2300 579 0
2306 145 2300 0
2306 2300 2312 0
581 2306 2312 0
2313 2310 582 0
2312 579 2310 0
2312 2310 2313 0
581 2312 2313 0
2314 2313 582 0
2309 581 2313 0
2309 2313 2314 0
141 2309 2314 0
2316 2311 146 0
2315 582 2311 0
2315 2311 2316 0
583 2315 2316 0
2317 2314 582 0
2222 141 2314 0
2222 2314 2317 0
561 2222 2317 0
2318 2315 583 0
2317 582 2315 0
2317 2315 2318 0
561 2317 2318 0
2319 2318 583 0
2227 561 2318 0
2227 2318 2319 0
8 2227 2319 0
2321 2229 9 0
2320 563 2229 0
2320 2229 2321 0
585 2320 2321 0
2323 2234 563 0
2322 143 2234 0
2322 2234 2323 0
584 2322 2323 0
2324 2320 585 0
2323 563 2320 0
2323 2320 2324 0
584 2323 2324 0
2326 2324 585 0
2325 584 2324 0
2325 2324 2326 0
148 2325 2326 0
2328 2248 143 0
2327 568 2248 0
2327 2248 2328 0
587 2327 2328 0
2330 2253 568 0
2329 36 2253 0
2329 2253 2330 0
586 2329 2330 0
2331 2327 587 0
2330 568 2327 0
2330 2327 2331 0
586 2330 2331 0
2333 2331 587 0
2332 586 2331 0
2332 2331 2333 0
147 2332 2333 0
2335 2325 148 0
2334 584 2325 0
2334 2325 2335 0
588 2334 2335 0
2336 2322 584 0
2328 143 2322 0
2328 2322 2336 0
587 2328 2336 0
2337 2334 588 0
2336 584 2334 0
2336 2334 2337 0
587 2336 2337 0
2338 2337 588 0
2333 587 2337 0
2333 2337 2338 0
147 2333 2338 0
2340 2335 148 0
2339 588 2335 0
2339 2335 2340 0
590 2339 2340 0
2342 2338 588 0
2341 147 2338 0
2341 2338 2342 0
589 2341 2342 0
2343 2339 590 0
2342 588 2339 0
2342 2339 2343 0
589 2342 2343 0
2345 2343 590 0
2344 589 2343 0
2344 2343 2345 0
38 2344 2345 0
2347 2299 36 0
2346 580 2299 0
2346 2299 2347 0
592 2346 2347 0
2349 2304 580 0
2348 146 2304 0
2348 2304 2349 0
591 2348 2349 0
2350 2346 592 0
2349 580 2346 0
2349 2346 2350 0
591 2349 2350 0
2352 2350 592 0
2351 591 2350 0
2351 2350 2352 0
150 2351 2352 0
2354 2316 146 0
2353 583 2316 0
2353 2316 2354 0
594 2353 2354 0
2356 2319 583 0
2355 8 2319 0
2355 2319 2356 0
593 2355 2356 0
2357 2353 594 0
2356 583 2353 0
2356 2353 2357 0
593 2356 2357 0
2359 2357 594 0
2358 593 2357 0
2358 2357 2359 0
149 2358 2359 0
2361 2351 150 0
2360 591 2351 0
2360 2351 2361 0
595 2360 2361 0
2362 2348 591 0
2354 146 2348 0
2354 2348 2362 0
594 2354 2362 0
2363 2360 595 0
2362 591 2360 0
2362 2360 2363 0
594 2362 2363 0
2364 2363 595 0
2359 594 2363 0
2359 2363 2364 0
149 2359 2364 0
2366 2361 150 0
2365 595 2361 0
2365 2361 2366 0
597 2365 2366 0
2368 2364 595 0
2367 149 2364 0
2367 2364 2368 0
596 2367 2368 0
2369 2365 597 0
2368 595 2365 0
2368 2365 2369 0
596 2368 2369 0
2371 2369 597 0
2370 596 2369 0
2370 2369 2371 0
37 2370 2371 0
2373 2344 38 0
2372 589 2344 0
2372 2344 2373 0
599 2372 2373 0
2375 2341 589 0
2374 147 2341 0
2374 2341 2375 0
598 2374 2375 0
2376 2372 599 0
2375 589 2372 0
2375 2372 2376 0
598 2375 2376 0
2378 2376 599 0
2377 598 2376 0
2377 2376 2378 0
151 2377 2378 0
2380 2332 147 0
2379 586 2332 0
2379 2332 2380 0
600 2379 2380 0
2381 2329 586 0
2347 36 2329 0
2347 2329 2381 0
592 2347 2381 0
2382 2379 600 0
2381 586 2379 0
2381 2379 2382 0
592 2381 2382 0
2383 2382 600 0
2352 592 2382 0
2352 2382 2383 0
150 2352 2383 0
2385 2377 151 0
2384 598 2377 0
2384 2377 2385 0
601 2384 2385 0
2386 2374 598 0
2380 147 2374 0
2380 2374 2386 0
600 2380 2386 0
2387 2384 601 0
2386 598 2384 0
2386 2384 2387 0
600 2386 2387 0
2388 2387 601 0
2383 600 2387 0
2383 2387 2388 0
150 2383 2388 0
2390 2385 151 0
2389 601 2385 0
2389 2385 2390 0
602 2389 2390 0
2391 2388 601 0
2366 150 2388 0
2366 2388 2391 0
597 2366 2391 0
2392 2389 602 0
2391 601 2389 0
2391 2389 2392 0
597 2391 2392 0
2393 2392 602 0
2371 597 2392 0
2371 2392 2393 0
37 2371 2393 0
2395 2373 38 0
2394 599 2373 0
2394 2373 2395 0
604 2394 2395 0
2397 2378 599 0
2396 151 2378 0
2396 2378 2397 0
603 2396 2397 0
2398 2394 604 0
2397 599 2394 0
2397 2394 2398 0
603 2397 2398 0
2400 2398 604 0
2399 603 2398 0
2399 2398 2400 0
153 2399 2400 0
2402 2390 151 0
2401 602 2390 0
2401 2390 2402 0
606 2401 2402 0
2404 2393 602 0
2403 37 2393 0
2403 2393 2404 0
605 2403 2404 0
2405 2401 606 0
2404 602 2401 0
2404 2401 2405 0
605 2404 2405 0
2407 2405 606 0
2406 605 2405 0
2406 2405 2407 0
152 2406 2407 0
2409 2399 153 0
2408 603 2399 0
2408 2399 2409 0
607 2408 2409 0
2410 2396 603 0
2402 151 2396 0
2402 2396 2410 0
606 2402 2410 0
2411 2408 607 0
2410 603 2408 0
2410 2408 2411 0
606 2410 2411 0
2412 2411 607 0
2407 606 2411 0
2407 2411 2412 0
152 2407 2412 0
2414 2409 153 0
2413 607 2409 0
2413 2409 2414 0
609 2413 2414 0
2416 2412 607 0
2415 152 2412 0
2415 2412 2416 0
608 2415 2416 0
2417 2413 609 0
2416 607 2413 0
2416 2413 2417 0
608 2416 2417 0
2419 2417 609 0
2418 608 2417 0
2418 2417 2419 0
3230 2418 2419 0
535 3229 3231 0
535 3231 3232 0
2127 535 3232 0
2127 3232 3233 0
9 2127 3233 0
610 3234 3235 0
3236 3234 610 0
2420 3236 610 0
3233 3236 2420 0
9 3233 2420 0
2422 3237 3238 0
2421 3239 3237 0
2421 3237 2422 0
611 2421 2422 0
2423 3240 3241 0
2422 3238 3240 0
2422 3240 2423 0
611 2422 2423 0
3242 2423 3241 0
2424 611 2423 0
2424 2423 3242 0
154 2424 3242 0
2426 3235 3239 0
2425 610 3235 0
2425 3235 2426 0
612 2425 2426 0
2427 2420 610 0
2321 9 2420 0
2321 2420 2427 0
585 2321 2427 0
2428 2425 612 0
2427 610 2425 0
2427 2425 2428 0
585 2427 2428 0
2429 2428 612 0
2326 585 2428 0
2326 2428 2429 0
148 2326 2429 0
2431 2424 154 0
2430 611 2424 0
2430 2424 2431 0
613 2430 2431 0
2432 2421 611 0
2426 3239 2421 0
2426 2421 2432 0
612 2426 2432 0
2433 2430 613 0
2432 611 2430 0
2432 2430 2433 0
612 2432 2433 0
2434 2433 613 0
2429 612 2433 0
2429 2433 2434 0
148 2429 2434 0
2436 2431 154 0
2435 613 2431 0
2435 2431 2436 0
614 2435 2436 0
2437 2434 613 0
2340 148 2434 0
2340 2434 2437 0
590 2340 2437 0
2438 2435 614 0
2437 613 2435 0
2437 2435 2438 0
590 2437 2438 0
2439 2438 614 0
2345 590 2438 0
2345 2438 2439 0
38 2345 2439 0
154 3242 3243 0
615 3244 3245 0
3246 3244 615 0
2440 3246 615 0
3243 3246 2440 0
154 3243 2440 0
2442 3245 3247 0
2441 615 3245 0
2441 3245 2442 0
616 2441 2442 0
2443 2440 615 0
2436 154 2440 0
2436 2440 2443 0
614 2436 2443 0
2444 2441 616 0
2443 615 2441 0
2443 2441 2444 0
614 2443 2444 0
2445 2444 616 0
2439 614 2444 0
2439 2444 2445 0
38 2439 2445 0
3248 2442 3247 0
2446 616 2442 0
2446 2442 3248 0
617 2446 3248 0
2447 2445 616 0
2395 38 2445 0
2395 2445 2447 0
604 2395 2447 0
2448 2446 617 0
2447 616 2446 0
2447 2446 2448 0
604 2447 2448 0
2449 2448 617 0
2400 604 2448 0
2400 2448 2449 0
153 2400 2449 0
617 3248 3249 0
2450 3250 3251 0
3249 3250 2450 0
617 3249 2450 0
2451 2450 3251 0
2449 617 2450 0
2449 2450 2451 0
153 2449 2451 0
2452 2451 3251 0
2414 153 2451 0
2414 2451 2452 0
609 2414 2452 0
2452 3251 3252 0
2452 3252 3253 0
609 2452 3253 0
2419 609 3253 0
2419 3253 3254 0
3230 2419 3254 0
155 3255 3256 0
155 3256 3257 0
2454 3258 3259 0
2453 3260 3258 0
2453 3258 2454 0
619 2453 2454 0
2456 3257 3260 0
2455 155 3257 0
2455 3257 2456 0
618 2455 2456 0
2457 2453 619 0
2456 3260 2453 0
2456 2453 2457 0
618 2456 2457 0
2459 2457 619 0
2458 618 2457 0
2458 2457 2459 0
39 2458 2459 0
2461 2458 39 0
2460 618 2458 0
2460 2458 2461 0
621 2460 2461 0
2463 2455 618 0
2462 155 2455 0
2462 2455 2463 0
620 2462 2463 0
2464 2460 621 0
2463 618 2460 0
2463 2460 2464 0
620 2463 2464 0
2466 2464 621 0
2465 620 2464 0
2465 2464 2466 0
156 2465 2466 0
2467 3255 155 0
3261 3255 2467 0
3262 3261 2467 0
2469 2465 156 0
2468 620 2465 0
2468 2465 2469 0
3263 2468 2469 0
3264 2462 620 0
2467 155 2462 0
2467 2462 3264 0
3262 2467 3264 0
3265 2468 3263 0
3264 620 2468 0
3264 2468 3265 0
2470 2469 156 0
3266 3263 2469 0
3266 2469 2470 0
3267 3266 2470 0
2472 2461 39 0
2471 621 2461 0
2471 2461 2472 0
623 2471 2472 0
2474 2466 621 0
2473 156 2466 0
2473 2466 2474 0
622 2473 2474 0
2475 2471 623 0
2474 621 2471 0
2474 2471 2475 0
622 2474 2475 0
2477 2475 623 0
2476 622 2475 0
2476 2475 2477 0
157 2476 2477 0
2478 2470 156 0
3268 3267 2470 0
3268 2470 2478 0
3269 3268 2478 0
2480 2476 157 0
2479 622 2476 0
2479 2476 2480 0
3270 2479 2480 0
2481 2473 622 0
2478 156 2473 0
2478 2473 2481 0
3269 2478 2481 0
3271 2479 3270 0
2481 622 2479 0
2481 2479 3271 0
3269 2481 3271 0
2483 2480 157 0
2482 3270 2480 0
2482 2480 2483 0
624 2482 2483 0
2484 2482 624 0
3272 3270 2482 0
3272 2482 2484 0
3273 3272 2484 0
2485 2484 624 0
