#!ascii - generated by CreateLabelFiles project 
4170 7994
26.2939 26.9355 16.1162 0
26.0784 27.1394 15.3753 0
25.6685 27.2784 14.6601 0
25.1246 26.6674 14.3875 0
24.6744 26.0695 14.759 0
25.3191 27.4655 13.9622 0
25.2718 27.1042 14.1143 0
24.9162 26.8298 13.6517 0
24.8612 26.9547 12.8864 0
24.6525 26.3452 13.2688 0
21.0574 22.6941 16.0677 0
20.2747 22.4397 15.6975 0
22.5687 23.2865 16.2072 0
21.8276 22.9872 16.1694 0
21.9215 23.1431 15.6422 0
22.66 23.8921 15.0827 0
21.9632 23.4399 14.9917 0
23.713 24.1593 16.7441 0
23.155 23.7104 16.4633 0
24.1742 24.5591 17.2068 0
24.3237 24.6728 16.4624 0
24.2832 25.0729 15.8149 0
23.2576 24.2756 15.2247 0
23.2665 24.668 14.6488 0
23.2594 23.8468 15.8187 0
23.762 24.7131 15.4739 0
24.2303 25.4616 15.1568 0
23.8559 25.0759 14.1509 0
23.3071 24.6933 13.9765 0
24.2812 25.5775 14.4117 0
24.3858 25.5981 13.7154 0
24.351 25.6783 13.0283 0
20.3936 22.4889 15.0752 0
19.4357 22.2019 15.3816 0
22.0124 23.6893 14.3299 0
21.2499 23.0084 14.7483 0
20.4455 22.6056 14.5003 0
20.4666 22.6037 14.063 0
19.5736 22.0785 14.4667 0
23.3012 24.7206 13.3807 0
22.6715 24.2472 13.8424 0
24.2407 25.8058 12.5083 0
23.8377 25.1905 12.9473 0
23.2344 24.7617 12.8266 0
22.891 24.8439 12.368 0
22.4781 24.2078 12.7444 0
21.1947 23.1246 13.6116 0
20.3643 22.5505 13.532 0
21.976 23.7104 13.7113 0
21.8627 23.6537 13.1562 0
21.6946 23.5786 12.6367 0
20.2016 22.5119 13.164 0
19.5166 21.8448 13.5667 0
21.2904 23.5474 12.1455 0
20.8702 23.0052 12.6987 0
20.0269 22.4646 12.82 0
19.6327 22.5901 12.4673 0
19.2355 21.8391 12.6701 0
25.074 27.6027 17.4611 0
25.6669 28.0133 17.144 0
23.3904 26.8335 18.1678 0
24.2532 27.2136 17.7976 0
24.3273 27.2725 17.103 0
23.5748 26.956 16.7698 0
24.243 27.3948 16.3246 0
20.9201 26.5425 18.5766 0
22.2145 26.6654 18.4041 0
18.4921 27.0667 18.8811 0
19.7516 26.8067 18.7224 0
19.9532 26.5679 18.2487 0
18.9667 26.5639 17.9539 0
20.2264 26.4006 17.7973 0
22.5321 26.5879 17.1969 0
22.8023 26.5188 16.4605 0
22.407 26.5197 17.9015 0
21.3792 26.2381 17.6203 0
20.8007 26.3272 17.362 0
22.0278 26.0635 16.1478 0
22.8029 26.5141 15.6894 0
20.2264 26.4528 17.1244 0
21.1365 26.1933 16.6255 0
21.3119 26.0767 16.0095 0
20.5438 26.2036 15.9506 0
21.3392 26.104 15.3699 0
16.622 29.1085 18.5369 0
17.485 27.9633 18.7517 0
15.3746 31.8593 18.3719 0
15.7597 30.3789 18.2992 0
16.1286 30.4028 18.0331 0
16.3858 31.774 17.8044 0
16.5039 30.1901 17.9054 0
15.4276 34.3824 18.8962 0
15.2901 33.4483 18.4636 0
15.7736 35.1784 19.5755 0
16.3447 35.1788 19.5313 0
16.9004 35.1514 19.4081 0
16.3277 33.3098 18.0597 0
16.7623 32.9368 17.716 0
15.9064 33.6173 18.4066 0
16.641 34.3811 18.7931 0
17.4179 35.019 19.2284 0
17.709 33.766 18.4753 0
17.372 32.7919 17.752 0
18.0563 34.7784 19.2447 0
18.6943 34.524 19.2508 0
19.2583 34.4976 19.0197 0
19.8525 27.0203 16.3477 0
19.8991 26.9095 15.9727 0
19.1168 27.2935 17.174 0
19.7121 27.1956 16.9097 0
19.1227 27.9847 16.7355 0
18.5939 29.1813 17.1811 0
19.1405 29.16 16.9769 0
17.8533 27.367 18.0836 0
18.4406 27.3817 17.5823 0
17.526 27.5261 18.5579 0
16.9109 28.3845 18.2205 0
17.0209 29.9037 17.8086 0
18.0207 29.319 17.4505 0
18.3593 30.5164 17.589 0
17.9747 28.2212 17.3091 0
17.5305 29.6659 17.553 0
17.4906 31.2878 17.7424 0
18.4967 32.254 17.7641 0
18.9907 31.8736 17.7296 0
18.0008 32.5743 17.7939 0
18.8746 33.5431 18.256 0
19.7952 34.436 18.7162 0
19.2262 27.7573 16.13 0
19.897 26.7188 15.5269 0
19.2354 30.3367 17.1835 0
19.2023 29.0083 16.6757 0
19.4353 28.7864 16.295 0
19.934 29.84 16.3802 0
19.4438 28.5256 15.8382 0
19.7701 32.9715 17.8731 0
19.4596 31.6686 17.4971 0
20.2418 34.1918 18.379 0
20.6241 33.8501 17.8662 0
21.0527 33.5524 17.3886 0
20.3362 31.1073 16.658 0
20.6786 30.9179 16.1927 0
19.9702 31.3746 17.0696 0
20.6664 32.4065 16.9377 0
21.4833 33.1086 16.9757 0
21.4034 32.1226 15.9212 0
20.9115 30.8857 15.6646 0
21.8778 32.8948 16.4921 0
22.2772 32.7085 15.9282 0
22.672 32.5697 15.3732 0
20.0676 23.0449 11.8745 0
19.2582 22.7272 12.0991 0
21.6994 24.2236 11.818 0
20.877 23.523 11.723 0
20.4676 23.5702 11.284 0
20.6084 24.2522 11.0106 0
19.8864 23.9756 11.0394 0
23.3639 25.4028 11.9583 0
22.5021 24.8979 11.9156 0
24.4381 26.6442 11.981 0
24.1169 25.9362 11.9566 0
23.5499 25.9951 11.5505 0
23.1884 26.8468 11.2016 0
22.7687 25.9864 11.17 0
21.3508 24.9524 11.1151 0
20.5456 25.1002 10.8565 0
22.0564 24.9376 11.446 0
22.087 25.4173 11.1599 0
21.7678 25.7867 11.2074 0
20.139 25.5958 11.238 0
19.5675 25.5659 11.0817 0
21.2882 25.8011 11.4266 0
20.7394 25.778 11.3677 0
19.9152 25.9439 11.8709 0
19.6254 25.9141 12.5841 0
19.2025 26.4377 12.5642 0
24.6809 27.377 12.8044 0
24.582 27.077 12.2727 0
25.0774 27.4874 14.127 0
24.8451 27.4882 13.4189 0
24.3532 27.5737 12.8846 0
23.9475 27.3032 13.2536 0
23.7511 27.4523 12.5167 0
25.3643 27.8142 15.6633 0
25.2653 27.5892 14.8714 0
25.5675 28.1121 16.384 0
24.8863 27.8233 15.9283 0
24.2035 27.4087 15.5689 0
24.1173 27.2059 13.9854 0
23.4202 26.8285 13.7905 0
24.7468 27.4982 14.3137 0
24.1616 27.2871 14.7499 0
23.5342 26.9589 15.2403 0
22.7699 26.5326 14.3107 0
22.7201 26.441 13.6339 0
22.8121 26.587 15.0053 0
22.0845 26.2248 14.835 0
21.3503 26.0831 14.7937 0
20.0962 25.6474 12.6293 0
19.3726 26.128 13.1993 0
21.7508 26.012 11.6213 0
20.9486 25.6628 12.0282 0
20.5315 25.3813 12.656 0
20.8728 25.3154 12.913 0
20.1168 25.7449 13.2737 0
23.4748 27.2531 11.5122 0
22.6127 26.6908 11.5438 0
24.0833 27.2446 11.8514 0
23.6035 27.4251 11.9824 0
23.0594 27.0061 12.4512 0
21.6256 25.9089 12.6003 0
21.1295 25.4333 13.3079 0
22.0742 26.3953 11.9511 0
22.3489 26.5129 12.3949 0
22.5807 26.4225 13.0377 0
21.296 25.5116 13.7235 0
20.4666 25.796 13.9987 0
22.0096 25.9141 13.6691 0
21.3174 25.8406 14.2795 0
20.5716 25.9799 14.9207 0
19.1145 26.4662 13.6526 0
18.7262 26.9372 13.8542 0
19.5804 26.1423 13.9339 0
19.4421 26.2733 13.7201 0
19.1832 27.1036 14.0274 0
19.5418 28.3318 14.5353 0
19.5232 28.9395 14.3271 0
19.8427 26.3739 14.635 0
19.7222 26.2299 14.2411 0
19.9001 26.5081 15.0476 0
19.3077 27.3301 15.2162 0
19.266 28.2515 15.3469 0
19.4371 28.1344 14.7541 0
20.4593 30.0509 14.4375 0
19.4113 27.0096 14.422 0
19.3107 28.1351 14.9413 0
20.1582 29.6359 15.3441 0
21.2752 31.1394 14.48 0
21.5756 31.6041 13.9805 0
21.0561 30.9795 15.1099 0
21.9706 32.1405 14.7606 0
23.133 32.517 14.7818 0
18.8957 22.8993 11.698 0
18.5063 22.1049 11.903 0
19.1611 24.5205 10.8126 0
19.1076 23.6577 11.2882 0
18.3619 23.3135 11.2201 0
17.6676 23.9141 10.6832 0
17.6078 22.8294 11.0464 0
18.665 26.0099 11.5276 0
18.8823 25.3121 11.0246 0
18.496 27.0413 13.2105 0
18.5929 26.5694 12.4592 0
17.8399 26.4783 12.5138 0
17.2088 27.3682 13.2218 0
17.174 26.4729 12.5813 0
17.5482 24.86 10.9602 0
16.9671 24.6021 11.2337 0
18.296 25.1428 10.9512 0
17.4428 25.7687 11.4612 0
16.7293 26.73 12.7451 0
16.3664 25.7732 12.0119 0
16.3587 24.4955 11.5376 0
16.7555 29.3406 12.3495 0
16.4523 27.3592 12.5067 0
16.0494 28.2437 12.0998 0
15.9991 31.2627 10.8766 0
15.4276 29.0963 11.4098 0
18.5401 28.2909 14.2206 0
18.2031 27.4245 13.9718 0
20.7592 31.2484 13.4303 0
19.532 29.6538 13.9092 0
19.5909 30.6069 13.3359 0
21.7516 32.5119 12.2479 0
19.936 31.8319 12.5368 0
23.1231 32.0313 13.7008 0
22.2674 31.6009 13.4326 0
23.8487 32.3383 14.1571 0
24.5788 32.453 13.5884 0
25.1367 32.7942 13.3113 0
23.307 32.6606 12.3507 0
23.5134 33.4285 12.3266 0
22.7531 32.0866 12.7863 0
24.5506 32.7016 12.6749 0
24.9697 33.4306 13.5941 0
23.7821 33.9694 13.4638 0
23.1549 34.0631 12.5994 0
24.394 34.0301 14.1979 0
23.6698 34.681 14.8845 0
22.966 35.4684 15.5092 0
17.5554 32.9182 10.8694 0
17.1992 33.091 10.8167 0
17.5062 31.4578 11.8628 0
17.6905 32.4021 11.061 0
18.9567 33.8887 11.216 0
20.1697 34.4773 11.7589 0
19.5117 34.5938 12.0619 0
17.5179 28.4562 13.5459 0
17.6156 29.8707 12.6819 0
17.6855 27.7001 13.9691 0
18.4379 30.2819 13.0398 0
20.5413 33.0704 11.7393 0
20.7481 34.1968 11.3648 0
21.0562 34.7754 12.6055 0
19.1906 33.0309 11.2439 0
20.9048 33.7798 11.3532 0
22.1209 34.0417 11.9562 0
21.8019 34.9973 13.5337 0
21.1003 35.4846 13.9858 0
22.5223 34.5825 13.0449 0
22.4347 35.2606 14.5356 0
22.3751 36.3705 16.0275 0
17.8962 33.7517 11.6851 0
16.7088 33.0747 10.9629 0
19.655 35.2579 13.1666 0
18.8783 34.4877 12.3694 0
18.2664 34.3661 12.6736 0
18.4169 35.0707 13.8319 0
17.6297 34.2305 12.9563 0
21.1118 36.5069 15.5033 0
20.3707 35.7846 14.348 0
21.819 37.1816 16.4955 0
21.4051 38.0294 16.6192 0
20.9836 38.7056 16.5276 0
19.2222 36.2825 14.661 0
18.8092 36.1885 14.8702 0
19.822 36.2073 14.3899 0
20.0981 37.5392 15.5242 0
20.4759 39.1742 16.3954 0
19.2381 37.7219 15.7517 0
18.3331 36.1177 15.0843 0
19.9759 39.4428 16.212 0
19.4547 39.5127 16.1533 0
18.906 39.5597 16.0584 0
17.1416 21.9872 18.7205 0
16.9642 21.9547 19.2253 0
17.3635 22.4027 18.0041 0
17.2453 22.1324 18.3344 0
16.4442 21.6739 18.4806 0
15.6483 21.6828 18.4657 0
15.6281 21.3637 18.678 0
17.7222 22.7978 17.1423 0
17.5415 22.6683 17.5928 0
18.2139 22.2456 16.34 0
18.0068 22.5215 16.723 0
16.8721 22.6534 17.025 0
16.1141 22.3156 16.8655 0
15.9089 22.4619 17.3202 0
15.663 21.9607 18.1977 0
14.8414 21.7519 18.4197 0
16.5647 22.2527 17.9189 0
15.7554 22.2295 17.7846 0
14.9663 22.1523 17.6575 0
14.1769 21.5349 18.2022 0
14.1492 21.3385 18.5546 0
14.2215 21.7505 17.4783 0
14.15 21.7203 17.8867 0
13.5373 21.1291 17.9619 0
18.5132 21.8591 15.3957 0
18.3592 22.1564 15.8464 0
18.686 21.4826 14.4903 0
18.6258 21.6086 14.9634 0
17.603 21.4363 15.4133 0
16.7344 21.1076 15.2398 0
16.59 21.4842 15.6726 0
18.6829 21.0895 13.5205 0
18.7611 21.1945 13.9648 0
18.4549 21.252 12.4715 0
18.5799 21.1775 12.9767 0
17.8323 20.7104 13.3188 0
16.9019 20.5238 13.1668 0
16.9607 20.4579 13.7061 0
16.8488 20.7702 14.7765 0
15.882 20.79 15.0619 0
17.8174 20.8671 14.4198 0
16.9198 20.5749 14.2537 0
16.0536 20.3904 14.0414 0
15.1936 20.6601 14.7606 0
15.0386 21.0468 15.2388 0
15.3545 20.198 13.7224 0
15.3043 20.347 14.2578 0
14.4943 20.4974 14.4498 0
13.879 20.361 14.1304 0
13.7213 20.6429 14.6824 0
12.7803 20.7947 17.4614 0
14.4151 21.7162 16.9863 0
13.4454 21.3711 17.2952 0
12.9397 20.9445 17.0399 0
13.1578 21.1258 16.5546 0
12.5533 20.4143 16.7575 0
16.3328 22.0401 16.4814 0
15.362 21.9561 16.7085 0
17.2791 22.124 16.2743 0
16.4406 21.8071 16.0934 0
15.5834 21.5126 15.9321 0
13.8377 21.6861 16.3245 0
13.3758 21.3271 16.0797 0
14.5912 21.8037 16.517 0
14.726 21.5979 16.1211 0
14.8735 21.3869 15.6814 0
13.5676 21.1088 15.6183 0
12.9837 20.9027 15.8163 0
14.1708 21.2663 15.4238 0
13.5897 20.9833 15.1705 0
12.9799 20.6947 14.9138 0
12.3664 20.3957 15.6762 0
12.4955 20.3026 14.674 0
12.3367 20.3391 15.2256 0
17.769 21.6233 11.7825 0
18.1117 21.425 12.1098 0
16.8653 22.6421 11.2184 0
17.4096 21.9125 11.449 0
16.9625 21.2798 11.7126 0
16.2919 20.8817 11.7649 0
16.5171 20.7344 11.9554 0
15.9466 24.6618 12.0009 0
16.2813 23.6102 11.2306 0
15.1233 29.6438 10.9472 0
15.4624 26.7797 12.202 0
15.395 24.9616 12.2657 0
14.8339 25.3864 12.375 0
15.3043 23.7872 11.6864 0
16.0915 21.2472 11.4951 0
15.8052 20.5402 11.3866 0
16.187 22.4183 11.2395 0
15.7231 22.4923 11.2597 0
15.3413 22.6799 11.179 0
15.3755 20.5778 11.0215 0
15.5345 19.9906 11.2598 0
15.0968 22.8028 11.5184 0
15.2225 21.5195 10.894 0
14.8352 20.8909 10.8181 0
14.4358 21.0695 10.7639 0
14.4199 20.5144 10.8618 0
16.1776 32.9606 11.1091 0
15.4261 31.763 10.5367 0
17.0118 34.1271 13.1914 0
16.7084 33.4611 12.1388 0
15.5927 32.6798 11.1378 0
14.9869 32.382 11.1012 0
14.4356 31.5024 10.3502 0
17.6923 36.2353 15.2001 0
17.2068 35.0415 14.3602 0
18.0717 37.9585 15.7323 0
17.0341 36.3193 15.2486 0
16.1303 34.6718 14.8223 0
15.5786 32.8521 12.3983 0
14.476 32.1062 11.2541 0
16.4536 33.9125 13.4073 0
15.9269 33.5226 13.5854 0
15.4114 33.3135 13.7202 0
13.9486 31.8238 11.3893 0
13.4696 31.3713 10.725 0
14.4457 32.4006 12.5618 0
13.3864 31.6051 11.537 0
12.2618 31.0763 10.736 0
14.4418 21.9992 10.979 0
13.9964 21.386 10.5869 0
14.5334 24.0089 12.3796 0
14.6945 23.0168 11.7395 0
14.1889 23.2507 11.9534 0
13.6441 24.277 12.7479 0
13.7018 23.3622 12.1104 0
14.4447 28.2264 11.62 0
14.2874 25.861 12.3808 0
14.6957 29.9577 10.5555 0
14.1426 30.2275 10.3961 0
13.6586 30.4176 10.4828 0
13.5502 26.2009 12.8442 0
13.2324 26.2136 13.0319 0
13.8894 26.0801 12.5671 0
13.5743 28.7531 11.8414 0
13.2096 30.4207 10.6747 0
12.7085 28.2225 12.3093 0
12.8281 25.709 13.3078 0
12.7081 30.1753 10.7275 0
12.1991 29.9502 10.9473 0
11.8062 29.5889 11.4476 0
13.5473 21.6553 10.5594 0
13.4935 21.1539 10.4851 0
13.2462 23.2544 12.2331 0
13.478 22.583 11.1326 0
13.1186 21.9509 10.4342 0
12.6821 22.411 10.3474 0
12.6337 21.7959 10.0142 0
12.4321 25.2996 13.4788 0
12.8442 24.1239 12.955 0
11.9903 27.2082 13.374 0
12.0399 24.901 13.6737 0
11.9622 23.6739 13.1714 0
12.5821 23.0889 11.2281 0
12.2314 22.9317 10.2979 0
12.7976 23.1338 12.3459 0
12.3152 22.9642 12.4744 0
11.8509 22.7871 12.587 0
11.8051 23.293 10.2442 0
11.7667 22.814 9.77056 0
11.6851 23.2364 11.2839 0
11.4226 23.5034 10.2262 0
10.8489 23.06 9.84517 0
12.7159 20.2047 14.0567 0
12.1437 19.9214 14.3849 0
11.9196 19.4192 13.5734 0
14.009 20.2069 13.53 0
13.2671 20.392 13.734 0
15.4204 19.9321 13.1587 0
14.6881 19.9293 13.3764 0
14.0976 19.9363 12.968 0
14.2538 19.4637 12.3569 0
13.5893 19.717 12.5305 0
16.8676 20.5495 12.6618 0
16.1219 20.2134 12.9499 0
17.6328 20.878 12.3144 0
16.7943 20.5683 12.1942 0
16.1859 20.1567 11.8831 0
14.9338 19.5015 12.2066 0
14.4176 19.2823 11.7542 0
15.4337 19.8912 12.6301 0
15.5804 19.7976 12.045 0
15.7063 19.6843 11.4925 0
14.4953 19.5983 11.369 0
13.8449 19.4615 11.5182 0
15.1571 19.6481 11.2174 0
14.5318 19.9862 11.0571 0
13.9601 20.2826 10.8725 0
11.5369 19.2202 12.7336 0
11.0896 19.1198 12.482 0
11.1241 19.4472 11.8734 0
11.6785 19.6969 11.5501 0
11.2412 19.8707 11.3255 0
12.3872 19.6451 13.1394 0
11.9955 19.2583 12.9328 0
12.8648 20.0456 13.4434 0
12.9392 19.8055 12.82 0
13.1225 19.3217 12.2106 0
12.1419 19.3673 11.8022 0
12.2522 19.6587 11.2776 0
12.0073 19.4074 12.2968 0
12.5945 19.3797 12.0174 0
13.2344 19.2579 11.7059 0
12.8121 19.7763 11.141 0
12.3585 20.2417 10.8512 0
13.3143 19.5405 11.3314 0
13.3831 20.0492 11.0119 0
13.4699 20.6296 10.6602 0
11.3644 20.3672 10.7269 0
10.8138 20.002 11.0805 0
10.3771 20.1638 10.8379 0
10.4972 20.7615 10.175 0
12.4687 20.8513 10.4901 0
11.9216 20.6706 10.5533 0
13.0142 20.9989 10.4183 0
12.5863 21.3425 10.1357 0
12.1571 21.6781 9.80323 0
11.0829 21.1661 9.87166 0
10.58 21.4144 9.84223 0
11.4952 20.9287 10.2404 0
11.6235 21.4363 9.84062 0
11.7169 22.1258 9.69169 0
10.6962 22.1201 9.70542 0
10.029 21.4988 9.8187 0
11.3178 22.6605 9.60016 0
10.7936 22.698 9.61019 0
10.2786 22.5835 9.6846 0
9.54253 21.3379 9.81629 0
9.6884 21.8159 9.76511 0
18.7095 17.6613 36.1014 0
18.5695 17.4605 36.4967 0
19.0346 17.9303 35.03 0
18.8737 17.7709 35.589 0
18.5348 16.4644 35.6997 0
18.4964 15.2577 35.2991 0
18.2901 14.7867 35.7698 0
19.6081 18.341 34.0075 0
19.2699 18.1266 34.5157 0
20.6035 18.6817 33.2116 0
20.0187 18.5382 33.5524 0
19.61 17.3403 33.645 0
19.7385 16.3126 33.3483 0
19.2909 16.1353 33.8073 0
18.7251 15.6378 34.8241 0
18.6661 13.9921 34.8402 0
18.9342 16.9428 34.6602 0
18.9779 15.9126 34.3182 0
19.1491 14.7143 33.7399 0
19.2551 12.3547 34.3679 0
19.0858 12.0152 34.9402 0
19.8322 13.0139 33.2704 0
19.5161 12.7261 33.8389 0
20.1408 10.6186 33.7171 0
20.8088 8.86942 32.1507 0
20.6187 8.99362 32.8526 0
21.8162 18.5912 32.4049 0
21.1888 18.751 32.8272 0
22.3316 18.4644 31.4019 0
22.2152 18.4848 31.9569 0
21.2817 17.3559 31.7722 0
21.1181 15.6492 31.5461 0
20.8748 15.9677 31.9183 0
22.3675 18.5618 30.0799 0
22.3756 18.4607 30.8107 0
22.3437 19.2193 29.1246 0
22.404 18.8155 29.6689 0
21.7837 17.422 29.7086 0
20.9904 16.3846 29.6378 0
21.014 15.9347 30.0923 0
21.1271 15.5193 31.1272 0
20.7358 13.8849 31.2952 0
21.635 17.1727 30.7224 0
21.118 15.5098 30.6314 0
20.6293 14.1377 30.3527 0
20.3435 12.2152 30.8144 0
20.6624 12.2936 31.2779 0
20.3182 12.8774 29.8689 0
20.3134 12.4479 30.3414 0
20.4801 10.8302 30.1831 0
20.8777 9.88189 29.6726 0
20.8518 9.38197 30.0058 0
20.9576 8.76604 31.6608 0
21.1328 6.82597 29.9738 0
20.2278 13.1555 32.7017 0
20.7763 11.0014 32.8237 0
21.1389 8.85232 31.3356 0
21.1356 8.92748 31.1907 0
21.5948 7.07994 29.5961 0
20.2137 16.3699 32.8764 0
19.9597 15.0482 32.7146 0
20.596 17.5276 32.8051 0
20.6201 16.2833 32.3371 0
20.7778 14.5623 32.0478 0
20.954 10.941 31.8458 0
20.9288 8.88237 30.8119 0
20.8056 13.2085 32.3885 0
20.9125 12.9247 32.043 0
20.882 12.5086 31.6869 0
20.9652 9.02572 30.6898 0
21.5647 7.36738 29.7783 0
20.7032 10.6121 31.0274 0
20.8666 9.07189 30.2836 0
21.511 7.99525 29.7144 0
22.173 6.85215 28.6071 0
21.8447 6.69043 29.0077 0
22.9685 7.0534 28.1545 0
22.7299 6.94459 28.2647 0
23.0674 7.04916 27.398 0
23.329 7.77225 26.255 0
22.9795 7.5076 26.5999 0
23.088 7.24574 28.433 0
23.0706 7.13032 28.293 0
22.7657 7.74716 28.8787 0
22.9636 7.41026 28.7168 0
23.9589 7.59957 27.2888 0
24.492 8.25946 26.2439 0
24.2833 8.11269 26.0475 0
23.7756 7.83548 25.9014 0
23.7047 8.30955 25.047 0
23.6409 7.38822 26.9633 0
24.0056 7.95215 25.8233 0
24.3664 8.52885 24.8983 0
23.8646 9.04821 23.9924 0
23.4537 8.9592 24.2829 0
24.5055 9.0386 23.9176 0
24.2351 8.90804 23.7206 0
24.0008 9.50739 22.9407 0
23.9979 9.42401 21.8807 0
23.6206 9.73963 22.1554 0
22.1173 20.1159 28.1944 0
22.1461 19.8348 28.7292 0
21.6905 21.1219 27.2324 0
21.927 20.5868 27.73 0
21.1316 19.6517 28.438 0
20.2756 19.3192 28.4642 0
20.644 18.5162 28.7415 0
21.4688 21.9239 25.9969 0
21.6 21.5247 26.5981 0
20.8591 22.7169 24.8141 0
21.2258 22.3246 25.3936 0
20.7592 21.3244 25.9359 0
20.0595 20.7706 25.8283 0
20.1043 20.3616 26.4896 0
19.9545 19.9736 28.0935 0
19.6986 18.7383 28.2167 0
20.735 20.6877 27.3882 0
20.0596 20.1588 27.2664 0
19.4052 19.6128 27.1112 0
19.513 17.8011 27.5937 0
19.6667 16.9314 27.9036 0
18.9792 18.8921 26.712 0
19.0938 18.5541 27.328 0
19.2982 17.0657 27.0904 0
19.239 16.4541 26.5492 0
19.5149 15.6192 26.867 0
20.4018 22.6156 23.4699 0
20.6057 22.7482 24.1715 0
19.9383 21.9501 22.0326 0
20.2177 22.2478 22.7558 0
19.7115 22.0558 23.3996 0
18.992 21.465 23.2892 0
19.3521 21.4276 23.9143 0
18.9997 21.5559 20.9124 0
19.5151 21.7394 21.4505 0
17.6688 21.6406 19.9278 0
18.3447 21.5526 20.3669 0
18.244 21.1517 20.8991 0
17.5261 20.6614 20.835 0
18.0902 20.6816 21.3587 0
18.7701 21.1775 22.5768 0
18.4006 20.8055 23.1234 0
19.1769 21.5144 21.9751 0
18.5688 20.8548 21.8732 0
17.9531 20.2431 21.7722 0
17.9242 20.0752 22.9034 0
18.1139 20.2086 23.5506 0
17.4091 19.5968 21.6195 0
17.7119 19.8004 22.2385 0
17.4641 19.3901 22.6755 0
16.9973 18.7472 22.4479 0
17.1333 18.8362 23.1071 0
18.7544 17.1331 26.2606 0
19.0987 15.8389 26.0049 0
18.9373 19.3304 26.0595 0
18.6526 18.4244 26.3164 0
18.5804 17.7229 25.6945 0
18.3271 18.2247 25.2056 0
18.4007 16.9821 25.14 0
19.928 21.0863 25.1718 0
19.4224 20.1942 25.6459 0
20.2377 22.0794 24.7201 0
19.6759 21.3451 24.539 0
19.0292 20.7627 24.3618 0
18.4728 19.117 25.061 0
18.096 18.4602 24.6816 0
18.8823 19.6585 25.3885 0
18.676 19.9465 24.7863 0
18.3859 20.2139 24.1846 0
17.7368 18.6969 24.2213 0
18.0117 17.9321 24.2325 0
17.8596 19.5738 23.9528 0
17.3334 18.8723 23.7331 0
17.1608 18.2551 23.3408 0
19.2895 15.4128 25.4931 0
19.7094 14.7534 25.8965 0
18.5484 16.5637 24.6366 0
18.9263 16.1519 25.1495 0
19.6473 15.1729 25.0184 0
20.3155 15.1044 24.638 0
20.739 14.3379 25.0038 0
17.9826 17.5771 23.8401 0
18.2205 17.0593 24.226 0
19.9194 15.805 24.2918 0
24.4557 9.14107 21.6641 0
24.106 9.22905 20.801 0
24.8009 9.03685 23.8813 0
24.6707 9.22977 22.7239 0
24.8302 9.11431 21.7808 0
25.4041 9.06614 21.9579 0
25.228 8.96955 20.9609 0
24.4953 8.48281 26.4972 0
24.7932 8.80695 25.1074 0
22.459 8.31328 28.8951 0
23.7804 7.84172 27.9657 0
24.3581 8.68587 26.9294 0
24.1259 8.96261 27.25 0
24.9257 9.30252 25.7983 0
25.3164 9.3625 22.9909 0
25.6655 9.33379 22.2605 0
24.9335 9.19179 23.9199 0
25.1858 9.44577 24.1562 0
25.354 9.71628 24.5544 0
25.6929 10.0524 22.525 0
25.7484 9.74104 21.4744 0
25.2974 10.1995 25.3226 0
25.6601 10.2211 23.6863 0
25.7962 10.7135 23.0412 0
25.8729 11.4555 23.9759 0
25.9707 11.3573 22.8057 0
20.7434 10.5585 29.3941 0
21.366 9.32339 29.2944 0
20.1469 13.5305 29.4506 0
20.212 11.8976 29.4817 0
20.2654 11.2434 29.1381 0
19.8906 11.9475 28.7023 0
20.7796 10.8793 28.7046 0
21.0027 16.9948 29.3215 0
20.3724 15.3662 29.3977 0
21.7224 18.2959 29.0756 0
20.8527 17.7158 29.0322 0
20.1255 17.0177 28.8048 0
19.805 13.3771 28.5802 0
19.5724 12.6702 28.156 0
20.0228 14.2639 28.9899 0
19.8706 15.098 28.5775 0
19.7058 15.9639 28.1932 0
19.5207 13.6288 27.6797 0
19.9369 12.3288 27.7167 0
19.6031 15.1829 27.6756 0
19.5461 14.6595 27.2373 0
19.6038 14.2276 26.7969 0
25.5168 11.3808 25.0916 0
25.7337 12.052 24.5081 0
24.4198 10.0246 26.6367 0
24.9384 10.6369 25.7514 0
24.6228 11.1563 26.2854 0
23.5091 11.0893 26.8357 0
24.2719 11.6502 26.5759 0
22.9748 8.95305 28.0094 0
23.6623 9.43769 27.1557 0
22.1663 9.09851 28.7695 0
21.7894 9.84434 28.4946 0
21.3447 10.5722 28.1246 0
22.6539 10.5177 27.0207 0
22.2035 11.1647 26.7735 0
23.2036 9.91957 27.1421 0
22.0128 10.4312 27.5193 0
20.8294 11.2734 27.7486 0
21.0014 11.9421 26.8409 0
21.7954 11.9929 26.4115 0
20.2444 11.9739 27.2637 0
20.0038 12.8934 26.8018 0
19.8234 13.8269 26.3286 0
25.4686 12.5651 25.0896 0
25.8988 12.7829 23.7719 0
23.8137 12.1949 26.3726 0
24.7084 12.3626 26.0961 0
25.1156 13.0414 25.6308 0
24.8925 13.5162 25.6354 0
25.5023 13.8583 25.2802 0
21.4187 12.7839 25.9561 0
22.5762 12.3615 26.1337 0
20.2173 13.5249 25.8615 0
21.0581 13.5637 25.4774 0
21.8318 13.6623 25.1066 0
23.9897 13.3656 25.6415 0
24.6514 14.0005 25.4184 0
23.3129 12.8013 25.8921 0
22.9554 13.3888 25.3424 0
22.5878 14.0051 24.8427 0
24.2925 14.4418 25.0214 0
25.2888 14.6821 25.2464 0
23.22 14.1896 24.5169 0
23.9823 8.87753 19.8885 0
23.4896 9.07926 20.0109 0
25.1019 9.11017 20.2709 0
24.5633 8.98977 19.9927 0
23.8857 8.86901 19.1588 0
23.7208 9.15365 18.3947 0
23.244 8.88672 18.3129 0
25.4023 10.48 20.99 0
25.3221 9.70257 20.6184 0
25.8634 12.0987 22.4498 0
25.5627 11.3297 21.6939 0
25.1873 11.2349 20.6555 0
24.923 11.9558 20.2303 0
24.6462 11.0783 19.7339 0
24.0453 9.62176 18.7309 0
23.266 9.572 17.7824 0
24.7465 9.69621 19.7199 0
24.4019 10.2534 19.1973 0
23.958 10.8999 18.8637 0
22.9087 10.12 17.1974 0
22.5397 9.6583 17.0073 0
23.7579 11.4316 18.4019 0
23.2942 10.8085 17.8022 0
22.6292 10.7768 16.6658 0
22.6211 11.2495 16.0569 0
22.1095 10.6333 15.8437 0
25.9656 13.4869 23.2369 0
25.9892 12.7997 22.7922 0
25.9214 14.6657 24.9465 0
26.0047 14.1261 24.2821 0
25.9 14.2303 23.2055 0
25.8856 14.9398 23.0998 0
25.8143 14.2435 22.2687 0
25.9317 15.5084 24.9875 0
26.1065 15.1135 25.1553 0
26.2422 16.2482 24.9396 0
26.0901 16.9163 24.5776 0
26.6455 16.5892 24.6039 0
26.3353 15.5013 23.7555 0
25.9142 15.5421 22.733 0
26.4127 15.3988 24.6247 0
26.69 16.0351 24.1683 0
26.5988 16.6853 23.8289 0
25.8345 16.1543 22.3684 0
25.3262 15.5728 21.7438 0
26.4601 17.3591 23.179 0
26.4118 16.7875 22.6573 0
25.7625 16.8458 21.7294 0
25.7441 17.4789 20.9647 0
25.1979 16.8104 20.6333 0
23.165 11.658 16.7272 0
22.8172 11.5947 15.4232 0
24.1217 12.3828 18.7665 0
23.6799 11.8704 17.8425 0
23.6332 12.3633 17.2568 0
23.9741 13.4549 17.6797 0
23.8522 12.8761 16.5023 0
25.3757 12.7539 20.7559 0
24.6873 12.6811 19.7266 0
25.9028 12.7781 21.8765 0
25.7853 13.4644 21.408 0
25.3459 14.1898 21.203 0
24.3747 13.9027 18.7982 0
24.282 14.4667 18.3251 0
24.4265 13.3574 19.3033 0
24.6826 14.1634 20.1791 0
24.9538 14.8933 21.0107 0
24.4651 15.3423 19.2055 0
24.3389 14.8645 17.8811 0
24.8411 15.5211 20.5729 0
24.769 16.1367 20.0547 0
24.7272 16.7624 19.3561 0
23.0565 11.9844 14.8177 0
22.5508 11.3572 14.4275 0
24.0538 13.3932 15.8605 0
23.6646 12.4952 15.3873 0
23.4656 12.154 14.3505 0
23.9847 12.1344 13.8471 0
23.4567 11.5126 13.4211 0
24.6714 15.0022 17.4586 0
24.5004 14.0291 16.7144 0
24.9908 16.9235 18.8024 0
24.653 15.9808 18.26 0
24.9086 15.0619 16.9972 0
25.2829 14.8706 16.5504 0
25.3422 13.8582 15.9197 0
24.3389 12.5336 14.5471 0
24.4007 11.7425 13.5298 0
24.4326 13.4925 15.5089 0
24.8003 13.1602 15.2578 0
25.3033 12.7495 14.7848 0
25.0862 11.2133 13.3459 0
24.8405 10.836 12.6656 0
25.8624 12.1208 14.5412 0
25.3144 11.4974 13.9778 0
25.6554 10.5745 13.1601 0
26.1963 9.64886 13.2857 0
25.9979 9.30233 12.7883 0
16.4241 21.0979 19.0872 0
17.0107 21.5385 19.5307 0
14.8784 21.0713 18.9846 0
15.6995 20.9219 18.9285 0
15.8197 20.4709 19.1216 0
15.1801 20.1403 19.3614 0
15.9473 20.0585 19.3228 0
14.2208 20.9898 18.8514 0
14.2701 20.6202 19.1618 0
26.3321 10.0644 13.347 0
26.6415 8.72043 12.7709 0
26.387 12.7598 15.0829 0
26.3376 11.4096 14.2625 0
26.737 10.5365 13.7192 0
27.1085 10.9743 14.0566 0
27.0006 9.3958 12.7711 0
25.344 15.844 17.1702 0
25.9429 14.2731 16.0706 0
25.33 17.7353 19.2294 0
25.2535 16.9779 18.1866 0
25.5162 16.944 17.4904 0
25.9673 17.6051 17.6964 0
26.2941 16.1217 16.8405 0
27.1399 12.4847 15.1919 0
27.3726 11.2141 14.0488 0
26.6316 13.4405 15.6143 0
26.8965 14.1515 16.0666 0
27.1533 14.964 16.0511 0
27.5905 11.3566 13.709 0
27.0456 9.55216 11.7492 0
27.4379 15.4719 15.8374 0
27.7794 13.4688 14.9974 0
27.3456 11.7268 12.5367 0
26.6581 12.0364 11.6563 0
26.0755 10.0451 10.4121 0
26.1951 18.0332 21.3729 0
25.6702 18.0173 20.3097 0
26.49 17.8713 23.5589 0
26.4654 17.9977 22.4949 0
26.4134 18.6088 21.812 0
26.4797 19.1503 21.9898 0
26.4524 19.0426 20.9401 0
25.6344 17.2195 24.285 0
26.1256 17.6277 24.1234 0
26.1943 18.9587 22.7741 0
26.2541 19.6755 22.0333 0
26.1384 18.3173 23.5032 0
25.6769 18.6466 23.1958 0
25.8399 20.0187 21.657 0
26.4563 20.0637 20.9679 0
25.3154 19.6632 21.918 0
25.508 20.4343 21.1452 0
25.7716 20.5703 20.2762 0
26.2649 20.7882 20.0557 0
27.0817 14.2889 12.8031 0
25.3653 12.4417 11.0039 0
27.1066 17.088 16.7112 0
27.531 15.7076 15.2518 0
27.3577 15.9843 14.6083 0
27.6218 17.6795 15.8561 0
26.8528 16.4811 13.7134 0
26.0907 18.2866 18.7794 0
26.6021 17.9748 17.7598 0
25.6838 18.4155 19.6529 0
26.099 18.9856 19.8448 0
26.5543 19.4932 19.9642 0
27.4654 18.9207 17.2875 0
27.9391 19.2697 16.9456 0
27.0707 18.4369 17.5881 0
26.9605 19.3337 18.7358 0
26.7611 19.9587 19.9135 0
27.5702 20.4342 18.4339 0
28.2455 19.7201 16.6192 0
26.6998 20.44 19.7882 0
26.9059 20.8239 19.537 0
27.1646 20.9973 18.7916 0
24.7449 12.9082 10.0939 0
25.0143 11.1445 8.74633 0
26.505 16.9433 12.7409 0
25.3788 15.1105 11.1845 0
24.3108 13.2163 8.89692 0
24.012 13.2966 7.61729 0
24.2647 11.7791 6.60077 0
28.3561 20.23 16.3013 0
27.7832 18.6492 14.6325 0
27.3608 21.2596 18.1294 0
28.0564 21.1215 17.7016 0
28.6344 20.8075 15.9447 0
28.7641 21.2469 15.3891 0
28.2594 19.8325 13.3986 0
24.782 15.3039 9.17587 0
23.8757 13.5412 6.6072 0
26.309 17.3055 11.8906 0
26.4307 17.6069 11.0871 0
26.6092 17.8389 10.3301 0
24.0107 13.6819 5.65307 0
24.3528 12.1032 4.80212 0
26.894 17.8474 9.50557 0
24.9783 15.3739 7.48157 0
24.5498 13.5991 4.74092 0
25.2471 13.6618 3.98941 0
25.2803 12.3635 3.18487 0
16.7196 18.5799 21.8773 0
16.8458 19.6023 21.1736 0
16.894 19.0097 21.4993 0
16.9686 20.7022 20.2809 0
16.8406 20.1711 20.7801 0
17.0312 21.1101 19.8621 0
16.4525 20.4546 19.7525 0
15.8643 19.9443 19.7334 0
15.8782 19.2214 20.6144 0
16.3355 19.6852 20.6944 0
15.8532 19.6708 20.1403 0
26.3874 15.1213 5.73729 0
26.153 13.7944 3.5022 0
28.3931 20.1929 11.8872 0
27.2786 17.707 8.79832 0
27.8613 17.5097 8.2569 0
28.7485 20.664 10.5736 0
28.2014 17.9117 7.71777 0
28.2022 21.6417 16.3533 0
28.6368 21.315 14.7062 0
26.6267 21.557 18.3276 0
27.4346 21.693 17.3378 0
27.5126 21.6178 16.6037 0
26.7846 21.2437 16.6709 0
27.5067 21.227 15.86 0
28.7083 21.2637 13.1589 0
28.8614 21.5685 12.3696 0
28.5798 21.1911 13.9426 0
28.0608 21.1419 14.813 0
27.5832 20.8797 15.0698 0
28.276 21.3486 13.0246 0
29.0507 22.1212 11.7192 0
27.6999 20.9241 14.181 0
26.9034 13.7761 3.16877 0
26.684 12.561 2.23378 0
28.4007 18.2778 7.1295 0
27.6559 15.4293 4.76219 0
27.5902 13.8299 2.92724 0
28.1523 14.0409 2.64347 0
28.0069 12.8646 1.63715 0
28.7438 22.5119 11.0286 0
28.76 21.2077 9.46532 0
28.3225 22.8228 10.3118 0
28.0591 22.6317 9.66905 0
28.1459 20.7927 8.22464 0
28.3551 15.7306 3.96725 0
28.6492 14.2337 2.37023 0
28.243 18.1232 6.55217 0
28.1926 17.9027 5.97971 0
28.1824 17.6019 5.39517 0
28.3045 17.4384 4.97745 0
27.7704 21.9897 8.89341 0
26.7628 7.4804 11.94 0
26.6547 7.31647 12.2633 0
26.7309 7.76778 10.9187 0
26.7894 7.71743 11.5768 0
26.4713 6.41137 10.4991 0
26.55 5.61635 8.76867 0
26.2578 5.57212 9.83078 0
26.8885 8.2516 9.52598 0
26.7398 7.86682 10.2012 0
26.4001 9.349 8.3678 0
26.7201 8.75275 8.94839 0
27.0844 7.78038 7.95261 0
27.1848 7.68828 6.80589 0
27.0361 6.82075 7.18314 0
26.9553 5.83722 8.15638 0
27.1076 5.10502 7.4483 0
26.7573 6.72767 8.96719 0
26.9575 6.23361 7.61993 0
26.8348 6.13071 6.62891 0
26.5545 5.0685 6.47002 0
26.8507 4.84013 7.34047 0
26.5886 6.34179 6.02398 0
26.46 5.61353 6.10958 0
26.08 5.19024 5.68666 0
25.4325 10.3 6.7657 0
25.8231 9.94442 7.62655 0
25.1446 10.5789 4.92787 0
25.1862 10.4654 5.80233 0
26.2241 9.3054 5.0494 0
26.8306 7.67257 3.48062 0
26.7595 7.99972 4.32812 0
25.6624 10.9337 3.47882 0
25.3186 10.7262 4.19496 0
26.3598 11.2784 2.18791 0
25.9176 11.0795 2.77794 0
26.7162 9.42531 2.24326 0
27.3151 7.9069 1.05733 0
27.0084 7.89713 1.68379 0
26.8369 7.66903 2.80719 0
26.2918 7.05507 2.76371 0
26.2346 9.23135 3.47156 0
26.7884 7.8761 2.2886 0
26.1854 7.40256 1.78663 0
25.6697 6.91732 2.3643 0
25.8953 6.69096 2.79985 0
25.4589 7.35079 1.50505 0
25.489 7.06556 1.9031 0
24.7509 7.13231 2.17804 0
23.8823 7.25637 1.97674 0
24.092 7.40316 2.53026 0
25.7057 6.23836 5.40402 0
26.5975 6.77035 5.43654 0
26.0696 6.42133 5.38772 0
25.4205 6.51728 4.80043 0
25.3619 7.12845 4.5109 0
24.6182 7.34547 4.92588 0
27.0136 8.12171 6.10933 0
26.9601 7.33533 5.67944 0
26.7598 8.99275 6.749 0
26.9189 8.16789 5.23946 0
26.8229 7.38174 4.06552 0
26.0374 7.09395 4.21567 0
25.1763 7.56663 4.10267 0
26.5483 7.11686 4.78502 0
26.4306 7.26919 4.15629 0
26.1293 6.93662 3.44715 0
24.7801 7.52296 3.60847 0
25.2807 7.02657 3.17018 0
24.3459 7.42167 3.03687 0
23.4642 7.76874 2.9847 0
23.2255 8.36327 4.09016 0
27.545 11.3015 1.23065 0
26.9023 11.2657 1.61558 0
27.9682 11.6404 0.842404 0
27.927 10.4067 0.327289 0
23.8198 7.35199 1.53535 0
25.495 7.60078 1.13644 0
24.66 7.42969 1.31537 0
27.3862 8.31502 0.765255 0
26.3264 7.88383 0.934113 0
27.0116 10.0219 1.29175 0
27.4051 8.82496 0.523825 0
26.5478 8.83206 0.325575 0
25.5644 7.91854 0.800629 0
15.3967 21.6294 26.5674 0
14.5695 21.8764 25.6035 0
13.9024 21.6978 25.1383 0
14.1192 21.2639 25.651 0
16.7236 20.3578 28.0965 0
16.101 20.9954 27.3408 0
17.437 20.3332 29.8853 0
17.0918 20.3404 28.9948 0
16.5364 20.2506 28.8874 0
16.3306 20.1625 29.6893 0
15.9708 20.5017 28.7638 0
14.8422 21.1562 26.8186 0
14.233 21.1573 26.5996 0
15.465 21.3137 27.2293 0
15.514 20.9457 27.8474 0
15.4871 20.6264 28.6317 0
14.3479 21.0428 27.5415 0
15.4649 20.2503 29.448 0
14.9816 20.6559 28.5165 0
14.4383 20.5957 28.3898 0
14.5355 19.9676 29.2409 0
13.9491 20.3964 28.3219 0
17.973 20.3393 31.8611 0
17.7067 20.3633 30.8372 0
18.2421 20.3858 33.7626 0
18.1739 20.3664 32.8437 0
17.7584 20.0374 32.6888 0
17.4754 19.6525 33.5266 0
17.1718 19.8454 32.6241 0
18.6142 19.7658 35.3532 0
18.3135 20.3665 34.6764 0
18.6963 18.3182 36.4044 0
18.8564 19.1502 35.9804 0
18.4966 18.7499 36.0429 0
18.0238 17.4861 36.7174 0
18.0676 18.3298 36.1752 0
17.5759 19.5241 34.482 0
17.2238 19.1523 34.3917 0
17.9298 19.9378 34.5514 0
17.8198 18.9648 35.4279 0
17.6624 17.9781 36.2783 0
17.0869 18.2777 35.2463 0
16.8081 18.8141 34.2048 0
17.3224 16.8263 36.9785 0
17.2922 17.6598 36.1944 0
16.9223 17.358 36.0621 0
16.5969 16.3229 36.6716 0
16.4548 17.1254 35.8545 0
14.9112 19.7216 30.2437 0
14.4393 19.4793 30.1581 0
15.7441 19.9917 30.4511 0
15.3538 19.9661 30.3248 0
15.1312 19.5295 31.247 0
15.2832 19.26 32.2028 0
14.8485 19.0295 32.1039 0
16.6374 20.0933 30.6459 0
16.1287 19.998 30.558 0
17.2158 20.1655 30.7238 0
16.9136 19.9369 31.6731 0
16.6436 19.6134 32.5314 0
15.7707 19.4182 32.2311 0
15.5329 18.829 33.0611 0
15.9551 19.7905 31.457 0
16.2113 19.481 32.3804 0
16.5141 19.0869 33.2371 0
15.873 18.282 33.9063 0
15.3085 18.1936 33.9228 0
16.3986 18.4736 34.0047 0
16.1648 17.6987 34.846 0
15.8949 16.9035 35.6289 0
14.2132 19.2253 31.118 0
13.9459 19.4209 30.1136 0
14.5496 18.5388 32.9404 0
14.3973 18.8966 32.0221 0
13.9102 18.8928 31.9874 0
13.5756 18.4625 32.864 0
13.4076 18.9078 32.0373 0
15.0239 17.4258 34.7791 0
14.7418 18.0939 33.9868 0
15.6157 15.9661 36.1381 0
15.3334 16.7055 35.4904 0
14.7036 16.6203 35.7372 0
14.5747 15.902 36.2597 0
14.087 16.522 35.9838 0
13.8088 17.9621 33.6959 0
13.2717 18.0228 33.8073 0
14.2584 18.0182 33.8619 0
13.928 17.2579 34.8687 0
13.7098 16.6648 35.5139 0
13.0695 17.4753 34.41 0
12.7248 18.0741 33.9917 0
13.6696 15.9304 35.6958 0
13.3665 16.8243 34.9917 0
12.9069 17.0987 34.9535 0
12.9146 16.4587 35.1106 0
12.4193 17.4299 35.0906 0
13.3054 20.877 27.434 0
13.4408 20.2462 28.2787 0
12.5689 20.1805 28.3969 0
12.5797 19.6448 29.2456 0
12.9662 20.1568 28.2983 0
13.5746 19.6352 29.1728 0
11.9239 19.4892 30.2318 0
11.258 19.3739 31.1827 0
11.4354 18.8164 32.1018 0
10.9839 18.9322 31.9973 0
13.0123 19.1742 30.1523 0
12.478 19.2915 30.2023 0
13.4782 19.331 30.1445 0
13.2783 19.0892 31.1088 0
12.9605 18.773 32.0977 0
11.9689 18.6448 32.0965 0
11.5377 18.2557 33.086 0
12.3232 18.9965 31.1481 0
12.5011 18.6078 32.1093 0
12.5789 18.4008 33.1351 0
11.7379 17.9005 33.9446 0
11.302 17.89 33.8357 0
12.2397 18.0564 34.0076 0
12.079 17.7695 34.5782 0
11.95 17.5163 35.14 0
10.682 18.461 32.8128 0
10.4781 19.1173 32.0551 0
11.1852 17.6575 34.4578 0
10.9015 17.9952 33.6507 0
12.083 16.6572 35.0135 0
11.5025 17.4365 35.1424 0
11.1063 17.3231 35.0079 0
11.5637 16.323 34.3853 0
10.8854 17.0643 34.3949 0
10.0833 18.0414 33.2132 0
9.65506 17.8644 32.9093 0
10.5349 17.9634 33.3393 0
10.4954 17.4832 33.751 0
10.6804 16.8889 33.9316 0
9.65485 16.9953 33.1363 0
11.2369 16.1555 33.6876 0
10.3774 16.5482 33.4951 0
10.3137 16.5295 33.0752 0
11.412 16.3691 32.8821 0
10.4445 16.7191 32.8317 0
11.4399 16.9087 31.7814 0
18.1748 15.7936 36.5438 0
18.4114 17.2167 36.8772 0
18.2798 13.1605 35.8689 0
18.0759 14.3236 36.2211 0
17.9109 14.0839 36.6745 0
17.9882 12.6098 36.8049 0
17.7162 13.9092 37.091 0
19.7388 10.3824 34.6795 0
18.9087 11.8267 35.4006 0
20.8252 7.23698 31.0391 0
20.4421 9.09589 33.4894 0
20.2517 9.07906 33.8954 0
20.5017 7.71836 32.2401 0
20.0712 9.07408 34.275 0
18.5592 11.3393 36.2938 0
18.3525 11.1446 36.5904 0
18.7428 11.5684 35.896 0
19.3832 10.1353 35.4881 0
19.8738 9.02544 34.6395 0
18.9697 9.87904 36.0727 0
18.1515 10.972 36.9198 0
20.2556 8.06832 33.458 0
19.6989 8.96334 34.9358 0
19.5517 8.94101 35.1808 0
20.1083 8.01843 34.2215 0
19.1969 8.8153 35.365 0
22.2172 6.68487 28.2202 0
21.3944 6.59433 29.482 0
22.847 8.21128 25.893 0
22.5881 7.4361 27.1047 0
22.2733 7.11474 27.4976 0
22.0676 7.97797 26.798 0
21.9688 6.77941 27.8328 0
23.1255 9.63668 23.6667 0
23.0063 8.91285 24.7243 0
23.1745 10.0356 21.4497 0
23.2205 10.1304 22.5714 0
22.7234 10.2078 23.1131 0
22.1306 10.4976 22.2888 0
22.2045 10.3102 23.5031 0
22.1998 9.06803 25.7381 0
21.6499 8.86379 26.0312 0
22.6132 9.00195 25.2653 0
22.2147 9.74944 24.6237 0
21.6561 10.457 23.8334 0
21.1112 9.60218 25.2019 0
21.0894 8.66604 26.287 0
20.9174 10.7408 22.7673 0
21.1114 10.4605 24.0602 0
20.6074 10.1684 23.9881 0
19.8797 10.4972 22.8023 0
20.065 9.88493 23.9292 0
20.2651 6.96942 31.671 0
20.1932 7.13002 31.8046 0
20.4446 6.85678 31.1476 0
20.3294 6.97732 31.4328 0
20.1395 6.22482 29.6618 0
20.0133 6.15464 28.1958 0
19.6679 6.09578 28.1455 0
20.7323 6.27944 30.2617 0
20.5915 6.55166 30.7178 0
21.0202 6.44247 29.9187 0
21.3975 6.42222 29.0709 0
21.4566 6.52912 28.0026 0
20.5056 6.32244 28.257 0
19.9168 6.90946 27.0598 0
20.5809 6.26508 29.4973 0
20.8876 6.41493 28.1576 0
21.0317 7.46669 27.1688 0
19.7362 8.13036 26.1979 0
19.1853 7.78919 26.0028 0
20.4374 8.388 26.2575 0
19.8555 9.05969 25.1262 0
19.3211 9.4186 23.8594 0
20.0088 6.44839 29.7112 0
19.9941 7.18575 31.7364 0
19.0343 6.33103 26.7057 0
19.4722 6.04668 28.0916 0
19.1952 5.89777 27.9752 0
18.3862 5.86088 26.5532 0
19.086 5.9971 27.8945 0
18.5464 8.27762 24.7543 0
18.6637 7.38018 25.7005 0
18.6408 9.7774 22.6263 0
18.5953 8.94826 23.744 0
17.9394 8.64973 23.5159 0
17.2082 9.10837 22.3427 0
17.1342 8.4861 23.3726 0
17.7539 6.73192 25.4946 0
17.3815 6.41194 25.4776 0
18.2903 7.11907 25.5161 0
17.3218 7.60543 24.4311 0
16.5977 8.10632 23.2628 0
16.347 6.9085 24.3023 0
17.0701 6.12624 25.4791 0
16.1944 8.42607 21.83 0
16.1988 7.70422 22.9816 0
15.7869 7.36537 22.8953 0
15.3346 7.57255 21.2567 0
15.4381 6.91763 22.6007 0
22.7408 8.89247 19.2575 0
22.958 9.49724 20.2741 0
22.5089 9.02669 17.4961 0
22.5827 8.7158 18.3425 0
21.9257 8.97178 18.5299 0
21.1562 9.2579 17.7047 0
21.36 9.32321 18.6641 0
21.73 9.79206 16.2391 0
22.3229 9.34239 16.6939 0
21.905 10.2611 15.0451 0
21.4897 10.1501 15.7018 0
21.1285 9.75327 15.3535 0
21.0912 9.28207 14.3847 0
20.8513 9.51993 14.9044 0
21.028 9.16246 16.7213 0
20.5359 9.50748 16.6198 0
21.6511 9.2321 16.7475 0
20.9029 9.35722 15.8109 0
20.5174 9.43076 14.4324 0
20.0371 9.51432 15.2223 0
20.0515 9.78462 16.5158 0
20.5045 9.39439 13.0198 0
20.146 9.34158 14.001 0
19.469 9.36378 13.6752 0
19.4916 9.2083 12.4508 0
18.9282 9.23015 13.4569 0
22.6063 10.7914 13.7436 0
22.2079 10.5311 14.3846 0
23.6887 10.8717 12.5026 0
23.0257 10.9872 13.1107 0
22.7033 10.2047 12.893 0
22.9049 9.35572 12.2253 0
22.36 9.3734 12.5991 0
25.0783 9.82696 12.2807 0
24.3921 10.4649 12.1745 0
26.2437 8.05671 12.9402 0
25.7471 8.94237 12.8401 0
25.3572 8.55223 12.4723 0
25.4551 7.48076 12.4609 0
24.8163 8.23714 12.0297 0
23.5267 9.08861 12.1381 0
23.2942 8.29046 11.87 0
23.9893 9.90644 11.9314 0
24.1877 8.7224 11.9468 0
24.4528 7.59279 11.9658 0
23.788 7.30113 11.3661 0
23.2487 7.56848 11.2334 0
24.806 6.60351 11.5426 0
24.3198 7.01472 11.4689 0
24.1986 6.37291 10.9665 0
24.516 5.42346 10.7807 0
24.0358 5.76355 10.5192 0
20.0991 8.95224 11.6207 0
19.8926 8.34726 11.6185 0
20.9012 9.346 12.1057 0
20.4411 9.24202 11.833 0
20.7959 7.99925 11.3368 0
21.4559 7.10258 11.0326 0
21.2709 6.68834 10.938 0
21.3451 9.1514 13.8445 0
21.0995 9.23576 12.9902 0
21.7702 9.81415 14.1904 0
21.846 9.26845 13.221 0
22.1428 8.75044 12.2158 0
21.7469 7.6409 11.4289 0
22.1645 6.67851 10.6414 0
21.4533 8.76806 11.999 0
22.0025 8.1777 11.8856 0
22.6542 7.85651 11.5073 0
22.8306 6.27939 10.3138 0
22.5315 5.70008 10.1917 0
23.0773 6.89736 10.7491 0
23.454 6.01906 10.4268 0
23.8111 5.18426 10.3896 0
20.5056 7.04258 11.3888 0
19.7995 7.81035 11.7569 0
21.6475 5.70139 10.526 0
21.1077 6.23821 10.9957 0
22.9051 4.88458 10.3344 0
22.221 5.15289 10.0864 0
23.5586 4.62925 10.515 0
23.3476 3.94342 10.5935 0
23.1628 3.15278 10.683 0
21.9517 3.87468 10.7629 0
22.087 4.51278 10.4144 0
22.5652 3.49055 10.7124 0
22.9556 2.51453 10.7308 0
21.993 2.42358 10.8911 0
21.2729 3.03144 11.1624 0
15.1663 8.19061 20.0973 0
14.7297 7.72702 19.8812 0
16.3582 8.97942 20.5929 0
15.8055 8.57261 20.3285 0
15.1251 8.79049 18.9959 0
14.9377 9.4204 18.0479 0
14.6365 8.94029 17.9775 0
17.3731 9.68778 21.1386 0
16.8053 9.35554 20.8961 0
18.5351 10.7623 21.5466 0
17.9943 10.1553 21.3514 0
17.3073 10.2762 20.0314 0
17.0062 10.8055 18.9981 0
16.2296 10.7621 18.6464 0
15.3659 9.87494 18.2132 0
15.1523 9.58776 17.241 0
16.1954 9.65469 19.413 0
15.6516 10.4465 18.3367 0
15.5833 10.6517 17.387 0
15.463 9.61192 16.4947 0
15.5717 8.92537 16.558 0
15.9617 10.0618 16.5055 0
15.572 10.089 16.4709 0
15.9223 8.91029 15.6332 0
16.5734 7.46598 14.4734 0
16.5326 7.35717 14.8015 0
19.5709 11.0168 21.7418 0
19.0973 10.9769 21.6436 0
20.7691 10.8275 21.4351 0
20.1211 11.0132 21.6743 0
19.3965 11.268 20.6353 0
19.263 11.3017 19.4284 0
18.7327 11.5292 19.4238 0
22.1023 10.6777 21.0753 0
21.4338 10.7154 21.2185 0
22.5766 10.1666 20.7197 0
21.6913 9.93328 19.8245 0
20.796 9.84398 18.8397 0
19.8012 10.9588 19.2734 0
19.2425 10.7734 18.0462 0
20.584 10.7269 20.2289 0
20.2698 10.3702 19.0604 0
20.2032 9.99043 17.7602 0
19.2614 10.1097 16.6143 0
18.6836 10.3783 16.6633 0
19.7076 9.92771 16.5492 0
19.0252 9.51634 14.9889 0
18.501 8.95685 13.4624 0
16.7175 7.52577 14.1203 0
17.2967 6.76441 13.8144 0
16.5266 10.1104 16.5986 0
16.521 8.72839 15.2501 0
17.0071 7.71492 13.8348 0
17.3614 7.91781 13.5156 0
17.8303 7.20766 13.0858 0
17.6075 11.2381 19.2179 0
16.9749 10.7847 17.871 0
18.3955 11.3426 20.4527 0
18.1965 11.5624 19.3373 0
18.1433 11.269 18.0493 0
17.3538 9.18316 14.8534 0
17.7768 8.19013 13.4389 0
17.0961 10.3558 16.4891 0
17.646 10.506 16.5036 0
18.152 10.5033 16.6171 0
18.0819 8.47365 13.3812 0
18.6009 7.6198 12.5697 0
18.1484 9.45437 14.9752 0
18.2694 8.6305 13.4429 0
19.0367 8.25787 12.4072 0
18.0418 6.28219 13.1227 0
17.9075 5.90705 13.5314 0
18.7214 6.64035 12.5193 0
18.3213 6.50199 12.7911 0
19.1724 5.43218 13.1666 0
20.1549 4.46695 13.1741 0
19.472 6.95801 12.1502 0
19.1174 6.78506 12.2599 0
19.6532 7.27814 11.8661 0
20.2829 6.25987 11.9238 0
20.8532 5.2276 11.9847 0
20.3969 4.69444 12.8197 0
19.7644 5.79101 12.5268 0
20.7011 4.9289 12.4226 0
20.9927 4.00166 11.8066 0
21.0649 2.70556 11.6921 0
14.1781 7.86713 18.7467 0
14.1808 7.23709 19.7559 0
14.8038 8.48745 17.1864 0
14.2727 8.46734 17.892 0
13.9425 7.99744 17.9123 0
14.4063 7.68174 17.3468 0
13.6596 7.50954 17.9845 0
16.095 7.74913 15.8606 0
15.5245 8.2969 16.5671 0
17.3312 6.27327 14.5392 0
16.6032 6.97603 15.0618 0
16.8544 6.51238 15.541 0
17.963 5.51121 15.6011 0
17.0813 6.0235 15.9701 0
15.3362 7.71477 16.7843 0
15.3688 7.23146 17.0594 0
15.4226 8.02146 16.6837 0
16.22 6.95864 16.3517 0
17.1831 5.61678 16.4458 0
16.4206 5.93427 17.1828 0
15.4647 6.73274 17.3946 0
18.0099 4.43226 16.5526 0
17.2753 5.19115 16.9278 0
17.4877 4.97717 17.3762 0
17.6896 4.75333 17.7958 0
18.9915 4.83292 13.8874 0
17.9731 5.55497 14.0026 0
20.0155 4.15099 13.7534 0
18.418 5.32026 14.6172 0
26.6808 6.21473 12.0931 0
26.5849 7.17338 12.7887 0
26.3846 4.93918 9.34698 0
26.3763 5.50444 10.8779 0
26.4341 5.51002 11.5289 0
26.3282 5.43428 11.723 0
26.621 4.56393 8.01558 0
24.9635 5.02257 11.0732 0
25.213 6.13385 11.6682 0
25.0665 5.59561 11.2583 0
25.8828 6.88102 12.5155 0
25.4014 6.58728 12.062 0
26.3061 6.94943 12.774 0
26.2168 6.08112 12.3452 0
25.6439 5.57366 11.7141 0
26.0261 4.97219 11.3603 0
11.8656 16.0499 31.2937 0
11.641 15.2543 29.4763 0
11.8334 14.4075 28.9662 0
11.4302 14.4018 28.245 0
11.3393 13.6681 26.9566 0
11.29 14.3231 24.7613 0
11.9714 13.939 26.2862 0
11.6681 14.1182 25.4849 0
11.9522 14.6235 24.0282 0
12.2489 14.7795 23.6032 0
11.8364 14.9988 23.0368 0
11.9452 15.5538 32.478 0
11.9372 15.8014 31.908 0
11.8656 15.2979 33.3758 0
11.8066 15.3982 32.9904 0
12.4484 14.6822 32.0036 0
13.0535 14.3303 31.3908 0
12.6718 13.9912 30.8545 0
12.1484 15.041 34.1257 0
12.0322 15.1468 33.6888 0
12.6293 15.4466 34.8635 0
12.2661 15.1473 34.5803 0
12.6192 14.0323 33.8537 0
13.3345 13.2714 33.6866 0
13.1219 13.4286 33.0461 0
13.0284 14.1872 31.8384 0
13.6946 14.2958 30.7064 0
12.4792 14.5376 32.8196 0
13.1643 13.9879 32.4194 0
14.2693 14.3675 31.8399 0
14.5013 14.3832 30.0358 0
14.0374 14.0902 29.3929 0
15.3912 14.6273 31.3312 0
14.967 14.6687 30.6468 0
15.1873 14.3507 29.2731 0
15.832 14.1139 28.5 0
15.3828 14.1217 27.8336 0
12.5725 14.595 24.3824 0
12.4559 14.9201 23.177 0
12.3326 13.8554 27.0085 0
12.5887 14.2271 25.6177 0
12.9407 14.3759 24.9743 0
13.4115 14.2301 25.4702 0
13.1973 14.4815 24.3162 0
12.1891 14.41 29.6565 0
12.0842 13.6618 28.4404 0
12.2967 15.1821 30.8332 0
12.4997 14.2556 30.2201 0
12.7447 13.39 29.5391 0
13.5272 13.9776 26.732 0
13.9669 14.0093 25.9131 0
12.784 13.7382 27.608 0
13.0744 13.4858 28.1287 0
13.4682 13.4976 28.7407 0
14.4744 14.0014 26.4304 0
14.3087 13.8988 25.0611 0
14.3374 13.9844 27.9478 0
14.9762 14.0849 27.1358 0
15.4012 13.7107 26.2599 0
12.4193 14.2756 22.6615 0
12.0042 14.4976 22.2491 0
13.1908 13.7619 23.6243 0
12.8087 14.0065 23.1253 0
12.0485 12.5477 21.8873 0
11.5513 10.4888 21.0264 0
11.1656 10.7889 20.6903 0
14.371 13.2746 24.1898 0
13.7461 13.626 23.9238 0
15.5183 13.0242 25.3947 0
14.918 13.0978 24.762 0
13.9134 11.9258 23.4791 0
13.1975 9.73248 23.0472 0
12.7497 9.84538 22.5093 0
11.9233 10.2218 21.5203 0
11.3947 8.779 19.944 0
12.9743 12.2327 22.535 0
12.3197 10.0052 22.0063 0
12.0698 8.38965 20.869 0
11.218 7.14589 19.278 0
10.9626 7.39258 18.9154 0
11.7619 6.8529 20.2256 0
11.4556 6.93315 19.7231 0
10.861 5.19412 18.9071 0
11.423 3.55412 17.5332 0
11.1587 3.49298 17.2729 0
13.3668 15.3254 35.2683 0
12.9739 15.5725 35.1627 0
13.9883 15.0244 36.3014 0
13.6195 15.1712 35.8254 0
13.6954 14.3129 35.8275 0
14.2749 13.4119 35.9342 0
14.0715 13.372 35.3221 0
15.0566 15.2671 36.5402 0
14.4952 15.1766 36.5098 0
15.823 15.1795 36.8672 0
15.4408 15.221 36.7083 0
15.3963 14.509 36.9031 0
15.7955 13.7454 37.0953 0
15.3924 13.7653 36.9605 0
14.5445 13.4392 36.4844 0
15.083 12.5471 35.8449 0
14.4861 14.4196 36.554 0
15.0866 13.6984 36.6647 0
15.509 12.745 36.8614 0
16.3156 11.829 35.3485 0
16.2067 12.0984 34.6854 0
16.5102 11.8649 36.3966 0
16.3387 11.7697 35.9591 0
17.3182 11.281 34.7123 0
18.1984 10.9627 34.029 0
18.2343 11.7079 33.5182 0
16.6544 15.4537 37.4803 0
16.2493 15.3196 37.195 0
17.3235 15.8552 37.4588 0
17.018 15.6252 37.5637 0
16.7568 14.5409 37.6962 0
16.8445 13.5997 37.8357 0
16.4553 13.5738 37.8114 0
17.8768 16.5148 37.1889 0
17.6232 16.1397 37.3467 0
18.1413 16.919 36.9821 0
17.8308 15.3573 37.1971 0
17.5158 13.751 37.4157 0
17.142 13.6276 37.7878 0
17.2601 12.408 37.7256 0
17.411 14.8951 37.5634 0
17.3183 13.647 37.6105 0
17.6626 12.2415 37.4088 0
17.7043 10.9677 37.4033 0
17.5276 11.1725 37.5111 0
17.8931 10.8797 37.2373 0
18.2923 9.7386 36.4772 0
18.7879 8.69287 35.5696 0
18.0938 10.474 34.5236 0
18.4939 10.1655 33.0582 0
16.5059 11.7728 37.0111 0
17.2923 10.8122 35.8626 0
17.9461 9.90466 34.9342 0
17.8924 9.55302 35.2097 0
18.4608 9.01359 33.7049 0
15.872 13.6254 37.393 0
15.8803 12.8624 37.472 0
15.9396 14.346 37.295 0
16.0304 13.5413 37.7106 0
16.3901 12.6366 37.826 0
17.3144 10.3531 36.7427 0
17.8433 9.09209 35.2256 0
16.5215 11.7017 37.4507 0
16.7849 11.5232 37.597 0
17.2827 11.3464 37.6148 0
18.1188 8.86108 35.3808 0
18.7924 8.28036 33.8252 0
17.8442 9.91942 36.871 0
18.3994 8.71837 35.5863 0
19.4867 8.04342 34.1349 0
18.7022 9.0787 31.8252 0
18.6601 9.78112 31.4695 0
18.9884 7.97029 31.9817 0
18.8176 8.51492 32.0024 0
19.1608 7.78224 29.8631 0
18.2173 5.55564 28.2006 0
18.1835 6.10148 28.2421 0
19.5885 7.52214 31.8672 0
19.2957 7.69757 31.8328 0
19.77 7.27786 31.7029 0
19.8153 6.75081 29.6224 0
18.981 5.73276 27.8986 0
18.5019 5.52518 27.9071 0
17.2321 5.33769 26.8781 0
19.6128 7.08254 29.6967 0
18.8103 5.59388 27.7913 0
18.0752 5.33119 26.5508 0
16.2605 5.95001 25.4407 0
15.9774 6.00585 25.1938 0
16.6517 5.88922 25.5022 0
15.6412 6.41688 24.0465 0
15.1589 6.76491 22.3061 0
11.6743 3.73 17.8394 0
12.4588 2.42165 17.6136 0
12.0189 6.8347 20.8518 0
11.4843 5.24234 19.64 0
11.8967 3.93228 18.3056 0
11.9806 4.23368 18.8318 0
12.9049 3.19368 18.098 0
13.594 9.65202 23.6668 0
12.5818 8.15357 22.3284 0
16.1853 12.8829 26.1043 0
15.007 11.5098 24.643 0
14.0649 9.58499 24.2384 0
14.6047 9.4144 24.7407 0
13.3974 8.13597 23.6814 0
12.0114 5.65014 20.8587 0
12.1577 4.58101 19.5191 0
12.2064 6.80027 21.6656 0
12.5432 6.99025 22.3529 0
12.9837 7.02479 23.0325 0
12.2841 4.99591 20.2029 0
12.9573 3.99291 18.5614 0
13.3712 6.97364 23.6096 0
12.6396 6.1065 22.28 0
12.4798 5.27192 20.9264 0
12.7763 5.39093 21.6665 0
12.5671 4.54692 19.3655 0
16.3585 14.1213 29.4068 0
16.4302 13.5521 27.7121 0
15.7206 14.1186 31.9701 0
16.1462 14.3997 30.8245 0
16.8069 14.0768 30.2641 0
17.2051 13.6007 30.8111 0
17.1681 13.231 29.4042 0
13.7485 13.5477 34.2459 0
14.7119 13.546 33.1443 0
13.2556 14.3644 34.7861 0
13.9776 13.5545 34.7518 0
14.9615 12.9913 34.4886 0
16.8228 13.3653 32.008 0
17.5955 13.1124 31.3832 0
15.9966 13.6138 32.6445 0
16.1162 13.1184 33.3267 0
16.1922 12.6498 34.0046 0
17.9219 12.7872 32.1647 0
17.8084 12.4124 30.8115 0
17.2527 12.4918 33.4913 0
18.2272 12.4322 32.9634 0
18.3961 11.5343 32.1205 0
13.4169 6.09234 23.4734 0
12.9128 5.50796 22.1421 0
14.4159 7.76955 24.7381 0
13.8553 6.68284 24.1801 0
14.317 6.44491 24.6817 0
