#!ascii - generated by CreateLabelFiles project 
4394 8325
629 2485 2486 0
2488 2486 630 0
2487 629 2486 0
2487 2486 2488 0
39 2487 2488 0
2490 2460 40 0
2489 621 2460 0
2489 2460 2490 0
632 2489 2490 0
2492 2457 621 0
2491 154 2457 0
2491 2457 2492 0
631 2491 2492 0
2493 2489 632 0
2492 621 2489 0
2492 2489 2493 0
631 2492 2493 0
2495 2493 632 0
2494 631 2493 0
2494 2493 2495 0
159 2494 2495 0
2497 2448 154 0
2496 618 2448 0
2496 2448 2497 0
633 2496 2497 0
2498 2445 618 0
2464 38 2445 0
2464 2445 2498 0
625 2464 2498 0
2499 2496 633 0
2498 618 2496 0
2498 2496 2499 0
625 2498 2499 0
2500 2499 633 0
2470 625 2499 0
2470 2499 2500 0
158 2470 2500 0
2502 2494 159 0
2501 631 2494 0
2501 2494 2502 0
634 2501 2502 0
2503 2491 631 0
2497 154 2491 0
2497 2491 2503 0
633 2497 2503 0
2504 2501 634 0
2503 631 2501 0
2503 2501 2504 0
633 2503 2504 0
2505 2504 634 0
2500 633 2504 0
2500 2504 2505 0
158 2500 2505 0
2507 2502 159 0
2506 634 2502 0
2506 2502 2507 0
635 2506 2507 0
2508 2505 634 0
2483 158 2505 0
2483 2505 2508 0
630 2483 2508 0
2509 2506 635 0
2508 634 2506 0
2508 2506 2509 0
630 2508 2509 0
2510 2509 635 0
2488 630 2509 0
2488 2509 2510 0
39 2488 2510 0
2512 2490 40 0
2511 632 2490 0
2511 2490 2512 0
637 2511 2512 0
2514 2495 632 0
2513 159 2495 0
2513 2495 2514 0
636 2513 2514 0
2515 2511 637 0
2514 632 2511 0
2514 2511 2515 0
636 2514 2515 0
2517 2515 637 0
2516 636 2515 0
2516 2515 2517 0
161 2516 2517 0
2519 2507 159 0
2518 635 2507 0
2518 2507 2519 0
639 2518 2519 0
2521 2510 635 0
2520 39 2510 0
2520 2510 2521 0
638 2520 2521 0
2522 2518 639 0
2521 635 2518 0
2521 2518 2522 0
638 2521 2522 0
2524 2522 639 0
2523 638 2522 0
2523 2522 2524 0
160 2523 2524 0
2526 2516 161 0
2525 636 2516 0
2525 2516 2526 0
640 2525 2526 0
2527 2513 636 0
2519 159 2513 0
2519 2513 2527 0
639 2519 2527 0
2528 2525 640 0
2527 636 2525 0
2527 2525 2528 0
639 2527 2528 0
2529 2528 640 0
2524 639 2528 0
2524 2528 2529 0
160 2524 2529 0
2531 2526 161 0
2530 640 2526 0
2530 2526 2531 0
642 2530 2531 0
2533 2529 640 0
2532 160 2529 0
2532 2529 2533 0
641 2532 2533 0
2534 2530 642 0
2533 640 2530 0
2533 2530 2534 0
641 2533 2534 0
2536 2534 642 0
2535 641 2534 0
2535 2534 2536 0
10 2535 2536 0
2538 2535 10 0
2537 641 2535 0
2537 2535 2538 0
644 2537 2538 0
2540 2532 641 0
2539 160 2532 0
2539 2532 2540 0
643 2539 2540 0
2541 2537 644 0
2540 641 2537 0
2540 2537 2541 0
643 2540 2541 0
2543 2541 644 0
2542 643 2541 0
2542 2541 2543 0
163 2542 2543 0
2545 2523 160 0
2544 638 2523 0
2544 2523 2545 0
646 2544 2545 0
2547 2520 638 0
2546 39 2520 0
2546 2520 2547 0
645 2546 2547 0
2548 2544 646 0
2547 638 2544 0
2547 2544 2548 0
645 2547 2548 0
2550 2548 646 0
2549 645 2548 0
2549 2548 2550 0
162 2549 2550 0
2552 2542 163 0
2551 643 2542 0
2551 2542 2552 0
647 2551 2552 0
2553 2539 643 0
2545 160 2539 0
2545 2539 2553 0
646 2545 2553 0
2554 2551 647 0
2553 643 2551 0
2553 2551 2554 0
646 2553 2554 0
2555 2554 647 0
2550 646 2554 0
2550 2554 2555 0
162 2550 2555 0
2557 2552 163 0
2556 647 2552 0
2556 2552 2557 0
649 2556 2557 0
2559 2555 647 0
2558 162 2555 0
2558 2555 2559 0
648 2558 2559 0
2560 2556 649 0
2559 647 2556 0
2559 2556 2560 0
648 2559 2560 0
4151 2560 649 0
4152 648 2560 0
4152 2560 4151 0
2562 2487 39 0
2561 629 2487 0
2561 2487 2562 0
651 2561 2562 0
2564 2484 629 0
2563 157 2484 0
2563 2484 2564 0
650 2563 2564 0
2565 2561 651 0
2564 629 2561 0
2564 2561 2565 0
650 2564 2565 0
2567 2565 651 0
2566 650 2565 0
2566 2565 2567 0
164 2566 2567 0
2569 2475 157 0
2568 626 2475 0
2568 2475 2569 0
652 2568 2569 0
4153 4150 626 0
4154 2568 652 0
4153 626 2568 0
4153 2568 4154 0
4155 4154 652 0
2571 2566 164 0
2570 650 2566 0
2570 2566 2571 0
653 2570 2571 0
2572 2563 650 0
2569 157 2563 0
2569 2563 2572 0
652 2569 2572 0
2573 2570 653 0
2572 650 2570 0
2572 2570 2573 0
652 2572 2573 0
4156 2573 653 0
4155 652 2573 0
4155 2573 4156 0
4157 2571 164 0
4158 653 2571 0
4158 2571 4157 0
4159 4156 653 0
4159 653 4158 0
2574 648 4152 0
2574 4152 4160 0
4161 2574 4160 0
2576 2558 648 0
2575 162 2558 0
2575 2558 2576 0
654 2575 2576 0
2577 2574 4161 0
2576 648 2574 0
2576 2574 2577 0
654 2576 2577 0
4162 2577 4161 0
2578 654 2577 0
2578 2577 4162 0
4163 2578 4162 0
2580 2549 162 0
2579 645 2549 0
2579 2549 2580 0
655 2579 2580 0
2581 2546 645 0
2562 39 2546 0
2562 2546 2581 0
651 2562 2581 0
2582 2579 655 0
2581 645 2579 0
2581 2579 2582 0
651 2581 2582 0
2583 2582 655 0
2567 651 2582 0
2567 2582 2583 0
164 2567 2583 0
4164 2578 4163 0
2584 654 2578 0
2584 2578 4164 0
656 2584 4164 0
2585 2575 654 0
2580 162 2575 0
2580 2575 2585 0
655 2580 2585 0
2586 2584 656 0
2585 654 2584 0
2585 2584 2586 0
655 2585 2586 0
2587 2586 656 0
2583 655 2586 0
2583 2586 2587 0
164 2583 2587 0
4165 656 4164 0
4166 2587 656 0
4157 164 2587 0
4157 2587 4166 0
4166 656 4165 0
2589 2538 10 0
2588 644 2538 0
2588 2538 2589 0
658 2588 2589 0
2591 2543 644 0
2590 163 2543 0
2590 2543 2591 0
657 2590 2591 0
2592 2588 658 0
2591 644 2588 0
2591 2588 2592 0
657 2591 2592 0
2594 2592 658 0
2593 657 2592 0
2593 2592 2594 0
165 2593 2594 0
2596 2557 163 0
2595 649 2557 0
2595 2557 2596 0
659 2595 2596 0
4167 4151 649 0
4168 2595 659 0
4167 649 2595 0
4167 2595 4168 0
2597 4168 659 0
4169 4168 2597 0
4170 4169 2597 0
2599 2593 165 0
2598 657 2593 0
2598 2593 2599 0
660 2598 2599 0
2600 2590 657 0
2596 163 2590 0
2596 2590 2600 0
659 2596 2600 0
2601 2598 660 0
2600 657 2598 0
2600 2598 2601 0
659 2600 2601 0
2602 2601 660 0
2597 659 2601 0
2597 2601 2602 0
4170 2597 2602 0
2604 2599 165 0
2603 660 2599 0
2603 2599 2604 0
661 2603 2604 0
2605 2602 660 0
4171 4170 2602 0
4171 2602 2605 0
4172 4171 2605 0
2606 2603 661 0
2605 660 2603 0
2605 2603 2606 0
4172 2605 2606 0
4173 2606 661 0
4174 4172 2606 0
4174 2606 4173 0
42 4175 4176 0
41 4177 4178 0
2607 4175 42 0
4179 4175 2607 0
662 4179 2607 0
4180 4179 662 0
2608 4180 662 0
4181 4180 2608 0
166 4181 2608 0
2609 4181 166 0
4182 4181 2609 0
4183 4182 2609 0
2610 2609 166 0
4184 4183 2609 0
4184 2609 2610 0
663 4184 2610 0
4185 4184 663 0
2611 4185 663 0
4178 4185 2611 0
41 4178 2611 0
2613 2607 42 0
2612 662 2607 0
2612 2607 2613 0
665 2612 2613 0
2615 2608 662 0
2614 166 2608 0
2614 2608 2615 0
664 2614 2615 0
2616 2612 665 0
2615 662 2612 0
2615 2612 2616 0
664 2615 2616 0
2618 2616 665 0
2617 664 2616 0
2617 2616 2618 0
168 2617 2618 0
2620 2610 166 0
2619 663 2610 0
2619 2610 2620 0
667 2619 2620 0
2622 2611 663 0
2621 41 2611 0
2621 2611 2622 0
666 2621 2622 0
2623 2619 667 0
2622 663 2619 0
2622 2619 2623 0
666 2622 2623 0
2625 2623 667 0
2624 666 2623 0
2624 2623 2625 0
167 2624 2625 0
2627 2617 168 0
2626 664 2617 0
2626 2617 2627 0
668 2626 2627 0
2628 2614 664 0
2620 166 2614 0
2620 2614 2628 0
667 2620 2628 0
2629 2626 668 0
2628 664 2626 0
2628 2626 2629 0
667 2628 2629 0
2630 2629 668 0
2625 667 2629 0
2625 2629 2630 0
167 2625 2630 0
2632 2627 168 0
2631 668 2627 0
2631 2627 2632 0
670 2631 2632 0
2634 2630 668 0
2633 167 2630 0
2633 2630 2634 0
669 2633 2634 0
2635 2631 670 0
2634 668 2631 0
2634 2631 2635 0
669 2634 2635 0
2637 2635 670 0
2636 669 2635 0
2636 2635 2637 0
11 2636 2637 0
671 4186 4187 0
671 4187 4188 0
2639 4188 4189 0
2638 671 4188 0
2638 4188 2639 0
169 2638 2639 0
2640 4190 4191 0
2639 4189 4190 0
2639 4190 2640 0
169 2639 2640 0
2641 4191 4192 0
2641 4192 4193 0
673 2641 4193 0
2643 2640 4191 0
2642 169 2640 0
2642 2640 2643 0
672 2642 2643 0
2644 2641 673 0
2643 4191 2641 0
2643 2641 2644 0
672 2643 2644 0
2646 2644 673 0
2645 672 2644 0
2645 2644 2646 0
43 2645 2646 0
2648 2428 4139 0
2647 612 2428 0
2647 2428 2648 0
675 2647 2648 0
2650 2425 612 0
2649 151 2425 0
2649 2425 2650 0
674 2649 2650 0
2651 2647 675 0
2650 612 2647 0
2650 2647 2651 0
674 2650 2651 0
2653 2651 675 0
2652 674 2651 0
2652 2651 2653 0
170 2652 2653 0
2655 2416 151 0
2654 609 2416 0
2654 2416 2655 0
676 2654 2655 0
2656 2413 609 0
2434 3 2413 0
2434 2413 2656 0
616 2434 2656 0
2657 2654 676 0
2656 609 2654 0
2656 2654 2657 0
616 2656 2657 0
2658 2657 676 0
2440 616 2657 0
2440 2657 2658 0
155 2440 2658 0
2660 2652 170 0
2659 674 2652 0
2659 2652 2660 0
677 2659 2660 0
2661 2649 674 0
2655 151 2649 0
2655 2649 2661 0
676 2655 2661 0
2662 2659 677 0
2661 674 2659 0
2661 2659 2662 0
676 2661 2662 0
2663 2662 677 0
2658 676 2662 0
2658 2662 2663 0
155 2658 2663 0
2665 2660 170 0
2664 677 2660 0
2664 2660 2665 0
678 2664 2665 0
2666 2663 677 0
2456 155 2663 0
2456 2663 2666 0
622 2456 2666 0
2667 2664 678 0
2666 677 2664 0
2666 2664 2667 0
622 2666 2667 0
2668 2667 678 0
2461 622 2667 0
2461 2667 2668 0
40 2461 2668 0
2670 2645 43 0
2669 672 2645 0
2669 2645 2670 0
680 2669 2670 0
2672 2642 672 0
2671 169 2642 0
2671 2642 2672 0
679 2671 2672 0
2673 2669 680 0
2672 672 2669 0
2672 2669 2673 0
679 2672 2673 0
2675 2673 680 0
2674 679 2673 0
2674 2673 2675 0
171 2674 2675 0
2677 2638 169 0
2676 671 2638 0
2676 2638 2677 0
681 2676 2677 0
2678 4186 671 0
2648 4139 4186 0
2648 4186 2678 0
675 2648 2678 0
2679 2676 681 0
2678 671 2676 0
2678 2676 2679 0
675 2678 2679 0
2680 2679 681 0
2653 675 2679 0
2653 2679 2680 0
170 2653 2680 0
2682 2674 171 0
2681 679 2674 0
2681 2674 2682 0
682 2681 2682 0
2683 2671 679 0
2677 169 2671 0
2677 2671 2683 0
681 2677 2683 0
2684 2681 682 0
2683 679 2681 0
2683 2681 2684 0
681 2683 2684 0
2685 2684 682 0
2680 681 2684 0
2680 2684 2685 0
170 2680 2685 0
2687 2682 171 0
2686 682 2682 0
2686 2682 2687 0
683 2686 2687 0
2688 2685 682 0
2665 170 2685 0
2665 2685 2688 0
678 2665 2688 0
2689 2686 683 0
2688 682 2686 0
2688 2686 2689 0
678 2688 2689 0
2690 2689 683 0
2668 678 2689 0
2668 2689 2690 0
40 2668 2690 0
2692 2670 43 0
2691 680 2670 0
2691 2670 2692 0
685 2691 2692 0
2694 2675 680 0
2693 171 2675 0
2693 2675 2694 0
684 2693 2694 0
2695 2691 685 0
2694 680 2691 0
2694 2691 2695 0
684 2694 2695 0
2697 2695 685 0
2696 684 2695 0
2696 2695 2697 0
172 2696 2697 0
2699 2687 171 0
2698 683 2687 0
2698 2687 2699 0
686 2698 2699 0
2700 2690 683 0
2512 40 2690 0
2512 2690 2700 0
637 2512 2700 0
2701 2698 686 0
2700 683 2698 0
2700 2698 2701 0
637 2700 2701 0
2702 2701 686 0
2517 637 2701 0
2517 2701 2702 0
161 2517 2702 0
2704 2696 172 0
2703 684 2696 0
2703 2696 2704 0
687 2703 2704 0
2705 2693 684 0
2699 171 2693 0
2699 2693 2705 0
686 2699 2705 0
2706 2703 687 0
2705 684 2703 0
2705 2703 2706 0
686 2705 2706 0
2707 2706 687 0
2702 686 2706 0
2702 2706 2707 0
161 2702 2707 0
2709 2704 172 0
2708 687 2704 0
2708 2704 2709 0
688 2708 2709 0
2710 2707 687 0
2531 161 2707 0
2531 2707 2710 0
642 2531 2710 0
2711 2708 688 0
2710 687 2708 0
2710 2708 2711 0
642 2710 2711 0
2712 2711 688 0
2536 642 2711 0
2536 2711 2712 0
10 2536 2712 0
2714 2636 11 0
2713 669 2636 0
2713 2636 2714 0
690 2713 2714 0
2716 2633 669 0
2715 167 2633 0
2715 2633 2716 0
689 2715 2716 0
2717 2713 690 0
2716 669 2713 0
2716 2713 2717 0
689 2716 2717 0
2719 2717 690 0
2718 689 2717 0
2718 2717 2719 0
174 2718 2719 0
2721 2624 167 0
2720 666 2624 0
2720 2624 2721 0
692 2720 2721 0
2723 2621 666 0
2722 41 2621 0
2722 2621 2723 0
691 2722 2723 0
2724 2720 692 0
2723 666 2720 0
2723 2720 2724 0
691 2723 2724 0
2726 2724 692 0
2725 691 2724 0
2725 2724 2726 0
173 2725 2726 0
2728 2718 174 0
2727 689 2718 0
2727 2718 2728 0
693 2727 2728 0
2729 2715 689 0
2721 167 2715 0
2721 2715 2729 0
692 2721 2729 0
2730 2727 693 0
2729 689 2727 0
2729 2727 2730 0
692 2729 2730 0
2731 2730 693 0
2726 692 2730 0
2726 2730 2731 0
173 2726 2731 0
2733 2728 174 0
2732 693 2728 0
2732 2728 2733 0
695 2732 2733 0
2735 2731 693 0
2734 173 2731 0
2734 2731 2735 0
694 2734 2735 0
2736 2732 695 0
2735 693 2732 0
2735 2732 2736 0
694 2735 2736 0
2738 2736 695 0
2737 694 2736 0
2737 2736 2738 0
44 2737 2738 0
2739 4177 41 0
4194 4177 2739 0
696 4194 2739 0
4195 4194 696 0
2741 4195 696 0
2740 4196 4195 0
2740 4195 2741 0
175 2740 2741 0
2742 2740 175 0
4197 4196 2740 0
4197 2740 2742 0
697 4197 2742 0
4198 4197 697 0
4199 4198 697 0
2744 2742 175 0
2743 697 2742 0
2743 2742 2744 0
698 2743 2744 0
2745 4199 697 0
4193 4199 2745 0
673 4193 2745 0
2746 2743 698 0
2745 697 2743 0
2745 2743 2746 0
673 2745 2746 0
2747 2746 698 0
2646 673 2746 0
2646 2746 2747 0
43 2646 2747 0
2749 2737 44 0
2748 694 2737 0
2748 2737 2749 0
700 2748 2749 0
2751 2734 694 0
2750 173 2734 0
2750 2734 2751 0
699 2750 2751 0
2752 2748 700 0
2751 694 2748 0
2751 2748 2752 0
699 2751 2752 0
2754 2752 700 0
2753 699 2752 0
2753 2752 2754 0
176 2753 2754 0
2756 2725 173 0
2755 691 2725 0
2755 2725 2756 0
701 2755 2756 0
2757 2722 691 0
2739 41 2722 0
2739 2722 2757 0
696 2739 2757 0
2758 2755 701 0
2757 691 2755 0
2757 2755 2758 0
696 2757 2758 0
2759 2758 701 0
2741 696 2758 0
2741 2758 2759 0
175 2741 2759 0
2761 2753 176 0
2760 699 2753 0
2760 2753 2761 0
702 2760 2761 0
2762 2750 699 0
2756 173 2750 0
2756 2750 2762 0
701 2756 2762 0
2763 2760 702 0
2762 699 2760 0
2762 2760 2763 0
701 2762 2763 0
2764 2763 702 0
2759 701 2763 0
2759 2763 2764 0
175 2759 2764 0
2766 2761 176 0
2765 702 2761 0
2765 2761 2766 0
703 2765 2766 0
2767 2764 702 0
2744 175 2764 0
2744 2764 2767 0
698 2744 2767 0
2768 2765 703 0
2767 702 2765 0
2767 2765 2768 0
698 2767 2768 0
2769 2768 703 0
2747 698 2768 0
2747 2768 2769 0
43 2747 2769 0
2771 2749 44 0
2770 700 2749 0
2770 2749 2771 0
705 2770 2771 0
2773 2754 700 0
2772 176 2754 0
2772 2754 2773 0
704 2772 2773 0
2774 2770 705 0
2773 700 2770 0
2773 2770 2774 0
704 2773 2774 0
2776 2774 705 0
2775 704 2774 0
2775 2774 2776 0
177 2775 2776 0
2778 2766 176 0
2777 703 2766 0
2777 2766 2778 0
706 2777 2778 0
2779 2769 703 0
2692 43 2769 0
2692 2769 2779 0
685 2692 2779 0
2780 2777 706 0
2779 703 2777 0
2779 2777 2780 0
685 2779 2780 0
2781 2780 706 0
2697 685 2780 0
2697 2780 2781 0
172 2697 2781 0
2783 2775 177 0
2782 704 2775 0
2782 2775 2783 0
707 2782 2783 0
2784 2772 704 0
2778 176 2772 0
2778 2772 2784 0
706 2778 2784 0
2785 2782 707 0
2784 704 2782 0
2784 2782 2785 0
706 2784 2785 0
2786 2785 707 0
2781 706 2785 0
2781 2785 2786 0
172 2781 2786 0
2788 2783 177 0
2787 707 2783 0
2787 2783 2788 0
708 2787 2788 0
2789 2786 707 0
2709 172 2786 0
2709 2786 2789 0
688 2709 2789 0
2790 2787 708 0
2789 707 2787 0
2789 2787 2790 0
688 2789 2790 0
2791 2790 708 0
2712 688 2790 0
2712 2790 2791 0
10 2712 2791 0
2793 2714 11 0
2792 690 2714 0
2792 2714 2793 0
710 2792 2793 0
2795 2719 690 0
2794 174 2719 0
2794 2719 2795 0
709 2794 2795 0
2796 2792 710 0
2795 690 2792 0
2795 2792 2796 0
709 2795 2796 0
2798 2796 710 0
2797 709 2796 0
2797 2796 2798 0
179 2797 2798 0
2800 2733 174 0
2799 695 2733 0
2799 2733 2800 0
712 2799 2800 0
2802 2738 695 0
2801 44 2738 0
2801 2738 2802 0
711 2801 2802 0
2803 2799 712 0
2802 695 2799 0
2802 2799 2803 0
711 2802 2803 0
2805 2803 712 0
2804 711 2803 0
2804 2803 2805 0
178 2804 2805 0
2807 2797 179 0
2806 709 2797 0
2806 2797 2807 0
713 2806 2807 0
2808 2794 709 0
2800 174 2794 0
2800 2794 2808 0
712 2800 2808 0
2809 2806 713 0
2808 709 2806 0
2808 2806 2809 0
712 2808 2809 0
2810 2809 713 0
2805 712 2809 0
2805 2809 2810 0
178 2805 2810 0
2812 2807 179 0
2811 713 2807 0
2811 2807 2812 0
715 2811 2812 0
2814 2810 713 0
2813 178 2810 0
2813 2810 2814 0
714 2813 2814 0
2815 2811 715 0
2814 713 2811 0
2814 2811 2815 0
714 2814 2815 0
4200 2815 715 0
4201 714 2815 0
4201 2815 4200 0
2817 2771 44 0
2816 705 2771 0
2816 2771 2817 0
717 2816 2817 0
2819 2776 705 0
2818 177 2776 0
2818 2776 2819 0
716 2818 2819 0
2820 2816 717 0
2819 705 2816 0
2819 2816 2820 0
716 2819 2820 0
2822 2820 717 0
2821 716 2820 0
2821 2820 2822 0
180 2821 2822 0
2824 2788 177 0
2823 708 2788 0
2823 2788 2824 0
718 2823 2824 0
2825 2791 708 0
2589 10 2791 0
2589 2791 2825 0
658 2589 2825 0
2826 2823 718 0
2825 708 2823 0
2825 2823 2826 0
658 2825 2826 0
2827 2826 718 0
2594 658 2826 0
2594 2826 2827 0
165 2594 2827 0
2829 2821 180 0
2828 716 2821 0
2828 2821 2829 0
719 2828 2829 0
2830 2818 716 0
2824 177 2818 0
2824 2818 2830 0
718 2824 2830 0
2831 2828 719 0
2830 716 2828 0
2830 2828 2831 0
718 2830 2831 0
2832 2831 719 0
2827 718 2831 0
2827 2831 2832 0
165 2827 2832 0
2834 2829 180 0
2833 719 2829 0
2833 2829 2834 0
4202 2833 2834 0
2835 2832 719 0
2604 165 2832 0
2604 2832 2835 0
661 2604 2835 0
2836 2833 4202 0
2835 719 2833 0
2835 2833 2836 0
661 2835 2836 0
4203 2836 4202 0
4173 661 2836 0
4173 2836 4203 0
4204 714 4201 0
2838 2813 714 0
2837 178 2813 0
2837 2813 2838 0
720 2837 2838 0
2839 4204 4205 0
2838 714 4204 0
2838 4204 2839 0
720 2838 2839 0
4206 2839 4205 0
4207 720 2839 0
4207 2839 4206 0
2841 2804 178 0
2840 711 2804 0
2840 2804 2841 0
721 2840 2841 0
2842 2801 711 0
2817 44 2801 0
2817 2801 2842 0
717 2817 2842 0
2843 2840 721 0
2842 711 2840 0
2842 2840 2843 0
717 2842 2843 0
2844 2843 721 0
2822 717 2843 0
2822 2843 2844 0
180 2822 2844 0
2845 720 4207 0
2845 4207 4208 0
722 2845 4208 0
2846 2837 720 0
2841 178 2837 0
2841 2837 2846 0
721 2841 2846 0
2847 2845 722 0
2846 720 2845 0
2846 2845 2847 0
721 2846 2847 0
2848 2847 722 0
2844 721 2847 0
2844 2847 2848 0
180 2844 2848 0
4209 722 4208 0
4210 2848 722 0
2834 180 2848 0
2834 2848 4210 0
4202 2834 4210 0
4210 722 4209 0
2849 42 4176 0
2849 4176 4211 0
723 2849 4211 0
723 4211 4212 0
2850 723 4212 0
2850 4212 4213 0
181 2850 4213 0
181 4213 4214 0
2851 181 4214 0
2851 4214 4215 0
4216 2851 4215 0
2853 2613 42 0
2852 665 2613 0
2852 2613 2853 0
725 2852 2853 0
2855 2618 665 0
2854 168 2618 0
2854 2618 2855 0
724 2854 2855 0
2856 2852 725 0
2855 665 2852 0
2855 2852 2856 0
724 2855 2856 0
2858 2856 725 0
2857 724 2856 0
2857 2856 2858 0
183 2857 2858 0
2860 2632 168 0
2859 670 2632 0
2859 2632 2860 0
727 2859 2860 0
2862 2637 670 0
2861 11 2637 0
2861 2637 2862 0
726 2861 2862 0
2863 2859 727 0
2862 670 2859 0
2862 2859 2863 0
726 2862 2863 0
2865 2863 727 0
2864 726 2863 0
2864 2863 2865 0
182 2864 2865 0
2867 2857 183 0
2866 724 2857 0
2866 2857 2867 0
728 2866 2867 0
2868 2854 724 0
2860 168 2854 0
2860 2854 2868 0
727 2860 2868 0
2869 2866 728 0
2868 724 2866 0
2868 2866 2869 0
727 2868 2869 0
2870 2869 728 0
2865 727 2869 0
2865 2869 2870 0
182 2865 2870 0
2872 2867 183 0
2871 728 2867 0
2871 2867 2872 0
730 2871 2872 0
2874 2870 728 0
2873 182 2870 0
2873 2870 2874 0
729 2873 2874 0
2875 2871 730 0
2874 728 2871 0
2874 2871 2875 0
729 2874 2875 0
2877 2875 730 0
2876 729 2875 0
2876 2875 2877 0
45 2876 2877 0
2879 4217 4081 0
2878 4216 4217 0
2878 4217 2879 0
732 2878 2879 0
2881 2851 4216 0
2880 181 2851 0
2880 2851 2881 0
731 2880 2881 0
2882 2878 732 0
2881 4216 2878 0
2881 2878 2882 0
731 2881 2882 0
2884 2882 732 0
2883 731 2882 0
2883 2882 2884 0
184 2883 2884 0
2886 2850 181 0
2885 723 2850 0
2885 2850 2886 0
733 2885 2886 0
2887 2849 723 0
2853 42 2849 0
2853 2849 2887 0
725 2853 2887 0
2888 2885 733 0
2887 723 2885 0
2887 2885 2888 0
725 2887 2888 0
2889 2888 733 0
2858 725 2888 0
2858 2888 2889 0
183 2858 2889 0
2891 2883 184 0
2890 731 2883 0
2890 2883 2891 0
734 2890 2891 0
2892 2880 731 0
2886 181 2880 0
2886 2880 2892 0
733 2886 2892 0
2893 2890 734 0
2892 731 2890 0
2892 2890 2893 0
733 2892 2893 0
2894 2893 734 0
2889 733 2893 0
2889 2893 2894 0
183 2889 2894 0
2896 2891 184 0
2895 734 2891 0
2895 2891 2896 0
735 2895 2896 0
2897 2894 734 0
2872 183 2894 0
2872 2894 2897 0
730 2872 2897 0
2898 2895 735 0
2897 734 2895 0
2897 2895 2898 0
730 2897 2898 0
2899 2898 735 0
2877 730 2898 0
2877 2898 2899 0
45 2877 2899 0
2093 2879 4081 0
2900 732 2879 0
2900 2879 2093 0
529 2900 2093 0
2902 2884 732 0
2901 184 2884 0
2901 2884 2902 0
736 2901 2902 0
2903 2900 529 0
2902 732 2900 0
2902 2900 2903 0
736 2902 2903 0
2096 2903 529 0
2904 736 2903 0
2904 2903 2096 0
131 2904 2096 0
2906 2896 184 0
2905 735 2896 0
2905 2896 2906 0
738 2905 2906 0
2908 2899 735 0
2907 45 2899 0
2907 2899 2908 0
737 2907 2908 0
2909 2905 738 0
2908 735 2905 0
2908 2905 2909 0
737 2908 2909 0
2911 2909 738 0
2910 737 2909 0
2910 2909 2911 0
185 2910 2911 0
2913 2904 131 0
2912 736 2904 0
2912 2904 2913 0
739 2912 2913 0
2914 2901 736 0
2906 184 2901 0
2906 2901 2914 0
738 2906 2914 0
2915 2912 739 0
2914 736 2912 0
2914 2912 2915 0
738 2914 2915 0
2916 2915 739 0
2911 738 2915 0
2911 2915 2916 0
185 2911 2916 0
2105 2913 131 0
2917 739 2913 0
2917 2913 2105 0
532 2917 2105 0
2919 2916 739 0
2918 185 2916 0
2918 2916 2919 0
740 2918 2919 0
2920 2917 532 0
2919 739 2917 0
2919 2917 2920 0
740 2919 2920 0
2108 2920 532 0
2921 740 2920 0
2921 2920 2108 0
8 2921 2108 0
2923 2793 11 0
2922 710 2793 0
2922 2793 2923 0
742 2922 2923 0
2925 2798 710 0
2924 179 2798 0
2924 2798 2925 0
741 2924 2925 0
2926 2922 742 0
2925 710 2922 0
2925 2922 2926 0
741 2925 2926 0
2928 2926 742 0
2927 741 2926 0
2927 2926 2928 0
186 2927 2928 0
2930 2812 179 0
2929 715 2812 0
2929 2812 2930 0
743 2929 2930 0
2931 4200 715 0
4218 4200 2931 0
4219 4218 2931 0
2932 2929 743 0
2931 715 2929 0
2931 2929 2932 0
4219 2931 2932 0
4220 2932 743 0
4221 4219 2932 0
4221 2932 4220 0
2934 2927 186 0
2933 741 2927 0
2933 2927 2934 0
744 2933 2934 0
2935 2924 741 0
2930 179 2924 0
2930 2924 2935 0
743 2930 2935 0
2936 2933 744 0
2935 741 2933 0
2935 2933 2936 0
743 2935 2936 0
4222 2936 744 0
4220 743 2936 0
4220 2936 4222 0
2938 2934 186 0
2937 744 2934 0
2937 2934 2938 0
745 2937 2938 0
2939 4222 744 0
4223 4222 2939 0
4224 4223 2939 0
2940 2937 745 0
2939 744 2937 0
2939 2937 2940 0
4224 2939 2940 0
2941 2940 745 0
4225 4224 2940 0
4225 2940 2941 0
4226 4225 2941 0
2943 2921 8 0
2942 740 2921 0
2942 2921 2943 0
747 2942 2943 0
2945 2918 740 0
2944 185 2918 0
2944 2918 2945 0
746 2944 2945 0
2946 2942 747 0
2945 740 2942 0
2945 2942 2946 0
746 2945 2946 0
2948 2946 747 0
2947 746 2946 0
2947 2946 2948 0
188 2947 2948 0
2950 2910 185 0
2949 737 2910 0
2949 2910 2950 0
749 2949 2950 0
2952 2907 737 0
2951 45 2907 0
2951 2907 2952 0
748 2951 2952 0
2953 2949 749 0
2952 737 2949 0
2952 2949 2953 0
748 2952 2953 0
2955 2953 749 0
2954 748 2953 0
2954 2953 2955 0
187 2954 2955 0
2957 2947 188 0
2956 746 2947 0
2956 2947 2957 0
750 2956 2957 0
2958 2944 746 0
2950 185 2944 0
2950 2944 2958 0
749 2950 2958 0
2959 2956 750 0
2958 746 2956 0
2958 2956 2959 0
749 2958 2959 0
2960 2959 750 0
2955 749 2959 0
2955 2959 2960 0
187 2955 2960 0
2962 2957 188 0
2961 750 2957 0
2961 2957 2962 0
752 2961 2962 0
2964 2960 750 0
2963 187 2960 0
2963 2960 2964 0
751 2963 2964 0
2965 2961 752 0
2964 750 2961 0
2964 2961 2965 0
751 2964 2965 0
2967 2965 752 0
2966 751 2965 0
2966 2965 2967 0
46 2966 2967 0
2969 2876 45 0
2968 729 2876 0
2968 2876 2969 0
754 2968 2969 0
2971 2873 729 0
2970 182 2873 0
2970 2873 2971 0
753 2970 2971 0
2972 2968 754 0
2971 729 2968 0
2971 2968 2972 0
753 2971 2972 0
2974 2972 754 0
2973 753 2972 0
2973 2972 2974 0
189 2973 2974 0
2976 2864 182 0
2975 726 2864 0
2975 2864 2976 0
755 2975 2976 0
2977 2861 726 0
2923 11 2861 0
2923 2861 2977 0
742 2923 2977 0
2978 2975 755 0
2977 726 2975 0
2977 2975 2978 0
742 2977 2978 0
2979 2978 755 0
2928 742 2978 0
2928 2978 2979 0
186 2928 2979 0
2981 2973 189 0
2980 753 2973 0
2980 2973 2981 0
756 2980 2981 0
2982 2970 753 0
2976 182 2970 0
2976 2970 2982 0
755 2976 2982 0
2983 2980 756 0
2982 753 2980 0
2982 2980 2983 0
755 2982 2983 0
2984 2983 756 0
2979 755 2983 0
2979 2983 2984 0
186 2979 2984 0
2986 2981 189 0
2985 756 2981 0
2985 2981 2986 0
757 2985 2986 0
2987 2984 756 0
2938 186 2984 0
2938 2984 2987 0
745 2938 2987 0
2988 2985 757 0
2987 756 2985 0
2987 2985 2988 0
745 2987 2988 0
2989 2988 757 0
2941 745 2988 0
2941 2988 2989 0
4226 2941 2989 0
2991 2966 46 0
2990 751 2966 0
2990 2966 2991 0
759 2990 2991 0
2993 2963 751 0
2992 187 2963 0
2992 2963 2993 0
758 2992 2993 0
2994 2990 759 0
2993 751 2990 0
2993 2990 2994 0
758 2993 2994 0
2996 2994 759 0
2995 758 2994 0
2995 2994 2996 0
190 2995 2996 0
2998 2954 187 0
2997 748 2954 0
2997 2954 2998 0
760 2997 2998 0
2999 2951 748 0
2969 45 2951 0
2969 2951 2999 0
754 2969 2999 0
3000 2997 760 0
2999 748 2997 0
2999 2997 3000 0
754 2999 3000 0
3001 3000 760 0
2974 754 3000 0
2974 3000 3001 0
189 2974 3001 0
3003 2995 190 0
3002 758 2995 0
3002 2995 3003 0
761 3002 3003 0
3004 2992 758 0
2998 187 2992 0
2998 2992 3004 0
760 2998 3004 0
3005 3002 761 0
3004 758 3002 0
3004 3002 3005 0
760 3004 3005 0
3006 3005 761 0
3001 760 3005 0
3001 3005 3006 0
189 3001 3006 0
3008 3003 190 0
3007 761 3003 0
3007 3003 3008 0
762 3007 3008 0
3009 3006 761 0
2986 189 3006 0
2986 3006 3009 0
757 2986 3009 0
3010 3007 762 0
3009 761 3007 0
3009 3007 3010 0
757 3009 3010 0
4227 3010 762 0
2989 757 3010 0
2989 3010 4227 0
4226 2989 4227 0
3012 2991 46 0
3011 759 2991 0
3011 2991 3012 0
763 3011 3012 0
3014 2996 759 0
3013 190 2996 0
3013 2996 3014 0
4228 3013 3014 0
4229 3011 763 0
3014 759 3011 0
3014 3011 4229 0
4228 3014 4229 0
4230 4229 763 0
4231 3008 190 0
4232 762 3008 0
4232 3008 4231 0
4233 4227 762 0
4233 762 4232 0
4234 3013 4228 0
4231 190 3013 0
4231 3013 4234 0
2237 2943 8 0
3015 747 2943 0
3015 2943 2237 0
565 3015 2237 0
3017 2948 747 0
3016 188 2948 0
3016 2948 3017 0
764 3016 3017 0
3018 3015 565 0
3017 747 3015 0
3017 3015 3018 0
764 3017 3018 0
2240 3018 565 0
3019 764 3018 0
3019 3018 2240 0
140 3019 2240 0
3021 2962 188 0
3020 752 2962 0
3020 2962 3021 0
766 3020 3021 0
3023 2967 752 0
3022 46 2967 0
3022 2967 3023 0
765 3022 3023 0
3024 3020 766 0
3023 752 3020 0
3023 3020 3024 0
765 3023 3024 0
3026 3024 766 0
3025 765 3024 0
3025 3024 3026 0
191 3025 3026 0
3028 3019 140 0
3027 764 3019 0
3027 3019 3028 0
767 3027 3028 0
3029 3016 764 0
3021 188 3016 0
3021 3016 3029 0
766 3021 3029 0
3030 3027 767 0
3029 764 3027 0
3029 3027 3030 0
766 3029 3030 0
3031 3030 767 0
3026 766 3030 0
3026 3030 3031 0
191 3026 3031 0
2249 3028 140 0
3032 767 3028 0
3032 3028 2249 0
568 3032 2249 0
3034 3031 767 0
3033 191 3031 0
3033 3031 3034 0
768 3033 3034 0
3035 3032 568 0
3034 767 3032 0
3034 3032 3035 0
768 3034 3035 0
2252 3035 568 0
3036 768 3035 0
3036 3035 2252 0
35 3036 2252 0
3038 3012 46 0
3037 763 3012 0
3037 3012 3038 0
769 3037 3038 0
3039 4230 763 0
4235 4230 3039 0
4236 4235 3039 0
3040 3037 769 0
3039 763 3037 0
3039 3037 3040 0
4236 3039 3040 0
3041 3040 769 0
4237 4236 3040 0
4237 3040 3041 0
192 4237 3041 0
4238 4237 192 0
3042 4238 192 0
4239 4238 3042 0
4240 4239 3042 0
3044 3036 35 0
3043 768 3036 0
3043 3036 3044 0
771 3043 3044 0
3046 3033 768 0
3045 191 3033 0
3045 3033 3046 0
770 3045 3046 0
3047 3043 771 0
3046 768 3043 0
3046 3043 3047 0
770 3046 3047 0
3049 3047 771 0
3048 770 3047 0
3048 3047 3049 0
193 3048 3049 0
3051 3025 191 0
3050 765 3025 0
3050 3025 3051 0
772 3050 3051 0
3052 3022 765 0
3038 46 3022 0
3038 3022 3052 0
769 3038 3052 0
3053 3050 772 0
3052 765 3050 0
3052 3050 3053 0
769 3052 3053 0
3054 3053 772 0
3041 769 3053 0
3041 3053 3054 0
192 3041 3054 0
3056 3048 193 0
3055 770 3048 0
3055 3048 3056 0
773 3055 3056 0
3057 3045 770 0
3051 191 3045 0
3051 3045 3057 0
772 3051 3057 0
3058 3055 773 0
3057 770 3055 0
3057 3055 3058 0
772 3057 3058 0
3059 3058 773 0
3054 772 3058 0
3054 3058 3059 0
192 3054 3059 0
3061 3056 193 0
3060 773 3056 0
3060 3056 3061 0
774 3060 3061 0
3062 3059 773 0
3042 192 3059 0
3042 3059 3062 0
4240 3042 3062 0
3063 3060 774 0
3062 773 3060 0
3062 3060 3063 0
4240 3062 3063 0
4241 3063 774 0
4242 4240 3063 0
4242 3063 4241 0
2285 3044 35 0
3064 771 3044 0
3064 3044 2285 0
577 3064 2285 0
3066 3049 771 0
3065 193 3049 0
3065 3049 3066 0
775 3065 3066 0
3067 3064 577 0
3066 771 3064 0
3066 3064 3067 0
775 3066 3067 0
2288 3067 577 0
3068 775 3067 0
3068 3067 2288 0
143 3068 2288 0
3070 3061 193 0
3069 774 3061 0
3069 3061 3070 0
777 3069 3070 0
3071 4241 774 0
4243 4241 3071 0
776 4243 3071 0
3072 3069 777 0
3071 774 3069 0
3071 3069 3072 0
776 3071 3072 0
3074 3072 777 0
3073 776 3072 0
3073 3072 3074 0
194 3073 3074 0
3076 3068 143 0
3075 775 3068 0
3075 3068 3076 0
778 3075 3076 0
3077 3065 775 0
3070 193 3065 0
3070 3065 3077 0
777 3070 3077 0
3078 3075 778 0
3077 775 3075 0
3077 3075 3078 0
777 3077 3078 0
3079 3078 778 0
3074 777 3078 0
3074 3078 3079 0
194 3074 3079 0
2297 3076 143 0
3080 778 3076 0
3080 3076 2297 0
580 3080 2297 0
3082 3079 778 0
3081 194 3079 0
3081 3079 3082 0
779 3081 3082 0
3083 3080 580 0
3082 778 3080 0
3082 3080 3083 0
779 3082 3083 0
2300 3083 580 0
3084 779 3083 0
3084 3083 2300 0
0 3084 2300 0
3086 3084 0 0
3085 779 3084 0
3085 3084 3086 0
4244 3085 3086 0
3088 3081 779 0
3087 194 3081 0
3087 3081 3088 0
4245 3087 3088 0
3089 3085 4244 0
3088 779 3085 0
3088 3085 3089 0
4245 3088 3089 0
3090 3089 4244 0
4246 4245 3089 0
4246 3089 3090 0
4247 4246 3090 0
4248 3073 194 0
4249 776 3073 0
4249 3073 4248 0
4250 4243 776 0
4250 776 4249 0
4251 3087 4245 0
4248 194 3087 0
4248 3087 4251 0
2394 3086 0 0
4252 4244 3086 0
4252 3086 2394 0
4131 4252 2394 0
4253 3090 4244 0
4254 4247 3090 0
4254 3090 4253 0
4255 156 4147 0
4256 2465 156 0
3091 623 2465 0
3091 2465 4256 0
4257 3091 4256 0
3093 2462 623 0
3092 38 2462 0
3092 2462 3093 0
4258 3092 3093 0
4259 3091 4257 0
3093 623 3091 0
3093 3091 4259 0
4258 3093 4259 0
4256 156 4255 0
4260 2444 38 0
3094 617 2444 0
3094 2444 4260 0
4261 3094 4260 0
4262 2441 617 0
4263 153 2441 0
4263 2441 4262 0
4264 3094 4261 0
4262 617 3094 0
4262 3094 4264 0
4265 2435 153 0
3095 614 2435 0
3095 2435 4265 0
4266 3095 4265 0
3097 2432 614 0
3096 3 2432 0
3096 2432 3097 0
780 3096 3097 0
4267 3095 4266 0
3097 614 3095 0
3097 3095 4267 0
780 3097 4267 0
4268 780 4267 0
4265 153 4263 0
4269 3092 4258 0
4260 38 3092 0
4260 3092 4269 0
3099 2412 3 0
3098 608 2412 0
3098 2412 3099 0
782 3098 3099 0
3101 2409 608 0
3100 150 2409 0
3100 2409 3101 0
781 3100 3101 0
3102 3098 782 0
3101 608 3098 0
3101 3098 3102 0
781 3101 3102 0
3104 3102 782 0
3103 781 3102 0
3103 3102 3104 0
196 3103 3104 0
3106 2403 150 0
3105 605 2403 0
3105 2403 3106 0
784 3105 3106 0
3108 2400 605 0
3107 37 2400 0
3107 2400 3108 0
783 3107 3108 0
3109 3105 784 0
3108 605 3105 0
3108 3105 3109 0
783 3108 3109 0
3111 3109 784 0
3110 783 3109 0
3110 3109 3111 0
195 3110 3111 0
3113 3103 196 0
3112 781 3103 0
3112 3103 3113 0
785 3112 3113 0
3114 3100 781 0
3106 150 3100 0
3106 3100 3114 0
784 3106 3114 0
3115 3112 785 0
3114 781 3112 0
3114 3112 3115 0
784 3114 3115 0
3116 3115 785 0
3111 784 3115 0
3111 3115 3116 0
195 3111 3116 0
3118 3113 196 0
3117 785 3113 0
3117 3113 3118 0
4270 3117 3118 0
3120 3116 785 0
3119 195 3116 0
3119 3116 3120 0
786 3119 3120 0
3121 3117 4270 0
3120 785 3117 0
3120 3117 3121 0
786 3120 3121 0
4271 3121 4270 0
4272 786 3121 0
4272 3121 4271 0
3123 2397 37 0
3122 604 2397 0
3122 2397 3123 0
788 3122 3123 0
3125 2396 604 0
3124 149 2396 0
3124 2396 3125 0
787 3124 3125 0
3126 3122 788 0
3125 604 3122 0
3125 3122 3126 0
787 3125 3126 0
3128 3126 788 0
3127 787 3126 0
3127 3126 3128 0
198 3127 3128 0
3130 4134 149 0
3129 4273 4134 0
3129 4134 3130 0
790 3129 3130 0
789 4274 4275 0
3131 3129 790 0
4275 4273 3129 0
4275 3129 3131 0
789 4275 3131 0
3133 3131 790 0
3132 789 3131 0
3132 3131 3133 0
197 3132 3133 0
3135 3127 198 0
3134 787 3127 0
3134 3127 3135 0
791 3134 3135 0
3136 3124 787 0
3130 149 3124 0
3130 3124 3136 0
790 3130 3136 0
3137 3134 791 0
3136 787 3134 0
3136 3134 3137 0
790 3136 3137 0
3138 3137 791 0
3133 790 3137 0
3133 3137 3138 0
197 3133 3138 0
3140 3135 198 0
3139 791 3135 0
3139 3135 3140 0
793 3139 3140 0
3142 3138 791 0
3141 197 3138 0
3141 3138 3142 0
792 3141 3142 0
3143 3139 793 0
3142 791 3139 0
3142 3139 3143 0
792 3142 3143 0
3145 3143 793 0
3144 792 3143 0
3144 3143 3145 0
47 3144 3145 0
3146 786 4272 0
3146 4272 4276 0
4277 3146 4276 0
3148 3119 786 0
3147 195 3119 0
3147 3119 3148 0
794 3147 3148 0
3149 3146 4277 0
3148 786 3146 0
3148 3146 3149 0
794 3148 3149 0
3151 3149 4277 0
3150 794 3149 0
3150 3149 3151 0
199 3150 3151 0
3153 3110 195 0
3152 783 3110 0
3152 3110 3153 0
795 3152 3153 0
3154 3107 783 0
3123 37 3107 0
3123 3107 3154 0
788 3123 3154 0
3155 3152 795 0
3154 783 3152 0
3154 3152 3155 0
788 3154 3155 0
3156 3155 795 0
3128 788 3155 0
3128 3155 3156 0
198 3128 3156 0
3158 3150 199 0
3157 794 3150 0
3157 3150 3158 0
796 3157 3158 0
3159 3147 794 0
3153 195 3147 0
3153 3147 3159 0
795 3153 3159 0
3160 3157 796 0
3159 794 3157 0
3159 3157 3160 0
795 3159 3160 0
3161 3160 796 0
3156 795 3160 0
3156 3160 3161 0
198 3156 3161 0
3163 3158 199 0
3162 796 3158 0
3162 3158 3163 0
797 3162 3163 0
3164 3161 796 0
3140 198 3161 0
3140 3161 3164 0
793 3140 3164 0
3165 3162 797 0
3164 796 3162 0
3164 3162 3165 0
793 3164 3165 0
3166 3165 797 0
3145 793 3165 0
3145 3165 3166 0
47 3145 3166 0
4278 3151 4277 0
3167 199 3151 0
3167 3151 4278 0
4279 3167 4278 0
3169 3163 199 0
3168 797 3163 0
3168 3163 3169 0
799 3168 3169 0
3171 3166 797 0
3170 47 3166 0
3170 3166 3171 0
798 3170 3171 0
3172 3168 799 0
3171 797 3168 0
3171 3168 3172 0
798 3171 3172 0
4280 3172 799 0
3173 798 3172 0
3173 3172 4280 0
4281 3173 4280 0
4282 3167 4279 0
3169 199 3167 0
3169 3167 4282 0
799 3169 4282 0
799 4282 4283 0
4280 799 4283 0
3174 4284 4285 0
4286 4284 3174 0
201 4286 3174 0
200 4287 4288 0
3175 4286 201 0
4289 4286 3175 0
800 4289 3175 0
4290 4289 800 0
3176 4290 800 0
4288 4290 3176 0
200 4288 3176 0
3178 3175 201 0
3177 800 3175 0
3177 3175 3178 0
802 3177 3178 0
3180 3176 800 0
3179 200 3176 0
3179 3176 3180 0
801 3179 3180 0
3181 3177 802 0
3180 800 3177 0
3180 3177 3181 0
801 3180 3181 0
3183 3181 802 0
3182 801 3181 0
3182 3181 3183 0
49 3182 3183 0
203 4291 4292 0
202 4293 4294 0
3184 4291 203 0
4295 4291 3184 0
803 4295 3184 0
4296 4295 803 0
4297 4296 803 0
202 4294 4297 0
3186 3184 203 0
3185 803 3184 0
3185 3184 3186 0
805 3185 3186 0
3188 4297 803 0
3187 202 4297 0
3187 4297 3188 0
804 3187 3188 0
3189 3185 805 0
3188 803 3185 0
3188 3185 3189 0
804 3188 3189 0
3191 3189 805 0
3190 804 3189 0
3190 3189 3191 0
48 3190 3191 0
3193 3182 49 0
3192 801 3182 0
3192 3182 3193 0
807 3192 3193 0
3195 3179 801 0
3194 200 3179 0
3194 3179 3195 0
806 3194 3195 0
3196 3192 807 0
3195 801 3192 0
3195 3192 3196 0
806 3195 3196 0
3198 3196 807 0
3197 806 3196 0
3197 3196 3198 0
204 3197 3198 0
3199 4287 200 0
4298 4287 3199 0
808 4298 3199 0
4299 4298 808 0
3200 4299 808 0
4292 4299 3200 0
203 4292 3200 0
3202 3197 204 0
3201 806 3197 0
3201 3197 3202 0
809 3201 3202 0
3203 3194 806 0
3199 200 3194 0
3199 3194 3203 0
808 3199 3203 0
3204 3201 809 0
3203 806 3201 0
3203 3201 3204 0
808 3203 3204 0
3205 3204 809 0
3200 808 3204 0
3200 3204 3205 0
203 3200 3205 0
3207 3202 204 0
3206 809 3202 0
3206 3202 3207 0
810 3206 3207 0
3208 3205 809 0
3186 203 3205 0
3186 3205 3208 0
805 3186 3208 0
3209 3206 810 0
3208 809 3206 0
3208 3206 3209 0
805 3208 3209 0
3210 3209 810 0
3191 805 3209 0
3191 3209 3210 0
48 3191 3210 0
3212 3193 49 0
3211 807 3193 0
3211 3193 3212 0
812 3211 3212 0
3214 3198 807 0
3213 204 3198 0
3213 3198 3214 0
811 3213 3214 0
3215 3211 812 0
3214 807 3211 0
3214 3211 3215 0
811 3214 3215 0
3217 3215 812 0
3216 811 3215 0
3216 3215 3217 0
206 3216 3217 0
3219 3207 204 0
3218 810 3207 0
3218 3207 3219 0
814 3218 3219 0
3221 3210 810 0
3220 48 3210 0
3220 3210 3221 0
813 3220 3221 0
3222 3218 814 0
3221 810 3218 0
3221 3218 3222 0
813 3221 3222 0
3224 3222 814 0
3223 813 3222 0
3223 3222 3224 0
205 3223 3224 0
3226 3216 206 0
3225 811 3216 0
3225 3216 3226 0
815 3225 3226 0
3227 3213 811 0
3219 204 3213 0
3219 3213 3227 0
814 3219 3227 0
3228 3225 815 0
3227 811 3225 0
3227 3225 3228 0
814 3227 3228 0
3229 3228 815 0
3224 814 3228 0
3224 3228 3229 0
205 3224 3229 0
3231 3226 206 0
3230 815 3226 0
3230 3226 3231 0
817 3230 3231 0
3233 3229 815 0
3232 205 3229 0
3232 3229 3233 0
816 3232 3233 0
3234 3230 817 0
3233 815 3230 0
3233 3230 3234 0
816 3233 3234 0
3236 3234 817 0
3235 816 3234 0
3235 3234 3236 0
12 3235 3236 0
4300 3173 4281 0
3237 798 3173 0
3237 3173 4300 0
819 3237 4300 0
3239 3170 798 0
3238 47 3170 0
3238 3170 3239 0
818 3238 3239 0
3240 3237 819 0
3239 798 3237 0
3239 3237 3240 0
818 3239 3240 0
3242 3240 819 0
3241 818 3240 0
3241 3240 3242 0
207 3241 3242 0
819 4300 4301 0
819 4301 4302 0
3242 819 4302 0
3242 4302 4303 0
207 3242 4303 0
3243 207 4303 0
3243 4303 4304 0
820 3243 4304 0
820 4304 4305 0
3244 820 4305 0
3244 4305 4306 0
50 3244 4306 0
3246 3144 47 0
3245 792 3144 0
3245 3144 3246 0
822 3245 3246 0
3248 3141 792 0
3247 197 3141 0
3247 3141 3248 0
821 3247 3248 0
3249 3245 822 0
3248 792 3245 0
3248 3245 3249 0
821 3248 3249 0
3251 3249 822 0
3250 821 3249 0
3250 3249 3251 0
208 3250 3251 0
3253 3132 197 0
3252 789 3132 0
3252 3132 3253 0
823 3252 3253 0
4307 4274 789 0
3254 3252 823 0
4307 789 3252 0
4307 3252 3254 0
4285 4307 3254 0
3255 3254 823 0
3174 4285 3254 0
3174 3254 3255 0
201 3174 3255 0
3257 3250 208 0
3256 821 3250 0
3256 3250 3257 0
824 3256 3257 0
3258 3247 821 0
3253 197 3247 0
3253 3247 3258 0
823 3253 3258 0
3259 3256 824 0
3258 821 3256 0
3258 3256 3259 0
823 3258 3259 0
3260 3259 824 0
3255 823 3259 0
3255 3259 3260 0
201 3255 3260 0
3262 3257 208 0
3261 824 3257 0
3261 3257 3262 0
825 3261 3262 0
3263 3260 824 0
3178 201 3260 0
3178 3260 3263 0
802 3178 3263 0
3264 3261 825 0
3263 824 3261 0
3263 3261 3264 0
802 3263 3264 0
3265 3264 825 0
3183 802 3264 0
3183 3264 3265 0
49 3183 3265 0
3267 3244 50 0
3266 820 3244 0
3266 3244 3267 0
827 3266 3267 0
3269 3243 820 0
3268 207 3243 0
3268 3243 3269 0
826 3268 3269 0
3270 3266 827 0
3269 820 3266 0
3269 3266 3270 0
826 3269 3270 0
3272 3270 827 0
3271 826 3270 0
3271 3270 3272 0
209 3271 3272 0
3274 3241 207 0
3273 818 3241 0
3273 3241 3274 0
828 3273 3274 0
3275 3238 818 0
3246 47 3238 0
3246 3238 3275 0
822 3246 3275 0
3276 3273 828 0
3275 818 3273 0
3275 3273 3276 0
822 3275 3276 0
3277 3276 828 0
3251 822 3276 0
3251 3276 3277 0
208 3251 3277 0
3279 3271 209 0
3278 826 3271 0
3278 3271 3279 0
829 3278 3279 0
3280 3268 826 0
3274 207 3268 0
3274 3268 3280 0
828 3274 3280 0
3281 3278 829 0
3280 826 3278 0
3280 3278 3281 0
828 3280 3281 0
3282 3281 829 0
3277 828 3281 0
3277 3281 3282 0
208 3277 3282 0
3284 3279 209 0
3283 829 3279 0
3283 3279 3284 0
830 3283 3284 0
3285 3282 829 0
3262 208 3282 0
3262 3282 3285 0
825 3262 3285 0
3286 3283 830 0
3285 829 3283 0
3285 3283 3286 0
825 3285 3286 0
3287 3286 830 0
3265 825 3286 0
3265 3286 3287 0
49 3265 3287 0
3289 3267 50 0
3288 827 3267 0
3288 3267 3289 0
832 3288 3289 0
3291 3272 827 0
3290 209 3272 0
3290 3272 3291 0
831 3290 3291 0
3292 3288 832 0
3291 827 3288 0
3291 3288 3292 0
831 3291 3292 0
3294 3292 832 0
3293 831 3292 0
3293 3292 3294 0
210 3293 3294 0
3296 3284 209 0
3295 830 3284 0
3295 3284 3296 0
833 3295 3296 0
3297 3287 830 0
3212 49 3287 0
3212 3287 3297 0
812 3212 3297 0
3298 3295 833 0
3297 830 3295 0
3297 3295 3298 0
812 3297 3298 0
3299 3298 833 0
3217 812 3298 0
3217 3298 3299 0
206 3217 3299 0
3301 3293 210 0
3300 831 3293 0
3300 3293 3301 0
834 3300 3301 0
3302 3290 831 0
3296 209 3290 0
3296 3290 3302 0
833 3296 3302 0
3303 3300 834 0
3302 831 3300 0
3302 3300 3303 0
833 3302 3303 0
3304 3303 834 0
3299 833 3303 0
3299 3303 3304 0
206 3299 3304 0
3306 3301 210 0
3305 834 3301 0
3305 3301 3306 0
835 3305 3306 0
3307 3304 834 0
3231 206 3304 0
3231 3304 3307 0
817 3231 3307 0
3308 3305 835 0
3307 834 3305 0
3307 3305 3308 0
817 3307 3308 0
3309 3308 835 0
3236 817 3308 0
3236 3308 3309 0
12 3236 3309 0
4308 50 4306 0
4309 3289 50 0
3310 832 3289 0
3310 3289 4309 0
837 3310 4309 0
3312 3294 832 0
3311 210 3294 0
3311 3294 3312 0
836 3311 3312 0
3313 3310 837 0
3312 832 3310 0
3312 3310 3313 0
836 3312 3313 0
4310 3313 837 0
3314 836 3313 0
3314 3313 4310 0
4311 3314 4310 0
3316 3306 210 0
3315 835 3306 0
3315 3306 3316 0
839 3315 3316 0
3318 3309 835 0
3317 12 3309 0
3317 3309 3318 0
838 3317 3318 0
3319 3315 839 0
3318 835 3315 0
3318 3315 3319 0
838 3318 3319 0
3321 3319 839 0
3320 838 3319 0
3320 3319 3321 0
211 3320 3321 0
3323 3314 4311 0
3322 836 3314 0
3322 3314 3323 0
840 3322 3323 0
3324 3311 836 0
3316 210 3311 0
3316 3311 3324 0
839 3316 3324 0
3325 3322 840 0
3324 836 3322 0
3324 3322 3325 0
839 3324 3325 0
3326 3325 840 0
3321 839 3325 0
3321 3325 3326 0
211 3321 3326 0
4312 3323 4311 0
3327 840 3323 0
3327 3323 4312 0
842 3327 4312 0
3329 3326 840 0
3328 211 3326 0
3328 3326 3329 0
841 3328 3329 0
3330 3327 842 0
3329 840 3327 0
3329 3327 3330 0
841 3329 3330 0
3332 3330 842 0
3331 841 3330 0
3331 3330 3332 0
51 3331 3332 0
4309 50 4308 0
837 4309 4313 0
837 4313 4314 0
4310 837 4314 0
842 4312 4315 0
3333 4316 4317 0
4315 4316 3333 0
842 4315 3333 0
3334 3333 4317 0
3332 842 3333 0
3332 3333 3334 0
51 3332 3334 0
4318 3334 4317 0
3335 51 3334 0
3335 3334 4318 0
4319 3335 4318 0
3336 4319 4320 0
3336 4320 4321 0
212 3336 4321 0
212 4321 4322 0
3337 212 4322 0
3337 4322 4323 0
4324 3337 4323 0
4325 780 4268 0
3338 3096 780 0
3099 3 3096 0
3099 3096 3338 0
782 3099 3338 0
3339 4325 4326 0
3338 780 4325 0
3338 4325 3339 0
782 3338 3339 0
4327 3339 4326 0
3104 782 3339 0
3104 3339 4327 0
196 3104 4327 0
196 4327 4328 0
3118 196 4328 0
3118 4328 4329 0
4270 3118 4329 0
3340 4330 4331 0
3340 4331 4332 0
214 3340 4332 0
844 4333 4334 0
3342 4335 4336 0
3341 4337 4335 0
3341 4335 3342 0
843 3341 3342 0
3343 4333 844 0
3342 4336 4333 0
3342 4333 3343 0
843 3342 3343 0
3345 3343 844 0
3344 843 3343 0
3344 3343 3345 0
213 3344 3345 0
3347 3340 214 0
3346 4330 3340 0
3346 3340 3347 0
845 3346 3347 0
3348 4338 4330 0
4334 4338 3348 0
844 4334 3348 0
3349 3346 845 0
3348 4330 3346 0
3348 3346 3349 0
844 3348 3349 0
3350 3349 845 0
3345 844 3349 0
3345 3349 3350 0
213 3345 3350 0
3352 3347 214 0
3351 845 3347 0
3351 3347 3352 0
847 3351 3352 0
3354 3350 845 0
3353 213 3350 0
3353 3350 3354 0
846 3353 3354 0
3355 3351 847 0
3354 845 3351 0
3354 3351 3355 0
846 3354 3355 0
3357 3355 847 0
3356 846 3355 0
3356 3355 3357 0
52 3356 3357 0
214 4332 4339 0
3358 4340 4341 0
4339 4340 3358 0
214 4339 3358 0
848 4342 4343 0
3359 3358 4341 0
3352 214 3358 0
3352 3358 3359 0
847 3352 3359 0
3360 4342 848 0
3359 4341 4342 0
3359 4342 3360 0
847 3359 3360 0
3361 3360 848 0
3357 847 3360 0
3357 3360 3361 0
52 3357 3361 0
3362 848 4343 0
3362 4343 4344 0
850 3362 4344 0
3364 3361 848 0
3363 52 3361 0
3363 3361 3364 0
849 3363 3364 0
3365 3362 850 0
3364 848 3362 0
3364 3362 3365 0
849 3364 3365 0
3367 3365 850 0
3366 849 3365 0
3366 3365 3367 0
215 3366 3367 0
851 4345 4346 0
850 4344 4347 0
3368 4345 851 0
4347 4345 3368 0
850 4347 3368 0
3369 3368 851 0
3367 850 3368 0
3367 3368 3369 0
215 3367 3369 0
4348 851 4346 0
3371 3369 851 0
3370 215 3369 0
3370 3369 3371 0
852 3370 3371 0
3371 851 4348 0
3371 4348 4349 0
852 3371 4349 0
4350 852 4349 0
3372 4324 4351 0
3372 4351 4352 0
854 3372 4352 0
3374 3337 4324 0
3373 212 3337 0
3373 3337 3374 0
853 3373 3374 0
3375 3372 854 0
3374 4324 3372 0
3374 3372 3375 0
853 3374 3375 0
3377 3375 854 0
3376 853 3375 0
3376 3375 3377 0
217 3376 3377 0
3379 3336 212 0
3378 4319 3336 0
3378 3336 3379 0
856 3378 3379 0
3381 3335 4319 0
3380 51 3335 0
3380 3335 3381 0
855 3380 3381 0
3382 3378 856 0
3381 4319 3378 0
3381 3378 3382 0
855 3381 3382 0
3384 3382 856 0
3383 855 3382 0
3383 3382 3384 0
216 3383 3384 0
3386 3376 217 0
3385 853 3376 0
3385 3376 3386 0
857 3385 3386 0
3387 3373 853 0
3379 212 3373 0
3379 3373 3387 0
856 3379 3387 0
3388 3385 857 0
3387 853 3385 0
3387 3385 3388 0
856 3387 3388 0
3389 3388 857 0
3384 856 3388 0
3384 3388 3389 0
216 3384 3389 0
3391 3386 217 0
3390 857 3386 0
3390 3386 3391 0
859 3390 3391 0
3393 3389 857 0
3392 216 3389 0
3392 3389 3393 0
858 3392 3393 0
3394 3390 859 0
3393 857 3390 0
3393 3390 3394 0
858 3393 3394 0
3396 3394 859 0
3395 858 3394 0
3395 3394 3396 0
54 3395 3396 0
3398 3331 51 0
3397 841 3331 0
3397 3331 3398 0
861 3397 3398 0
3400 3328 841 0
3399 211 3328 0
3399 3328 3400 0
860 3399 3400 0
3401 3397 861 0
3400 841 3397 0
3400 3397 3401 0
860 3400 3401 0
3403 3401 861 0
3402 860 3401 0
3402 3401 3403 0
219 3402 3403 0
3405 3320 211 0
3404 838 3320 0
3404 3320 3405 0
863 3404 3405 0
3407 3317 838 0
3406 12 3317 0
3406 3317 3407 0
862 3406 3407 0
3408 3404 863 0
3407 838 3404 0
3407 3404 3408 0
862 3407 3408 0
3410 3408 863 0
3409 862 3408 0
3409 3408 3410 0
218 3409 3410 0
3412 3402 219 0
3411 860 3402 0
3411 3402 3412 0
864 3411 3412 0
3413 3399 860 0
3405 211 3399 0
3405 3399 3413 0
863 3405 3413 0
3414 3411 864 0
3413 860 3411 0
3413 3411 3414 0
863 3413 3414 0
3415 3414 864 0
3410 863 3414 0
3410 3414 3415 0
218 3410 3415 0
3417 3412 219 0
3416 864 3412 0
3416 3412 3417 0
866 3416 3417 0
3419 3415 864 0
3418 218 3415 0
3418 3415 3419 0
865 3418 3419 0
3420 3416 866 0
3419 864 3416 0
3419 3416 3420 0
865 3419 3420 0
3422 3420 866 0
3421 865 3420 0
3421 3420 3422 0
53 3421 3422 0
3424 3395 54 0
3423 858 3395 0
3423 3395 3424 0
868 3423 3424 0
3426 3392 858 0
3425 216 3392 0
3425 3392 3426 0
867 3425 3426 0
3427 3423 868 0
3426 858 3423 0
3426 3423 3427 0
867 3426 3427 0
3429 3427 868 0
3428 867 3427 0
3428 3427 3429 0
220 3428 3429 0
3431 3383 216 0
3430 855 3383 0
3430 3383 3431 0
869 3430 3431 0
3432 3380 855 0
3398 51 3380 0
3398 3380 3432 0
861 3398 3432 0
3433 3430 869 0
3432 855 3430 0
3432 3430 3433 0
861 3432 3433 0
3434 3433 869 0
3403 861 3433 0
3403 3433 3434 0
219 3403 3434 0
3436 3428 220 0
3435 867 3428 0
3435 3428 3436 0
870 3435 3436 0
3437 3425 867 0
3431 216 3425 0
3431 3425 3437 0
869 3431 3437 0
3438 3435 870 0
3437 867 3435 0
3437 3435 3438 0
869 3437 3438 0
3439 3438 870 0
3434 869 3438 0
3434 3438 3439 0
219 3434 3439 0
3441 3436 220 0
3440 870 3436 0
3440 3436 3441 0
871 3440 3441 0
3442 3439 870 0
3417 219 3439 0
3417 3439 3442 0
866 3417 3442 0
3443 3440 871 0
3442 870 3440 0
3442 3440 3443 0
866 3442 3443 0
3444 3443 871 0
3422 866 3443 0
3422 3443 3444 0
53 3422 3444 0
3446 3424 54 0
3445 868 3424 0
3445 3424 3446 0
873 3445 3446 0
3448 3429 868 0
3447 220 3429 0
3447 3429 3448 0
872 3447 3448 0
3449 3445 873 0
3448 868 3445 0
3448 3445 3449 0
872 3448 3449 0
3451 3449 873 0
3450 872 3449 0
3450 3449 3451 0
222 3450 3451 0
3453 3441 220 0
3452 871 3441 0
3452 3441 3453 0
875 3452 3453 0
3455 3444 871 0
3454 53 3444 0
3454 3444 3455 0
874 3454 3455 0
3456 3452 875 0
3455 871 3452 0
3455 3452 3456 0
874 3455 3456 0
3458 3456 875 0
3457 874 3456 0
3457 3456 3458 0
221 3457 3458 0
3460 3450 222 0
3459 872 3450 0
3459 3450 3460 0
876 3459 3460 0
3461 3447 872 0
3453 220 3447 0
3453 3447 3461 0
875 3453 3461 0
3462 3459 876 0
3461 872 3459 0
3461 3459 3462 0
875 3461 3462 0
3463 3462 876 0
3458 875 3462 0
3458 3462 3463 0
221 3458 3463 0
3465 3460 222 0
3464 876 3460 0
3464 3460 3465 0
878 3464 3465 0
3467 3463 876 0
3466 221 3463 0
3466 3463 3467 0
877 3466 3467 0
3468 3464 878 0
3467 876 3464 0
3467 3464 3468 0
877 3467 3468 0
3470 3468 878 0
3469 877 3468 0
3469 3468 3470 0
13 3469 3470 0
3472 3235 12 0
3471 816 3235 0
3471 3235 3472 0
880 3471 3472 0
3474 3232 816 0
3473 205 3232 0
3473 3232 3474 0
879 3473 3474 0
3475 3471 880 0
3474 816 3471 0
3474 3471 3475 0
879 3474 3475 0
3477 3475 880 0
3476 879 3475 0
3476 3475 3477 0
224 3476 3477 0
3479 3223 205 0
3478 813 3223 0
3478 3223 3479 0
882 3478 3479 0
3481 3220 813 0
3480 48 3220 0
3480 3220 3481 0
881 3480 3481 0
3482 3478 882 0
3481 813 3478 0
3481 3478 3482 0
881 3481 3482 0
3484 3482 882 0
3483 881 3482 0
3483 3482 3484 0
223 3483 3484 0
3486 3476 224 0
3485 879 3476 0
3485 3476 3486 0
883 3485 3486 0
3487 3473 879 0
3479 205 3473 0
3479 3473 3487 0
882 3479 3487 0
3488 3485 883 0
3487 879 3485 0
3487 3485 3488 0
882 3487 3488 0
3489 3488 883 0
3484 882 3488 0
3484 3488 3489 0
223 3484 3489 0
3491 3486 224 0
3490 883 3486 0
3490 3486 3491 0
885 3490 3491 0
3493 3489 883 0
3492 223 3489 0
3492 3489 3493 0
884 3492 3493 0
3494 3490 885 0
3493 883 3490 0
3493 3490 3494 0
884 3493 3494 0
3496 3494 885 0
3495 884 3494 0
3495 3494 3496 0
55 3495 3496 0
3498 3190 48 0
3497 804 3190 0
3497 3190 3498 0
887 3497 3498 0
3500 3187 804 0
3499 202 3187 0
3499 3187 3500 0
886 3499 3500 0
3501 3497 887 0
3500 804 3497 0
3500 3497 3501 0
886 3500 3501 0
3503 3501 887 0
3502 886 3501 0
3502 3501 3503 0
225 3502 3503 0
3504 4293 202 0
4353 4293 3504 0
888 4353 3504 0
3505 4353 888 0
4354 4353 3505 0
4355 4354 3505 0
3506 3505 888 0
3950 4355 3505 0
3950 3505 3506 0
