#!ascii - generated by CreateLabelFiles project 
4881 9409
27.752 31.7162 -13.1484 0
26.2851 31.0555 -14.2162 0
25.7842 30.5184 -14.2522 0
26.888 31.4211 -14.3713 0
27.0139 31.4179 -13.6758 0
27.1379 31.3589 -13.1353 0
26.0038 30.4004 -13.7861 0
25.2251 30.1932 -14.0799 0
27.2225 31.2596 -12.6262 0
26.6035 30.8638 -13.1792 0
26.2143 30.2418 -13.3319 0
26.4239 30.0405 -12.8815 0
25.8037 29.7462 -13.2161 0
24.3115 30.1774 -14.1564 0
24.4369 29.3311 -13.5971 0
24.7674 29.8017 -13.9008 0
25.1714 29.4569 -13.5623 0
25.5584 29.2238 -13.1104 0
24.8033 28.5237 -12.8101 0
25.9724 28.952 -12.6605 0
25.3868 28.7342 -12.7241 0
25.4021 28.2932 -12.3428 0
26.0731 28.0303 -11.9235 0
25.5874 27.7313 -12.0654 0
25.7297 27.33 -11.6436 0
26.375 27.2762 -11.0348 0
25.94 26.9019 -11.251 0
26.4188 26.7916 -9.96254 0
29.8294 31.3115 -13.6418 0
29.3545 32.4734 -13.1543 0
31.0376 28.7334 -14.8272 0
30.4051 29.968 -14.1476 0
30.0181 30.5462 -13.4181 0
30.1145 29.699 -13.259 0
29.6153 30.9403 -12.6373 0
30.7923 26.6981 -16.1668 0
31.0704 27.5232 -15.5091 0
29.6662 25.772 -17.098 0
30.3398 26.1302 -16.6827 0
30.3976 26.085 -16.0344 0
30.0093 25.2678 -15.9533 0
30.406 26.0235 -15.4549 0
30.6694 28.4983 -13.9861 0
30.1132 28.8218 -13.2391 0
31.012 28.0018 -14.7926 0
30.6419 27.0822 -14.8251 0
30.3038 26.1939 -14.765 0
29.8899 27.8045 -13.3113 0
29.5772 28.91 -12.5846 0
30.015 25.2412 -14.533 0
30.0292 26.4982 -14.09 0
29.6298 26.7249 -13.3206 0
29.4206 25.5992 -13.1617 0
29.1042 26.8255 -12.5778 0
28.1406 25.7336 -17.7073 0
28.8953 25.6952 -17.3904 0
26.7908 25.4785 -18.544 0
27.4356 25.6738 -18.0766 0
27.6193 25.3004 -17.4956 0
27.2027 24.6564 -17.4609 0
27.8401 24.9034 -16.9258 0
25.3812 25.0857 -19.0301 0
26.1164 25.2915 -18.9452 0
23.9381 24.6507 -19.3773 0
24.6303 24.8988 -19.2067 0
25.0236 24.4399 -19.0161 0
24.7412 23.7814 -18.9314 0
25.4088 24.0508 -18.8499 0
26.5735 24.4551 -17.9574 0
26.7938 23.9783 -17.4962 0
26.3556 24.8704 -18.5011 0
26.0157 24.2586 -18.4413 0
25.7298 23.6772 -18.4724 0
26.5593 23.4317 -17.5339 0
27.0219 23.5244 -17.0263 0
25.5954 23.1123 -18.3947 0
26.0615 23.3164 -18.0557 0
26.3479 22.8592 -17.6432 0
26.282 22.2863 -17.7634 0
26.6396 22.3636 -17.3043 0
29.5164 24.352 -13.6844 0
29.1533 24.4351 -13.0325 0
29.7151 24.3199 -15.1222 0
29.7011 24.3056 -14.2721 0
29.3066 23.4502 -14.2372 0
28.8888 22.9242 -14.9356 0
28.8521 22.7155 -14.2162 0
29.4414 24.8277 -16.4072 0
29.5889 24.5189 -15.8439 0
29.1786 25.3163 -16.8727 0
28.6297 24.8513 -16.6891 0
28.0835 24.2389 -16.6203 0
28.6914 23.1918 -15.6596 0
28.3427 22.5703 -15.6641 0
29.136 23.8566 -15.7537 0
28.3831 23.6244 -16.2485 0
27.6758 23.5631 -16.6569 0
27.6272 22.3656 -16.3486 0
27.8621 21.7409 -15.6414 0
27.2678 22.9531 -16.6914 0
27.0736 22.4025 -16.8333 0
26.838 21.8041 -16.9898 0
28.8843 23.3583 -12.9515 0
28.6631 24.5216 -12.42 0
28.6157 21.8468 -14.0435 0
29.0735 22.4105 -13.3293 0
28.7601 22.2754 -12.7462 0
28.6579 21.2687 -12.571 0
28.5125 22.2558 -12.1897 0
27.3134 20.8027 -15.6618 0
27.9542 21.2058 -14.8431 0
26.8701 21.1902 -17.2028 0
27.0851 21.1438 -16.5192 0
27.2133 20.1184 -15.8046 0
27.6024 19.5104 -16.1955 0
27.7672 19.4018 -15.1309 0
28.7432 20.5428 -13.2298 0
28.586 20.5184 -12.6601 0
28.4254 20.7375 -13.9651 0
28.1567 19.6 -14.0989 0
28.4128 19.1398 -14.5235 0
28.8045 19.7273 -12.7268 0
29.0062 20.7633 -12.1694 0
28.8574 18.6608 -14.9934 0
28.9142 18.9886 -13.7113 0
29.417 19.1006 -13.0652 0
30.3652 18.8404 -13.6151 0
30.4008 19.4861 -12.7572 0
26.6116 27.2866 -9.5514 0
26.4588 27.1321 -8.97657 0
26.7435 27.7237 -10.6668 0
26.5943 27.5006 -10.1239 0
26.7913 27.7457 -9.1939 0
27.0224 27.8761 -8.94136 0
26.9596 27.5213 -8.34591 0
26.5124 28.3029 -11.6384 0
26.5872 28.0737 -11.1547 0
26.4299 29.1669 -12.2934 0
26.4401 28.7685 -12.0169 0
26.8826 28.5829 -11.3559 0
27.2099 28.8572 -11.112 0
27.2696 28.6682 -10.6207 0
27.1473 28.223 -9.50693 0
27.2099 27.8929 -8.66825 0
27.0668 28.1501 -10.3506 0
27.3619 28.5577 -10.0665 0
27.5272 28.4416 -9.82175 0
27.4332 27.9231 -8.35219 0
27.5363 27.4386 -7.82557 0
27.7317 28.2852 -9.49744 0
27.5553 28.2125 -8.95219 0
27.8568 27.4027 -8.30635 0
28.4218 26.2218 -8.57386 0
28.6454 25.6755 -8.02608 0
26.9397 30.2284 -12.4272 0
26.6312 29.7286 -12.3916 0
27.8555 31.2552 -12.3555 0
27.3024 30.8874 -12.289 0
27.4026 30.4139 -12.0208 0
27.9871 30.3945 -11.6728 0
27.5526 30.0304 -11.6306 0
28.9002 32.1567 -12.3177 0
28.4189 31.6318 -12.3711 0
29.1569 32.4175 -12.7143 0
29.3002 31.9623 -12.1895 0
29.3862 30.9656 -11.999 0
28.4922 30.6646 -11.7329 0
28.4565 29.6484 -11.4211 0
28.477 31.2804 -12.0584 0
28.9765 30.8433 -11.8238 0
29.3972 29.9067 -11.921 0
28.6655 28.7907 -11.5737 0
28.4335 28.5923 -11.1384 0
29.092 28.905 -12.0257 0
28.6806 27.9103 -12.031 0
28.4965 26.7848 -11.9535 0
28.4261 26.4245 -9.0382 0
29.1446 25.1516 -8.8251 0
27.7475 28.3517 -10.0094 0
28.0249 27.77 -9.23 0
28.3806 26.3991 -9.46571 0
28.2586 26.2745 -9.7605 0
28.6557 25.1527 -9.61178 0
27.1531 29.1868 -11.3885 0
27.483 28.7306 -10.8266 0
26.8182 29.3743 -11.9385 0
27.2046 29.5805 -11.5937 0
27.6193 29.2233 -11.2551 0
28.0464 27.3904 -10.0515 0
27.9781 26.1617 -9.92753 0
27.8613 28.3269 -10.3794 0
27.9574 28.4467 -10.6133 0
28.1413 28.5038 -10.8563 0
28.1848 26.2602 -10.6343 0
27.9912 25.1366 -10.4346 0
28.2875 27.3895 -11.0155 0
28.3548 26.4672 -11.3291 0
28.3629 25.5942 -11.8095 0
29.7164 24.1381 -8.93038 0
30.1134 23.883 -8.75619 0
28.6559 24.0763 -9.78327 0
29.2587 24.1533 -9.30915 0
29.801 23.2525 -9.41558 0
29.7265 22.4047 -9.85822 0
30.7016 22.3014 -9.72995 0
28.0868 24.2382 -11.0071 0
28.2964 24.1036 -10.3509 0
28.3428 24.4813 -11.7337 0
28.3287 23.4271 -11.7089 0
28.7073 22.5631 -11.6848 0
29.0357 22.4664 -10.2707 0
29.8855 21.7952 -10.4878 0
28.5841 23.2016 -10.282 0
28.6277 22.4395 -10.8769 0
29.1079 21.8348 -11.67 0
30.1385 21.2172 -11.3691 0
31.0561 21.2015 -11.0236 0
29.6328 21.0691 -11.7761 0
30.3726 20.2047 -12.0203 0
31.2692 19.691 -12.4708 0
26.6369 27.3351 -8.03341 0
26.2814 27.0263 -8.30383 0
27.3099 27.4134 -7.43801 0
26.977 27.3753 -7.73985 0
27.0332 27.3162 -7.09307 0
27.8476 26.9041 -6.52821 0
27.2215 27.1553 -6.46065 0
28.4037 26.1614 -7.49228 0
27.8026 26.9527 -7.40877 0
30.2439 24.3295 -8.15417 0
29.2734 25.2503 -7.77765 0
30.0785 24.9135 -7.69034 0
31.9508 24.2014 -8.65347 0
30.9461 24.6508 -7.83357 0
28.6424 26.326 -6.72144 0
29.2088 25.9731 -6.56916 0
28.1233 26.572 -7.00118 0
29.7867 25.4613 -7.16101 0
31.7092 24.4415 -8.21392 0
31.0929 24.5473 -7.57085 0
29.8549 25.5209 -6.62211 0
32.6122 23.2157 -8.8771 0
32.0624 23.8171 -8.37602 0
32.1793 23.3276 -8.38675 0
32.5155 22.4232 -8.69426 0
32.1662 23.0268 -8.21515 0
31.3817 22.8988 -9.3375 0
30.8579 23.6009 -8.7907 0
31.9666 21.7286 -10.3609 0
31.7249 22.2419 -9.77047 0
32.6235 22.8307 -10.5111 0
33.2031 21.9262 -11.3626 0
33.0464 22.5353 -10.7304 0
32.0966 20.7773 -11.894 0
32.0705 21.5064 -11.2576 0
32.0846 19.0891 -13.0415 0
32.0829 19.9284 -12.483 0
32.6702 19.6412 -12.5293 0
32.746 17.9175 -12.7657 0
32.7857 18.8024 -12.4313 0
33.0835 20.9994 -11.7987 0
33.0961 20.5571 -11.5687 0
32.8465 21.6424 -11.8227 0
32.9306 19.994 -12.2073 0
32.7124 18.4048 -12.3285 0
32.9036 19.2771 -11.7492 0
33.1115 20.2457 -11.315 0
32.6101 17.2314 -12.2758 0
32.6407 18.191 -12.1539 0
32.5477 18.1321 -11.9877 0
32.2806 17.1187 -12.0697 0
32.4193 18.1064 -11.8503 0
32.8519 21.9668 -9.06616 0
32.745 21.6331 -8.91685 0
33.0311 22.7375 -9.30243 0
32.9586 22.326 -9.19307 0
33.1003 21.4824 -9.40662 0
33.2881 20.9753 -9.82484 0
33.18 20.678 -9.64605 0
32.5057 23.6569 -9.41334 0
32.8584 23.194 -9.45979 0
31.879 23.776 -9.05791 0
32.8467 23.1119 -10.1115 0
33.2035 21.9535 -10.5495 0
33.288 21.2683 -10.0717 0
33.1774 20.4608 -10.3317 0
33.1629 22.1591 -9.80166 0
33.2743 21.5708 -10.3217 0
33.2228 20.9328 -10.8138 0
33.0504 19.9244 -10.8653 0
32.9539 19.6926 -10.6835 0
33.0782 20.0786 -11.0896 0
32.7494 19.0179 -11.3508 0
32.2806 17.9788 -11.6996 0
32.9107 20.8225 -9.08586 0
32.5473 21.3606 -8.72589 0
32.9419 19.9349 -10.0019 0
33.036 20.364 -9.49243 0
32.8664 20.0687 -9.38562 0
32.485 19.4203 -9.99204 0
32.5451 19.912 -9.39004 0
32.4412 18.6871 -11.0877 0
32.8214 19.4472 -10.5254 0
31.8656 17.0235 -12.0038 0
32.0735 17.8731 -11.6103 0
31.873 17.7545 -11.5733 0
31.3464 16.8272 -12.0739 0
31.6117 17.6885 -11.7002 0
32.3279 18.9653 -10.5482 0
32.0338 18.7267 -10.6254 0
32.6307 19.2122 -10.4596 0
32.0042 18.3895 -11.1521 0
31.3598 17.6165 -11.8131 0
31.4372 17.9038 -11.2972 0
31.7008 18.5105 -10.6343 0
30.7414 16.7308 -12.2853 0
31.0806 17.3519 -11.8586 0
30.8073 17.1123 -11.8859 0
30.0888 16.5644 -12.3162 0
30.5603 17.0801 -11.9389 0
22.8201 23.9536 -19.7508 0
23.3816 24.2734 -19.5595 0
21.7422 23.4695 -20.762 0
22.0692 23.7252 -20.3701 0
22.3093 23.2551 -19.4856 0
22.0769 22.5679 -19.2004 0
22.6746 22.8785 -19.0384 0
22.0628 22.8438 -20.9889 0
21.9698 23.1868 -20.7855 0
22.2761 22.0475 -21.6203 0
22.2076 22.4332 -21.2463 0
21.5379 22.1368 -20.8502 0
21.2441 21.4754 -20.7626 0
20.9072 21.8151 -20.4429 0
21.5374 22.234 -19.6286 0
21.9209 21.8871 -18.8899 0
21.5928 22.7154 -20.3266 0
21.1084 22.0347 -20.1035 0
20.9809 21.4115 -19.8223 0
21.9162 21.2555 -18.5363 0
22.4727 21.5658 -18.4606 0
21.01 20.776 -19.502 0
21.3087 20.9697 -18.9372 0
22.0795 20.6563 -18.0932 0
22.2815 20.0409 -17.6563 0
22.8325 20.3146 -17.7093 0
21.8427 19.7689 -18.1592 0
22.4968 19.4522 -17.5844 0
21.0757 20.5083 -19.9597 0
21.2574 20.1455 -19.1542 0
21.5435 19.5458 -18.7003 0
21.7293 18.9923 -18.1978 0
21.3479 20.8242 -20.5745 0
22.7343 18.8706 -17.5141 0
23.4377 19.1237 -17.5545 0
21.9723 18.4272 -17.619 0
22.3472 18.6504 -17.4811 0
23.2138 18.3311 -17.405 0
23.7705 17.766 -17.3182 0
24.2685 17.9735 -17.81 0
29.7233 15.9576 -12.7077 0
29.337 16.1405 -12.7065 0
30.459 15.8896 -12.6018 0
30.1089 15.873 -12.6993 0
29.5165 15.1833 -12.8503 0
29.3059 14.5322 -12.8943 0
28.9574 14.5375 -12.9361 0
31.1275 15.9969 -12.3964 0
30.822 15.9228 -12.4922 0
31.7234 16.1872 -12.2749 0
31.4685 16.1103 -12.2825 0
30.9433 15.4081 -12.7654 0
30.7826 14.9433 -13.1738 0
30.4136 14.9014 -13.2934 0
29.6738 14.5642 -12.8426 0
29.1484 13.9901 -13.1159 0
30.2373 15.2027 -12.7139 0
30.0427 14.709 -13.0275 0
29.9046 14.3097 -13.4908 0
29.0561 13.5677 -13.5393 0
28.6792 13.4733 -13.5596 0
29.8285 13.9396 -13.9324 0
29.4491 13.7186 -13.6242 0
28.9899 13.1704 -13.9186 0
28.9414 12.7531 -14.0193 0
28.5484 12.561 -13.9668 0
32.2246 16.2133 -12.172 0
32.0335 16.1958 -12.1175 0
32.7226 16.4389 -12.1868 0
32.5598 16.2975 -12.0734 0
32.3749 15.491 -12.1024 0
32.4409 15.0614 -12.4174 0
32.0512 14.9666 -12.5368 0
32.7875 17.3896 -12.9736 0
32.8261 16.8501 -12.6433 0
32.0383 18.4663 -13.7386 0
32.6338 18.2055 -13.4652 0
32.7723 17.2232 -13.5134 0
32.6972 17.0491 -14.0473 0
32.7584 16.2639 -13.3151 0
32.8403 15.3202 -12.4748 0
32.6311 14.7842 -12.8113 0
32.8408 15.9324 -12.3811 0
32.9094 15.6934 -12.8805 0
32.6716 15.5293 -13.2098 0
32.6526 14.546 -13.163 0
32.1723 14.3291 -13.2348 0
32.4236 15.4503 -13.6791 0
32.6121 14.9071 -13.2975 0
32.4456 14.3376 -13.4441 0
32.1721 14.2109 -13.7943 0
31.935 13.8952 -13.8412 0
29.3328 13.0106 -14.2289 0
28.8853 12.4032 -14.1815 0
30.2118 14.0945 -14.0845 0
29.7745 13.5974 -14.3625 0
29.7619 13.238 -14.5496 0
30.2547 13.3797 -14.6691 0
29.8026 12.8398 -14.7186 0
31.1851 14.9621 -13.0287 0
30.6817 14.4863 -13.5792 0
31.6503 15.4472 -12.4499 0
31.5741 14.953 -12.8078 0
31.6279 14.4895 -13.0965 0
30.7128 13.8549 -14.4169 0
30.7739 13.4939 -14.5706 0
30.6539 14.1341 -13.9679 0
31.1552 14.1781 -13.793 0
31.663 14.1762 -13.4331 0
31.2105 13.5513 -14.222 0
30.8068 13.0637 -14.3794 0
31.6512 13.9207 -13.7187 0
31.674 13.6422 -13.9147 0
31.7615 13.3092 -13.9182 0
28.9208 12.0327 -14.1067 0
28.5166 11.7456 -13.9381 0
29.878 12.4541 -14.734 0
29.3803 12.2561 -14.4187 0
28.9871 11.6434 -13.9938 0
29.0375 11.2705 -14.0097 0
28.5521 10.9468 -13.9004 0
30.85 12.6452 -14.2241 0
30.3506 12.5471 -14.4861 0
31.8571 12.9947 -13.9372 0
31.4177 12.7755 -14.053 0
31.0319 12.2917 -14.1952 0
31.2311 11.9534 -14.1897 0
30.6525 11.8151 -14.2154 0
29.568 11.4997 -13.9746 0
29.0914 10.8863 -14.1547 0
29.9805 12.0678 -14.3672 0
30.0959 11.6955 -14.0342 0
30.249 11.3174 -14.1778 0
29.1597 10.5162 -14.3035 0
28.552 10.1866 -14.4605 0
30.4058 10.9353 -14.3489 0
29.7933 10.7578 -14.2738 0
29.3031 10.1664 -14.361 0
29.4631 9.84474 -14.3213 0
28.7917 9.53455 -14.3136 0
30.2518 18.2734 -14.7124 0
31.1766 18.4179 -14.0949 0
29.0229 18.6679 -16.2578 0
29.5691 18.346 -15.5456 0
30.3469 18.2269 -15.9089 0
30.3183 18.1751 -16.9222 0
31.1494 18.1619 -16.0653 0
27.8712 19.8289 -17.3162 0
28.4581 19.1162 -16.8092 0
26.7655 21.1868 -17.7379 0
27.1846 20.5276 -17.5193 0
27.8557 20.2273 -18.0919 0
27.8655 20.5603 -18.7148 0
28.4994 19.9034 -18.5344 0
29.5978 18.3864 -17.5924 0
30.2703 18.2021 -17.6967 0
29.0557 18.7489 -17.2541 0
29.0614 19.0226 -18.1128 0
29.0405 19.3732 -18.7042 0
30.2327 18.347 -18.2709 0
31.0799 18.2859 -17.7362 0
29.0152 19.771 -19.2096 0
29.6258 18.9368 -18.7493 0
30.0164 18.3692 -18.7029 0
29.7586 18.4276 -19.033 0
30.6138 17.9919 -18.6057 0
25.9943 22.1831 -18.1417 0
26.3154 21.6907 -17.8477 0
25.1003 22.8668 -18.628 0
25.526 22.5425 -18.31 0
25.5849 21.9331 -18.3265 0
25.0769 21.6135 -18.3885 0
25.6971 21.2583 -18.2063 0
24.0673 23.4847 -19.0255 0
24.5055 23.1409 -18.8257 0
23.6736 23.8499 -19.2255 0
23.3615 23.1861 -19.0064 0
23.0515 22.5425 -18.7112 0
24.2757 21.8533 -18.5527 0
24.4119 21.2156 -18.4109 0
24.3888 22.523 -18.7021 0
23.6614 22.1811 -18.6806 0
23.0015 21.8953 -18.4828 0
23.921 20.8835 -18.1662 0
24.8182 20.586 -18.0942 0
23.1322 21.2287 -18.1442 0
23.3885 20.5912 -17.8437 0
23.7426 19.9866 -17.6996 0
28.9337 18.8825 -19.216 0
29.3397 18.2564 -19.1296 0
28.0626 20.0093 -19.2798 0
28.5366 19.4907 -19.2921 0
28.0501 19.1808 -19.3112 0
27.1832 19.2891 -19.5046 0
27.5594 18.7635 -19.441 0
27.1081 20.672 -18.4074 0
27.6288 20.4374 -18.9342 0
26.6193 21.1586 -18.1366 0
26.468 21.0596 -18.3665 0
26.0854 20.7553 -18.3994 0
26.8372 19.7903 -19.0547 0
26.3531 19.3435 -19.0289 0
27.2788 20.1541 -19.0351 0
26.4664 20.2186 -18.6346 0
25.6404 20.3992 -18.3515 0
25.5883 19.5039 -18.302 0
25.9274 18.9817 -18.7064 0
25.2097 20.0287 -18.1435 0
24.7004 19.6902 -17.8685 0
24.1259 19.4093 -17.6526 0
28.8709 17.993 -19.02 0
29.7621 17.6843 -18.925 0
27.0061 18.3287 -19.5185 0
27.8839 18.244 -19.2847 0
28.3396 17.6506 -19.0526 0
27.8197 17.2248 -19.2347 0
28.8528 17.0763 -18.8602 0
25.4289 18.5978 -18.3718 0
26.2417 18.4464 -19.2101 0
24.4503 18.8285 -17.8877 0
24.7969 18.2475 -18.2119 0
25.2329 17.7158 -18.4846 0
26.9345 17.3897 -19.2765 0
27.479 16.7944 -19.2288 0
26.5541 17.9228 -19.3346 0
26.1741 17.492 -19.1002 0
25.7459 17.1899 -18.5807 0
27.1999 16.3651 -19.0031 0
28.0603 16.1952 -19.1814 0
30.1435 10.1065 -14.4048 0
29.6398 9.56242 -14.3239 0
31.0797 11.123 -14.4065 0
30.6524 10.6019 -14.4567 0
30.8706 10.292 -14.4869 0
31.5374 10.5389 -14.5704 0
31.8759 12.1655 -14.2228 0
31.5034 11.6731 -14.3576 0
32.2649 13.4289 -14.0572 0
32.0621 12.7627 -14.1342 0
32.3023 12.5534 -14.3402 0
31.9441 13.2321 -14.7948 0
32.2498 12.3951 -14.6502 0
31.9163 11.0786 -14.5218 0
32.153 10.8294 -14.5987 0
31.7391 11.3363 -14.4547 0
32.1635 11.6743 -14.5598 0
32.1099 12.2696 -15.0914 0
32.0467 11.2916 -15.3768 0
31.2083 13.1024 -16.1104 0
31.7024 12.1614 -15.7565 0
32.1324 14.7603 -14.1487 0
32.1691 14.1161 -14.1181 0
32.2893 16.1719 -14.5332 0
32.1701 15.4324 -14.371 0
32.0984 15.2589 -15.0836 0
32.0366 15.6928 -15.9115 0
31.9222 15.1153 -15.738 0
32.3769 17.5662 -14.6289 0
32.4528 16.9361 -14.628 0
31.8511 18.024 -14.4007 0
31.5998 17.8957 -15.1698 0
31.5519 17.8875 -16.076 0
32.1618 16.5474 -16.042 0
31.7384 16.6569 -16.7034 0
32.4617 16.6226 -15.3617 0
31.8398 17.4494 -16.0273 0
31.5951 18.0332 -16.9461 0
31.7336 17.5512 -17.626 0
31.7773 16.7824 -17.4573 0
31.6919 18.1807 -17.7154 0
31.4841 17.8788 -18.1453 0
31.1766 17.6649 -18.499 0
30.9492 13.7523 -16.3914 0
30.6704 13.6052 -16.9316 0
31.2827 14.1745 -17.5705 0
31.4259 14.9723 -17.8909 0
31.4092 14.8757 -18.2813 0
31.6211 13.9969 -15.0846 0
31.2301 13.8872 -15.7621 0
31.9798 14.0678 -14.5174 0
31.7737 14.5587 -15.4683 0
31.4315 15.0383 -16.2944 0
31.0559 15.0006 -17.3135 0
31.5688 15.8155 -18.297 0
30.9995 14.3869 -16.584 0
31.1591 15.007 -16.7894 0
31.4207 15.788 -17.0902 0
31.4633 16.5277 -18.3761 0
31.0491 16.3417 -18.5147 0
31.6671 16.6911 -17.9846 0
31.4029 17.1482 -18.3849 0
30.6447 17.4217 -18.6804 0
31.0225 15.4381 -18.6783 0
30.5565 16.6737 -18.6503 0
30.7762 16.0706 -18.6672 0
30.1676 17.1707 -18.7363 0
29.7232 16.87 -18.7446 0
29.2947 16.5227 -18.9217 0
30.404 15.7474 -18.8306 0
29.7425 15.9987 -18.9714 0
28.9256 16.0772 -19.1089 0
28.7613 15.5615 -12.9836 0
29.0911 16.2504 -12.7513 0
28.4645 13.9432 -13.2027 0
28.6127 14.7269 -13.0693 0
28.3027 14.9113 -13.3384 0
27.8312 14.1742 -13.6819 0
27.9819 15.0474 -13.4661 0
28.2305 12.8985 -13.948 0
28.3376 13.4194 -13.6119 0
28.0927 11.9009 -14.1074 0
28.155 12.3787 -14.0419 0
27.7626 12.1619 -14.1636 0
27.2248 11.2716 -14.3322 0
27.3196 11.9123 -14.2589 0
27.6703 13.3551 -13.8522 0
27.3447 13.1914 -13.8252 0
28 13.3405 -13.6606 0
27.4707 12.5915 -14.0738 0
26.749 11.5111 -14.3973 0
26.6242 12.0486 -14.029 0
27.0322 13.0546 -13.7211 0
26.2038 10.4228 -14.0081 0
26.2636 11.1551 -14.2575 0
25.8836 10.8624 -14.0353 0
25.4628 9.74253 -13.6734 0
25.6706 10.6015 -13.7503 0
28.1196 11.0181 -13.8212 0
28.1037 11.4405 -14.0221 0
28.0152 10.2039 -14.1894 0
28.1005 10.6158 -13.764 0
27.5929 10.2054 -14.1089 0
27.0764 9.36703 -13.9712 0
27.1298 9.75985 -14.0381 0
28.041 9.47855 -14.4592 0
27.9737 9.82747 -14.522 0
28.2539 8.82076 -14.2691 0
28.1279 9.14343 -14.3706 0
27.5688 8.67964 -14.0801 0
27.0222 7.83617 -13.6438 0
27.0017 8.16923 -13.7489 0
26.9857 8.91494 -13.9652 0
26.5417 8.46051 -13.5449 0
27.4952 9.39867 -14.2481 0
26.9806 8.52862 -13.8625 0
26.4208 7.62402 -13.4625 0
25.9681 7.53107 -13.3022 0
26.039 7.94721 -13.3102 0
26.0107 6.81992 -12.8883 0
26.0027 7.17722 -13.0607 0
25.5879 6.77105 -12.7937 0
25.176 5.98717 -12.3863 0
25.1211 6.3202 -12.6347 0
25.3847 9.10751 -13.4493 0
25.088 8.83363 -13.3193 0
26.1892 9.84959 -13.8517 0
25.7327 9.46645 -13.5822 0
25.3068 8.53926 -13.2451 0
25.2689 8.02658 -13.0591 0
24.9086 7.67863 -12.9133 0
27.2065 10.7255 -14.2871 0
26.7 10.27 -14.1956 0
27.6625 11.1157 -14.2565 0
27.1741 10.2075 -14.2156 0
26.6741 9.33311 -13.7313 0
25.6725 8.45446 -13.201 0
25.2294 7.5642 -12.932 0
26.1549 9.31368 -13.6627 0
26.1522 8.86647 -13.4272 0
26.1057 8.40814 -13.3333 0
25.189 7.10948 -12.8514 0
24.8139 6.72616 -12.663 0
25.5613 7.51437 -13.1153 0
25.1531 6.68962 -12.7823 0
24.7522 5.92183 -12.3808 0
24.6905 8.02767 -12.8541 0
24.8324 8.64808 -13.0866 0
24.5095 6.89551 -12.5472 0
24.5931 7.44229 -12.6561 0
24.3041 7.2241 -12.4297 0
23.8652 6.42504 -12.2415 0
23.9988 7.03106 -12.3169 0
24.3548 5.93197 -12.347 0
24.4511 6.40289 -12.4075 0
24.2354 5.10891 -12.1114 0
24.267 5.48972 -12.2908 0
23.8779 5.16268 -12.0627 0
23.3345 4.4388 -11.8597 0
23.465 4.90748 -11.9987 0
23.761 5.8782 -12.1321 0
23.4031 5.63945 -12.1076 0
24.134 6.13715 -12.1779 0
23.6227 5.39833 -12.0559 0
23.0804 4.6766 -11.9153 0
22.8485 4.9105 -11.9253 0
23.0253 5.40609 -12.037 0
22.5492 3.94161 -11.5591 0
22.6709 4.42756 -11.7915 0
22.2544 4.21097 -11.5749 0
21.7261 3.47963 -11.1025 0
21.8481 4.01154 -11.3569 0
28.4102 8.5181 -14.1603 0
21.6632 2.96601 -10.8 0
21.2877 2.67771 -10.567 0
22.4634 3.49225 -11.2058 0
22.0668 3.20679 -11.023 0
21.5834 2.44804 -10.5628 0
21.4318 1.8928 -10.4679 0
21.03 1.60159 -10.3264 0
23.2866 4.03894 -11.5143 0
22.8568 3.77018 -11.3694 0
24.2241 4.76611 -11.8786 0
23.7368 4.34557 -11.7327 0
23.2171 3.64146 -11.2428 0
23.1377 3.19598 -11.0204 0
22.6682 2.85047 -10.806 0
21.8382 2.18665 -10.5692 0
21.278 1.31735 -10.3436 0
22.3815 3.04545 -10.8536 0
22.2392 2.49888 -10.6791 0
22.1036 1.95506 -10.5354 0
21.0919 0.699341 -10.2597 0
20.6286 0.34083 -10.1723 0
21.9727 1.42327 -10.4048 0
21.5369 1.0515 -10.3291 0
20.8404 -0.00573845 -10.2165 0
20.5734 -0.780356 -10.1384 0
20.0814 -1.22056 -10.03 0
25.1893 5.64602 -12.2184 0
24.6848 5.18522 -12.1188 0
25.9904 6.46347 -12.826 0
25.6477 6.08114 -12.3948 0
25.1361 5.27676 -12.1776 0
25.0638 4.89714 -12.2233 0
24.5726 4.43859 -11.9938 0
27.0765 7.52405 -13.5315 0
26.4282 6.92004 -13.2636 0
27.7103 8.04847 -13.9104 0
25.4931 5.31555 -12.5182 0
25.0408 4.55551 -12.2046 0
25.9252 6.09087 -12.8881 0
25.9726 5.80718 -12.8324 0
21.0961 -0.312451 -10.2231 0
20.3654 -1.54864 -10.0178 0
22.4456 1.82575 -10.5103 0
21.7956 0.813822 -10.3469 0
21.631 0.206142 -10.2841 0
22.2343 0.792744 -10.3392 0
21.5093 -0.376252 -10.2255 0
23.647 3.59393 -11.2873 0
23.052 2.72713 -10.8555 0
24.1743 4.39721 -11.7442 0
24.1015 4.0127 -11.6641 0
24.0513 3.62295 -11.5704 0
22.9044 1.83694 -10.6504 0
22.9692 2.28549 -10.7403 0
23.5256 2.78636 -11.0586 0
24.0666 3.3031 -11.4262 0
20.2619 -2.1527 -9.92484 0
19.8165 -2.49402 -9.82213 0
20.1885 -2.65788 -9.90367 0
20.8084 1.85015 -10.1597 0
20.9074 2.44825 -10.3567 0
20.4226 0.658039 -10.0968 0
20.6262 1.27867 -10.1309 0
20.2028 0.892121 -9.97408 0
19.5663 -0.17904 -9.73152 0
19.7607 0.606261 -9.77509 0
19.9005 -0.849351 -10.0106 0
20.168 -0.0649277 -10.0797 0
19.4857 -2.22255 -9.84712 0
19.6702 -1.58825 -9.93436 0
19.3039 -1.90089 -9.83133 0
18.8444 -2.65126 -9.80988 0
18.9575 -2.14374 -9.81787 0
19.3122 -0.921079 -9.75586 0
18.8954 -1.25984 -9.78375 0
19.7225 -0.5187 -9.90732 0
19.1048 -1.5746 -9.78863 0
18.6118 -2.35551 -9.84284 0
18.388 -2.06834 -9.8177 0
18.5375 -1.49729 -9.70238 0
18.2001 -2.99562 -9.9177 0
18.2757 -2.56132 -9.86796 0
17.9586 -2.68652 -9.89128 0
17.5653 -3.23566 -9.9971 0
17.6615 -2.7224 -9.90994 0
19.3725 -3.2039 -9.6775 0
19.3937 -2.75444 -9.75792 0
19.0107 -3.81727 -9.70671 0
18.6713 -4.37741 -9.78508 0
18.6391 -3.97081 -9.68993 0
17.4811 -3.71486 -10.066 0
17.179 -3.77543 -10.1055 0
18.1305 -3.42546 -9.96854 0
17.8053 -3.57541 -10.0103 0
17.4039 -4.1252 -10.1155 0
18.7454 -3.1123 -9.74372 0
18.4497 -3.26448 -9.90998 0
19.0428 -2.95368 -9.68522 0
18.6592 -3.55758 -9.67222 0
18.3122 -4.11034 -9.83488 0
17.6782 -4.40431 -10.109 0
18.0653 -3.84671 -10.0104 0
18.0004 -4.25601 -9.9898 0
17.9853 -4.65345 -10.0595 0
26.2136 26.9328 -7.59995 0
27.4545 26.8954 -5.95417 0
26.7559 26.9767 -6.71646 0
26.04 26.7843 -6.92688 0
25.7837 26.5907 -6.30271 0
30.435 24.9537 -6.74194 0
28.6763 26.142 -6.00069 0
32.1212 22.7769 -8.02445 0
31.577 23.7396 -7.52336 0
30.7383 24.534 -6.78703 0
31.1326 24.2219 -6.92811 0
29.4767 25.0896 -6.01114 0
26.9374 26.4052 -5.90049 0
26.0799 26.2696 -6.06033 0
27.7753 26.3903 -5.84259 0
28.1392 25.9074 -5.77674 0
28.564 25.3855 -5.8012 0
26.432 25.9964 -5.86083 0
29.0458 25.016 -6.01389 0
27.7529 25.6535 -5.73793 0
26.7872 25.6079 -5.83335 0
32.3192 21.1175 -8.53801 0
32.1976 21.9277 -8.3344 0
32.2099 19.8191 -9.33658 0
32.385 20.4543 -8.86244 0
32.0941 21.0081 -8.43658 0
32.1378 20.9192 -8.15402 0
32.0853 21.5652 -7.88018 0
31.3314 18.3539 -10.5762 0
31.7954 19.0894 -9.95037 0
30.3494 17.1065 -11.9709 0
30.8418 17.6949 -11.2883 0
31.0512 18.2952 -10.5558 0
30.7844 18.2814 -10.5025 0
31.2585 18.984 -9.83357 0
31.9957 20.3385 -8.63832 0
31.9906 20.8755 -8.05189 0
31.8852 19.69 -9.2853 0
31.6964 19.6986 -9.19646 0
31.478 19.6625 -9.14515 0
32.1348 20.7946 -7.90815 0
32.2893 21.353 -7.42835 0
31.3543 19.5462 -9.00598 0
31.8153 20.2184 -8.41822 0
32.1863 20.6874 -7.76394 0
32.1499 20.5001 -7.62495 0
32.6344 21.1149 -7.12145 0
28.5689 24.8574 -6.08761 0
30.5569 24.3158 -6.63253 0
29.5006 24.6958 -6.26284 0
29.9812 24.357 -6.47495 0
31.4843 23.8443 -6.51547 0
30.379 24.0204 -6.73966 0
31.8669 23.2168 -7.28963 0
31.3971 23.8909 -6.89707 0
32.0097 22.5314 -7.82769 0
32.048 22.3041 -7.63253 0
32.0875 22.1409 -7.41245 0
31.9678 23.2668 -6.72879 0
32.3692 23.0616 -6.51269 0
31.6452 23.5612 -6.8481 0
32.2401 22.7346 -6.97709 0
32.2735 21.9975 -7.21156 0
32.7154 22.3452 -6.67613 0
32.6019 22.7282 -6.38843 0
32.5017 21.8645 -7.05042 0
32.6822 21.7069 -6.90422 0
32.739 21.3954 -6.76253 0
30.7148 23.7018 -6.64384 0
32.6876 22.3669 -6.22238 0
32.0525 23.228 -6.29268 0
32.7684 21.1556 -6.61309 0
32.8515 21.6669 -6.38951 0
32.6607 21.9949 -6.21923 0
32.6419 21.6525 -6.13009 0
31.9401 22.3682 -6.48466 0
30.8232 23.3159 -6.68365 0
30.7977 22.8735 -6.76644 0
30.7405 22.4474 -6.84146 0
30.4967 22.0709 -6.73868 0
28.8647 16.356 -12.8317 0
29.6383 16.7051 -12.41 0
27.6419 15.1553 -13.4804 0
28.1599 15.8742 -13.2144 0
28.4475 16.6379 -12.871 0
28.0825 16.921 -12.9854 0
28.8111 17.2546 -12.468 0
26.7809 12.8338 -13.4826 0
27.1647 14.2229 -13.6571 0
25.5401 10.482 -13.4333 0
26.0957 11.5588 -13.5183 0
26.3864 12.5665 -13.389 0
25.9577 12.3418 -13.3683 0
26.5216 13.8817 -13.3715 0
27.3615 16.4361 -13.4687 0
27.7908 16.8442 -12.9357 0
27.2401 15.3588 -13.5718 0
26.9499 15.2549 -13.4021 0
26.7021 15.088 -13.1819 0
27.5291 16.6727 -12.7147 0
28.2294 17.1563 -12.4089 0
26.3696 14.8274 -13.1164 0
26.8717 16.1135 -13.0082 0
27.2852 16.5513 -12.5501 0
27.0409 16.209 -12.4911 0
27.7229 16.9169 -12.1059 0
24.6337 8.51121 -12.8848 0
25.0689 9.42951 -13.1876 0
23.736 6.92303 -12.16 0
24.2088 7.71351 -12.4764 0
24.4179 8.39686 -12.7089 0
24.2193 8.30253 -12.4582 0
24.5248 9.23189 -12.8161 0
22.7343 5.35542 -11.7471 0
23.2382 6.08915 -12.0315 0
21.4874 3.87406 -11.084 0
22.1454 4.64442 -11.3938 0
22.4375 5.30797 -11.4413 0
22.1308 5.27516 -11.0835 0
22.775 6.09294 -11.3259 0
23.725 7.50523 -12.1208 0
23.982 8.22753 -12.2149 0
23.4616 6.8157 -11.9974 0
23.2744 6.82226 -11.6616 0
23.1034 6.85465 -11.2813 0
23.6384 8.20875 -12.0614 0
23.9046 9.0053 -12.5548 0
22.7937 6.86858 -11.0092 0
23.268 7.55482 -11.5361 0
23.2987 8.26364 -11.8684 0
22.9808 8.34474 -11.6445 0
23.2274 9.02746 -12.2749 0
26.3959 15.3075 -12.9436 0
26.8233 15.821 -12.4506 0
25.8382 13.3993 -13.2456 0
26.1203 14.4769 -13.0929 0
25.785 14.2027 -13.0795 0
25.0644 13.1158 -13.106 0
25.3666 14.0524 -13.0569 0
25.4117 11.2045 -13.2474 0
25.6063 12.2049 -13.2759 0
25.2816 10.3362 -13.206 0
24.9378 10.2216 -13.0646 0
24.598 10.1085 -12.9239 0
25.0145 12.0115 -12.9239 0
24.6248 11.8891 -12.8747 0
25.3114 12.1088 -13.0948 0
24.7939 11.0253 -12.9213 0
24.2325 9.94886 -12.8841 0
24.1019 10.7412 -12.7753 0
24.2746 11.773 -12.807 0
23.8668 9.78975 -12.841 0
23.5401 9.74145 -12.7354 0
23.3013 9.89568 -12.4589 0
26.6186 15.639 -12.3233 0
27.2518 16.4822 -11.8797 0
25.0571 13.9284 -12.9804 0
25.8106 14.822 -12.853 0
26.3096 15.512 -12.2204 0
26.0742 15.4293 -12.1507 0
26.8332 16.232 -11.6562 0
23.9463 11.7319 -12.7322 0
24.3572 12.912 -12.9783 0
23.0474 10.0685 -12.2353 0
23.5092 10.8331 -12.5007 0
23.6351 11.8351 -12.6459 0
23.3268 12.022 -12.5784 0
23.7136 12.9275 -12.7872 0
25.2499 14.5739 -12.6685 0
25.8865 15.3619 -12.0966 0
24.7719 13.8353 -12.8683 0
24.4953 13.7419 -12.7366 0
24.2954 13.6129 -12.5992 0
25.6855 15.2138 -11.9461 0
26.4905 16.1262 -11.5208 0
23.9933 13.6217 -12.4588 0
24.8386 14.2718 -12.3666 0
25.5598 15.0089 -11.8723 0
25.4212 14.8189 -11.8102 0
26.3178 15.6792 -11.3435 0
20.4868 2.28182 -10.1897 0
20.9728 3.09976 -10.6395 0
19.3123 0.285486 -9.66476 0
19.9487 1.37746 -9.79448 0
20.0507 2.10386 -10.0428 0
19.5875 1.81783 -9.9033 0
20.1336 2.80083 -10.3629 0
18.2027 -1.62627 -9.66523 0
18.7237 -0.834123 -9.57591 0
17.366 -2.74976 -9.92799 0
17.7744 -2.20719 -9.79026 0
17.9223 -1.65284 -9.58541 0
17.708 -1.64271 -9.42529 0
18.0722 -1.07226 -9.35783 0
19.0281 0.60254 -9.38711 0
19.1418 1.41515 -9.69901 0
18.8543 -0.129069 -9.51748 0
18.4663 -0.412253 -9.32862 0
18.1757 -0.491003 -9.16567 0
18.8016 1.10934 -9.23047 0
19.3261 2.28538 -9.78397 0
17.9798 -0.481921 -8.8556 0
18.3607 0.189133 -8.89205 0
18.5001 0.970158 -8.97084 0
18.2205 0.846543 -8.71097 0
18.6419 1.74781 -9.04747 0
16.9605 -3.29612 -10.0654 0
17.848 0.10238 -8.49916 0
17.944 0.75494 -8.47824 0
17.6221 -1.0192 -8.96414 0
17.7615 -0.467981 -8.64728 0
17.3834 -0.425101 -8.70811 0
16.8933 -0.895476 -9.10966 0
16.9336 -0.420805 -8.81482 0
17.2827 -2.2335 -9.58198 0
17.4864 -1.60078 -9.3156 0
17.1003 -2.78783 -9.85812 0
16.8207 -1.42005 -9.44102 0
16.3788 -1.39231 -9.56944 0
17.1665 -1.49331 -9.36416 0
16.6719 -2.04612 -9.68136 0
15.865 -1.48205 -9.61241 0
17.5078 0.754651 -8.61311 0
18.0471 1.46296 -8.55476 0
16.4334 -0.454817 -8.94507 0
16.9688 0.132275 -8.76588 0
17.0683 0.643881 -8.57313 0
16.58 0.503742 -8.5601 0
17.1656 1.22449 -8.52483 0
15.2999 -1.61659 -9.70773 0
15.8757 -1.03141 -9.302 0
14.6745 -1.87852 -9.88452 0
14.6663 -1.50202 -9.6444 0
15.937 -0.17368 -8.89937 0
16.0079 0.301986 -8.6257 0
15.8923 -0.625371 -9.08593 0
15.3101 -0.813033 -9.25839 0
14.6527 -1.12357 -9.27129 0
15.4029 0.0894218 -8.62481 0
16.1034 0.841412 -8.48401 0
14.6728 -0.703227 -8.88815 0
14.7398 -0.249384 -8.52814 0
14.9178 0.262822 -8.42271 0
24.3917 14.0748 -12.1469 0
25.2004 14.7617 -11.6903 0
23.1262 13.1565 -12.4917 0
23.7037 13.615 -12.3365 0
23.4698 13.5493 -12.2307 0
22.6888 13.1549 -12.2045 0
23.3021 13.5254 -12.0747 0
22.8929 11.1735 -12.404 0
22.9708 12.2648 -12.4712 0
22.5872 9.24051 -11.979 0
22.7271 10.2004 -12.1994 0
22.4284 10.2299 -12.2395 0
21.9476 9.20351 -12.0777 0
22.1393 10.199 -12.1402 0
22.3817 12.4174 -12.2367 0
22.1804 12.4001 -12.0713 0
22.6236 12.4214 -12.365 0
22.293 11.2716 -12.1845 0
21.816 10.1181 -12.0481 0
21.738 11.1087 -11.9645 0
21.9482 12.349 -11.93 0
21.2003 9.00088 -12.044 0
21.442 9.98952 -12.0312 0
21.1255 9.87706 -11.9593 0
20.4997 8.74242 -11.6804 0
20.7846 9.74121 -11.7463 0
22.5386 7.53646 -11.2249 0
22.5889 8.34653 -11.605 0
22.1379 6.03509 -10.6919 0
22.3783 6.7976 -10.8505 0
21.9762 6.75106 -10.7679 0
21.3469 5.95042 -10.407 0
21.5388 6.70216 -10.7865 0
21.424 4.46811 -10.8107 0
21.7796 5.23093 -10.7667 0
21.1315 3.75628 -10.8214 0
20.7696 3.67532 -10.5874 0
20.4006 3.5487 -10.4004 0
20.9719 5.10886 -10.5027 0
20.4533 4.98814 -10.4764 0
21.4244 5.21763 -10.5392 0
20.6273 4.30973 -10.5397 0
19.8656 3.37016 -10.4267 0
19.6266 3.8662 -10.3799 0
20.0089 4.80122 -10.3231 0
19.4875 3.05943 -10.0209 0
19.1029 2.77292 -9.73067 0
18.7584 2.55407 -9.48716 0
20.3539 7.84139 -11.2082 0
20.0268 7.73121 -10.846 0
21.0505 8.00732 -11.7409 0
20.6876 7.91448 -11.5703 0
20.2183 6.9689 -10.7626 0
19.918 6.13838 -10.426 0
19.5596 6.01087 -10.125 0
21.8464 8.27348 -11.6577 0
21.4441 8.12994 -11.7447 0
22.1783 8.31818 -11.6225 0
21.7092 7.42556 -11.239 0
21.0533 6.58157 -10.8037 0
20.2624 6.21571 -10.7057 0
19.6313 5.33113 -10.0542 0
20.8943 7.08897 -11.3699 0
20.6335 6.39954 -10.8415 0
20.3828 5.71126 -10.3128 0
19.2548 4.36025 -9.98714 0
18.9133 4.15909 -9.69294 0
19.629 4.55833 -10.0975 0
18.8915 3.36458 -9.89735 0
18.4368 2.38463 -9.23563 0
19.4193 6.62363 -10.2629 0
19.5954 7.47307 -10.6243 0
18.8812 4.90523 -9.64137 0
19.1716 5.78742 -9.9014 0
18.7329 5.54746 -9.76021 0
17.9782 4.4265 -9.4906 0
18.1891 5.28275 -9.78426 0
18.2357 2.99197 -9.29314 0
18.553 3.95207 -9.44954 0
18.1284 2.21486 -8.93486 0
17.7093 2.06645 -8.85301 0
17.2692 1.89555 -8.79678 0
17.7167 3.53144 -9.2004 0
17.1858 3.26175 -9.2267 0
18.1665 3.74313 -9.27567 0
17.4445 2.59385 -9.00821 0
16.8203 1.69179 -8.68143 0
16.4252 2.17566 -8.88883 0
16.6063 3.05847 -9.23755 0
16.2272 1.47183 -8.68875 0
15.6756 1.28017 -8.66401 0
15.0918 0.931006 -8.58665 0
25.1411 14.5878 -11.5517 0
26.1849 15.2596 -11.1506 0
23.232 13.4818 -11.7975 0
24.1224 13.9338 -11.7714 0
25.1 14.4654 -11.3446 0
25.0618 14.3203 -11.0583 0
26.0822 14.716 -10.914 0
21.8019 12.1799 -11.7181 0
22.4205 13.0998 -11.7658 0
20.4607 9.57066 -11.412 0
21.1781 10.7889 -11.7303 0
21.8152 11.9178 -11.3522 0
21.6625 11.7593 -11.0078 0
22.5346 12.6535 -10.9942 0
24.0722 13.7768 -11.116 0
25.0241 14.1076 -10.798 0
23.1998 13.428 -11.4485 0
23.2267 13.2761 -11.0614 0
23.1734 13.198 -10.6616 0
25.0118 13.896 -10.4808 0
26.0496 14.1986 -10.441 0
23.1128 13.0776 -10.2819 0
24.0644 13.4885 -10.3728 0
25.0458 13.5546 -10.1821 0
25.0683 13.1871 -9.89274 0
26.1509 13.4799 -9.98177 0
19.163 7.20057 -10.3764 0
19.7873 8.3964 -10.9659 0
17.6343 5.04957 -9.81267 0
18.4306 6.09309 -10.0462 0
18.6732 6.93363 -10.2039 0
18.1131 6.71836 -10.1329 0
18.9617 7.89564 -10.3545 0
16.0927 2.9689 -9.09452 0
16.8542 4.01609 -9.43365 0
15.3264 1.85384 -8.71164 0
15.5795 2.85958 -8.92024 0
15.9862 3.893 -9.17855 0
17.555 5.74912 -9.96896 0
17.9079 6.68385 -9.84376 0
17.1005 4.93397 -9.73919 0
16.9065 4.8732 -9.59244 0
16.8277 4.86793 -9.46661 0
17.9785 6.77372 -9.45034 0
18.304 7.83133 -9.59026 0
17.5309 5.85576 -9.39946 0
18.131 6.97291 -8.88621 0
18.4835 8.02378 -8.5482 0
24.0678 12.7696 -9.80841 0
25.1374 12.603 -9.84355 0
22.3426 12.325 -10.1846 0
23.0911 12.7299 -10.0003 0
23.0677 12.3225 -9.73476 0
22.2486 11.2682 -9.66137 0
23.0842 11.6283 -9.56687 0
20.6835 10.4689 -11.1066 0
21.5292 11.5548 -10.5869 0
20.1933 9.35795 -11.0782 0
19.8174 9.15881 -10.7559 0
19.4826 8.83168 -10.5173 0
21.4092 10.4967 -9.86287 0
21.2789 9.87954 -9.65025 0
21.3646 11.3243 -10.1571 0
20.166 9.90715 -10.5425 0
19.0571 8.82474 -10.1763 0
19.5466 9.50278 -9.65358 0
20.7585 9.67819 -9.51941 0
18.5298 8.99871 -9.69244 0
18.5905 8.98616 -9.06243 0
18.6712 8.92747 -8.42489 0
25.1757 11.988 -9.79784 0
26.1411 12.4154 -9.78523 0
22.9871 10.8776 -9.32544 0
24.1316 11.4754 -9.60434 0
25.1083 11.3819 -9.4599 0
25.009 10.7149 -9.14156 0
26.0937 11.2772 -9.22421 0
20.5053 9.33342 -9.31688 0
21.7464 10.1451 -9.26979 0
19.629 8.87741 -8.79326 0
20.6171 8.83906 -9.03575 0
21.7732 9.06611 -8.68427 0
23.8934 10.1968 -8.95508 0
24.9903 10.0774 -8.87614 0
22.8391 10.2793 -9.01114 0
22.7836 9.70563 -8.70521 0
22.9276 9.11768 -8.47527 0
25.026 9.45903 -8.57773 0
26.0776 9.95013 -8.73932 0
24.0465 8.99314 -8.41053 0
25.187 8.86165 -8.24275 0
26.3298 8.71513 -8.0966 0
31.4696 21.7138 -6.14299 0
30.3133 21.6563 -6.74819 0
30.1313 21.2432 -6.79266 0
30.9235 20.9723 -5.9305 0
29.9066 20.7811 -6.66623 0
32.9305 21.0229 -6.09574 0
32.4781 21.3236 -5.98957 0
32.6998 20.6361 -6.83069 0
32.8109 20.8245 -6.47684 0
32.6063 20.5841 -6.28348 0
32.301 20.165 -6.44474 0
32.3857 20.3275 -6.06559 0
31.8133 20.7955 -5.63041 0
31.6043 20.517 -5.4184 0
32.1072 21.0685 -5.83537 0
32.4868 20.5149 -5.6247 0
32.2191 20.0703 -5.85181 0
32.1572 19.9432 -5.22868 0
31.529 20.1914 -5.21143 0
32.0127 19.6535 -6.08139 0
32.1948 19.7774 -5.5927 0
32.2305 19.4879 -5.29578 0
32.005 19.082 -5.59319 0
32.2577 19.2221 -4.91853 0
31.6508 19.8851 -8.15704 0
32.1895 20.276 -7.46626 0
30.9155 18.8172 -9.68544 0
31.2269 19.4316 -8.90561 0
31.0636 19.2764 -8.8103 0
30.6082 18.5619 -9.58924 0
30.8976 19.1157 -8.67863 0
30.2443 17.8278 -11.2117 0
30.5646 18.2436 -10.4686 0
30.0105 17.268 -11.9266 0
29.54 17.5504 -11.8965 0
29.2808 17.5663 -11.8669 0
30.2894 18.0621 -10.4512 0
30.1326 17.7667 -10.3061 0
30.4312 18.164 -10.4586 0
29.7987 17.8071 -11.1787 0
29.0046 17.4985 -11.8255 0
29.3921 17.3553 -10.9622 0
29.9711 17.4852 -10.1445 0
28.758 17.3265 -11.7407 0
28.5222 17.1878 -11.5956 0
28.288 17.0858 -11.451 0
31.7768 18.9316 -6.1432 0
31.7698 18.6557 -5.92909 0
31.6883 19.4529 -6.66062 0
31.6943 19.2227 -6.40503 0
31.0479 18.8291 -6.93752 0
30.3666 18.6292 -7.80187 0
30.3945 18.4373 -7.52407 0
31.8671 19.8569 -7.11056 0
31.7194 19.716 -6.87692 0
32.0239 20.0832 -7.32519 0
31.3492 19.5222 -7.8711 0
30.7152 18.9738 -8.49877 0
30.3594 18.8291 -8.06726 0
29.8761 18.1564 -8.84422 0
31.0377 19.2528 -7.44962 0
30.5096 18.9023 -8.2987 0
30.2707 18.1492 -9.24568 0
29.4916 17.5494 -9.82648 0
29.3461 17.5404 -9.60056 0
29.7415 17.4625 -9.98594 0
28.9381 17.2327 -10.6711 0
28.0508 17.0446 -11.3212 0
31.1928 18.2506 -6.49429 0
31.7466 18.3808 -5.62441 0
29.7606 17.9735 -8.32855 0
30.4338 18.1449 -7.35966 0
30.4636 17.8782 -7.20864 0
29.7403 17.4966 -8.00912 0
30.3822 17.5745 -7.10549 0
28.5646 17.1567 -10.3397 0
29.2127 17.5394 -9.41732 0
27.8552 16.8514 -11.1489 0
27.7022 16.7603 -10.9995 0
27.5442 16.7122 -10.891 0
29.0673 17.2615 -9.1108 0
29.0455 17.0407 -9.01899 0
29.0971 17.5122 -9.23456 0
28.3147 17.1037 -10.0848 0
27.3839 16.6402 -10.7905 0
28.2855 16.6712 -9.95963 0
28.9738 16.7795 -8.98787 0
27.3618 16.4171 -10.7402 0
27.3081 16.2015 -10.65 0
27.2569 15.9858 -10.5835 0
29.3433 16.9412 -5.13964 0
29.2408 16.4809 -5.21378 0
29.8731 16.2653 -5.16643 0
30.5503 16.4412 -5.23549 0
30.5277 15.9826 -5.27048 0
28.9769 18.7625 -6.45972 0
29.6559 20.2786 -6.55877 0
29.2092 19.2364 -6.50389 0
30.0107 19.2059 -5.69979 0
29.4358 19.7375 -6.53464 0
30.5601 20.0595 -5.77879 0
31.2707 19.396 -4.96859 0
30.8348 19.0026 -5.04508 0
31.5309 19.8308 -4.97461 0
31.9828 19.3469 -4.74378 0
32.2278 18.9592 -4.48683 0
30.6548 16.9213 -5.0721 0
30.7721 16.4762 -5.38713 0
29.525 17.3619 -5.13633 0
30.0689 17.1595 -5.03106 0
30.7493 17.3727 -4.9392 0
30.9581 17.7271 -4.84218 0
31.0038 17.2521 -5.18495 0
28.8693 17.4487 -5.67397 0
28.4363 17.8973 -6.37095 0
29.4 18.284 -5.65427 0
30.6341 17.9951 -4.84087 0
31.2742 18.0477 -4.74918 0
29.7462 17.7625 -5.16393 0
30.0846 18.1733 -5.04688 0
30.4419 18.5878 -5.04855 0
31.7115 18.3721 -4.4392 0
31.7024 17.937 -4.76185 0
31.5257 18.7777 -4.46043 0
32.0782 18.6854 -4.22726 0
32.0558 18.5474 -4.73592 0
30.8068 16.3507 -5.71439 0
30.9108 15.9715 -5.87631 0
30.9613 17.0952 -5.61431 0
30.9335 16.7204 -5.63228 0
30.3066 16.2078 -6.40207 0
29.8163 16.137 -7.19577 0
29.8651 15.7298 -7.31346 0
31.372 17.7828 -5.3921 0
31.1647 17.4478 -5.59635 0
31.5588 18.0823 -5.46793 0
30.9929 17.6139 -6.25479 0
30.2748 17.246 -7.08286 0
29.903 16.5171 -7.13155 0
29.4567 16.194 -8.14193 0
30.5726 16.9292 -6.26229 0
30.1544 16.8978 -7.10155 0
29.5823 16.9129 -7.99781 0
28.8726 16.2543 -8.92729 0
29.0188 15.8876 -9.10263 0
28.8691 16.4964 -8.99147 0
28.1898 16.19 -9.84048 0
27.2454 15.7622 -10.5691 0
29.7966 15.1961 -5.36394 0
30.964 15.603 -5.60912 0
30.5772 15.459 -5.34326 0
30.5103 14.8825 -5.4834 0
30.8622 14.556 -5.83753 0
30.1975 14.3283 -5.6795 0
30.0323 13.7779 -5.79859 0
30.6209 13.4581 -6.27657 0
30.6196 15.4506 -6.71844 0
31.0459 15.5713 -6.07937 0
29.5604 15.4058 -8.43805 0
29.9175 15.3364 -7.50578 0
30.1018 14.9768 -7.67133 0
29.6837 14.595 -8.67049 0
30.3344 14.6308 -7.84279 0
28.2273 15.5682 -9.88723 0
29.1459 15.5166 -9.28227 0
27.2327 15.5599 -10.4576 0
27.1927 15.1853 -10.4286 0
27.1234 14.7865 -10.428 0
29.192 14.6393 -9.49111 0
29.174 14.2365 -9.52921 0
29.2107 15.0923 -9.38653 0
28.1707 14.7327 -9.95798 0
27.1551 14.4651 -10.2982 0
28.2124 13.9755 -9.84923 0
29.0198 13.8285 -9.37806 0
27.2393 14.1291 -10.199 0
27.2733 13.7572 -10.0824 0
27.1942 13.2911 -9.92369 0
30.9395 12.516 -7.11735 0
30.7815 11.9617 -7.12942 0
30.8562 13.5886 -6.80756 0
31.0253 13.058 -7.06671 0
30.8516 12.6485 -7.68582 0
30.3563 12.7374 -8.34441 0
30.2274 12.2272 -8.22494 0
31.0043 14.6295 -6.36419 0
30.7837 14.1213 -6.55914 0
31.1562 15.1076 -6.19034 0
30.8788 14.6524 -7.04646 0
30.3907 14.2458 -8.00767 0
30.3668 13.2291 -8.33948 0
29.7989 12.8036 -9.03866 0
30.7141 13.6688 -7.40976 0
30.361 13.7444 -8.16266 0
29.7501 13.8157 -8.74103 0
28.9894 12.9034 -9.44989 0
29.0947 12.3756 -9.60457 0
28.894 13.4012 -9.29743 0
28.0023 13.0852 -9.58819 0
27.1098 12.8015 -9.76548 0
30.5582 11.4963 -7.5712 0
29.5693 11.7667 -8.63816 0
30.1784 11.6336 -8.10542 0
30.2641 10.9858 -7.93763 0
29.7209 10.4886 -8.2106 0
30.2431 10.325 -7.74509 0
28.1841 12.0237 -9.66403 0
28.9908 11.8543 -9.30803 0
27.1519 12.2796 -9.62762 0
27.1396 11.7295 -9.39021 0
27.1057 11.0892 -9.12541 0
28.9788 10.6499 -8.69164 0
29.0145 10.0034 -8.39288 0
28.9038 11.2843 -8.93499 0
28.0798 10.8349 -9.01796 0
27.0902 10.4116 -8.90949 0
28.2166 9.56232 -8.39443 0
29.0568 9.38296 -8.05745 0
27.1791 9.76774 -8.58401 0
27.2711 9.14521 -8.23154 0
27.4024 8.5627 -7.98389 0
29.1843 8.79771 -7.69764 0
17.6172 63.6492 -34.7867 0
17.0728 63.4452 -35.6758 0
17.39 63.5546 -35.2094 0
17.6189 63.1369 -35.0004 0
17.6488 62.579 -35.2211 0
15.8952 63.2695 -36.5759 0
16.4996 63.3511 -36.1384 0
14.3184 62.8193 -36.6516 0
15.1171 63.0551 -36.6266 0
15.7086 62.5907 -36.5142 0
15.5091 61.8962 -36.3609 0
16.2128 62.101 -36.2273 0
17.4385 62.4667 -35.6723 0
17.6421 62.0639 -35.2619 0
16.9701 62.8909 -35.9157 0
16.8876 62.3179 -36.0286 0
16.7262 61.6387 -35.8916 0
17.5593 61.4883 -35.2389 0
16.5554 61.0211 -35.7993 0
17.1835 61.2643 -35.6501 0
17.456 60.8741 -35.1888 0
17.4771 60.3355 -35.1242 0
12.9716 62.2383 -37.4067 0
13.6656 62.5977 -37.0152 0
12.2325 61.1323 -38.7351 0
12.396 61.7844 -37.9699 0
12.9433 61.3849 -37.4772 0
12.9504 60.4925 -37.6467 0
13.4558 60.9719 -37.0626 0
13.2521 59.6823 -40.6894 0
12.4268 60.3127 -39.5786 0
13.3533 58.1018 -41.3863 0
13.9403 59.1135 -41.2457 0
14.0093 58.7895 -40.8489 0
14.427 57.6479 -40.8848 0
14.0622 58.5138 -40.4201 0
12.6352 59.7965 -38.3887 0
12.7212 59.5176 -37.7679 0
12.4933 60.0626 -38.9725 0
12.7259 58.9886 -39.215 0
13.9224 58.3103 -39.6939 0
12.88 58.6735 -37.911 0
12.8763 59.249 -37.1414 0
15.2768 57.7641 -40.152 0
13.7524 58.1064 -38.9714 0
13.4422 57.8583 -38.2791 0
14.4439 57.254 -38.7551 0
13.2307 57.5596 -37.6065 0
16.9491 60.0747 -35.4404 0
17.5161 59.85 -34.9712 0
15.9105 60.7866 -35.9612 0
16.4163 60.4207 -35.7113 0
16.3081 59.8338 -35.6188 0
15.6376 59.58 -35.7773 0
16.3134 59.3354 -35.4298 0
14.7575 61.651 -36.4957 0
15.341 61.1763 -36.2476 0
14.2496 62.1099 -36.7497 0
14.0775 61.3269 -36.7607 0
13.9163 60.5515 -36.7214 0
15.0161 59.8606 -36.0782 0
14.819 59.2249 -35.9035 0
15.1773 60.4717 -36.1831 0
14.405 60.1387 -36.3649 0
13.6763 59.753 -36.7263 0
13.9779 58.8396 -36.0659 0
14.6638 58.6115 -35.7059 0
13.4229 59.0438 -36.6255 0
13.2914 58.2534 -36.6786 0
13.1931 57.2621 -36.9251 0
17.5639 59.3725 -34.7928 0
16.218 58.7665 -35.2362 0
17.0004 59.1052 -35.0586 0
17.6458 58.9332 -34.6324 0
17.5932 58.5113 -34.3639 0
14.6124 58.069 -35.5847 0
15.3995 58.4085 -35.3751 0
13.8336 56.6272 -37.4285 0
13.9152 57.5316 -36.1866 0
14.6601 57.5842 -35.6081 0
14.75 57.0828 -35.7481 0
15.4158 57.4413 -35.1768 0
16.8563 58.1338 -34.5716 0
17.5465 58.0854 -34.0935 0
16.1267 58.1942 -35.0322 0
16.0895 57.751 -34.813 0
16.134 57.3376 -34.7206 0
17.5266 57.6363 -33.9158 0
16.1387 56.8968 -34.6278 0
16.8374 57.2714 -34.2605 0
17.4932 57.1981 -33.7996 0
17.4751 56.7669 -33.6831 0
12.4623 57.8161 -41.3255 0
12.9393 57.9357 -41.3977 0
11.4936 57.9802 -40.7522 0
11.9641 57.8773 -41.1218 0
12.669 57.3804 -40.9256 0
12.8464 56.9685 -40.3443 0
13.3515 57.0124 -40.7854 0
10.7037 58.1344 -39.9613 0
11.1323 58.0698 -40.4615 0
9.88088 57.8721 -39.1037 0
10.3119 58.0986 -39.5269 0
11.0311 57.7131 -39.1149 0
11.0154 56.951 -38.3334 0
11.5462 57.1522 -38.8121 0
12.4333 57.0649 -39.8733 0
13.0015 56.5072 -39.6781 0
11.8614 57.5945 -40.1316 0
12.0061 57.1372 -39.3215 0
12.0788 56.5369 -38.5228 0
13.1004 55.9405 -39.0424 0
13.5394 55.9657 -39.6349 0
11.9474 55.5619 -37.8736 0
12.5535 55.7293 -38.417 0
13.0225 54.982 -38.3974 0
13.0094 53.9716 -37.6728 0
13.5728 54.3492 -38.3376 0
9.1202 57.4314 -37.9993 0
9.46925 57.6154 -38.6131 0
8.40244 57.0373 -36.9023 0
8.72497 57.129 -37.4268 0
9.3286 56.5488 -37.1722 0
9.82543 55.8506 -36.8179 0
12.5061 53.5105 -36.937 0
13.0814 52.7625 -36.821 0
11.461 55.2806 -37.2539 0
11.9442 54.3084 -37.0647 0
12.0665 52.9176 -36.087 0
10.5714 56.6493 -37.8961 0
11.0131 56.0603 -37.5221 0
10.126 57.1678 -38.2468 0
10.1876 56.1972 -37.3944 0
11.0647 54.7753 -36.646 0
10.7631 54.3066 -36.0664 0
13.2715 51.2206 -35.8317 0
13.6514 52.0233 -36.7419 0
16.7318 56.299 -34.1795 0
17.4489 56.3135 -33.5762 0
15.6645 56.5083 -35.4595 0
16.0029 56.314 -34.6989 0
15.8747 55.7362 -34.7607 0
15.5525 55.4136 -35.9646 0
15.9981 55.2648 -34.8529 0
14.5343 56.0432 -37.1248 0
15.0573 56.4822 -36.2317 0
14.8579 56.1827 -38.4914 0
14.4717 55.8267 -37.8569 0
15.2592 55.3562 -38.1979 0
16.4847 55.204 -39.0139 0
16.2608 55.2508 -38.4577 0
15.6136 55.3818 -36.8806 0
16.3556 55.3724 -36.9477 0
15.3971 55.8904 -36.6315 0
15.9787 55.349 -37.7103 0
16.9918 54.7868 -38.6443 0
17.4441 54.8327 -37.797 0
16.7402 54.713 -36.948 0
17.4303 53.7956 -38.9535 0
17.5686 54.2629 -38.5147 0
17.9383 53.571 -38.1815 0
18.0012 52.4338 -37.7723 0
18.3085 52.7415 -37.7633 0
16.0289 57.2301 -39.7847 0
15.5922 56.8857 -39.1277 0
15.4798 57.1577 -40.6142 0
16.1338 57.3363 -40.3722 0
16.2413 56.6738 -40.1678 0
15.2215 55.4793 -40.0864 0
15.7303 55.3529 -39.875 0
14.1792 57.2476 -41.1111 0
14.8156 57.1521 -40.8361 0
13.6401 57.5612 -41.3715 0
13.8782 57.0583 -41.2469 0
13.9831 56.6519 -40.6919 0
14.9814 56.0467 -40.2346 0
14.8589 55.1474 -39.9552 0
15.0751 56.7254 -40.6387 0
14.5775 56.3956 -40.497 0
14.0914 56.2163 -40.1353 0
14.5574 54.7843 -39.8007 0
14.8816 54.1901 -39.7322 0
14.1259 55.5373 -39.5845 0
14.0612 54.5571 -39.1654 0
14.0792 53.6492 -38.4097 0
17.6519 52.163 -37.9174 0
17.932 51.3612 -37.1442 0
17.1098 53.5639 -39.2096 0
17.4232 52.9067 -38.6473 0
17.0695 52.2246 -37.8965 0
16.4796 52.3323 -38.0021 0
16.733 51.5002 -37.2691 0
16.1445 54.8871 -39.4182 0
16.6193 54.1625 -39.5075 0
16.2272 56.2359 -39.2737 0
16.2102 55.1889 -39.823 0
15.6529 54.3374 -39.7924 0
16.2536 53.0168 -38.9676 0
15.8172 52.5492 -38.1762 0
16.551 53.5461 -39.4281 0
15.9413 53.6292 -39.6758 0
15.4468 53.9105 -39.7148 0
15.1429 52.8025 -38.3879 0
15.3163 51.8557 -37.4368 0
15.0637 53.4777 -39.2668 0
14.6058 53.1721 -38.4031 0
14.1456 52.6453 -37.5515 0
17.6864 50.5024 -36.4557 0
18.3095 50.4622 -36.3533 0
16.2779 50.6862 -36.4986 0
17.0374 50.6151 -36.587 0
17.4198 49.3856 -36.1352 0
17.1077 48.2254 -35.7312 0
17.7925 48.3971 -35.7711 0
14.8932 51.0451 -36.589 0
15.5345 50.7838 -36.5019 0
14.2368 51.3601 -36.7219 0
14.5962 50.0324 -36.0527 0
14.9978 48.5843 -35.6993 0
16.4031 48.1269 -35.8087 0
15.9691 49.3696 -36.0846 0
15.7057 48.247 -35.7932 0
17.4151 55.8377 -33.4781 0
16.2283 54.785 -34.9608 0
16.7095 55.2933 -34.0592 0
17.3763 55.3287 -33.3825 0
17.5321 54.8868 -33.4002 0
17.0078 53.8311 -36.9207 0
16.323 54.4393 -36.1296 0
18.7701 51.9368 -37.1893 0
18.0748 53.1167 -37.5201 0
17.4814 53.2343 -36.7935 0
18.1833 52.9732 -36.6472 0
17.1648 53.6048 -36.0355 0
16.9206 54.3006 -34.2052 0
17.6691 54.4466 -33.415 0
16.4765 54.2433 -35.0968 0
16.5972 53.7314 -35.2241 0
17.0559 53.6246 -35.2232 0
17.6855 53.8366 -33.4433 0
17.4446 53.4663 -35.1893 0
16.9365 53.1628 -34.3096 0
17.6153 53.1833 -33.4462 0
17.7458 52.8227 -33.3658 0
18.7359 49.6406 -35.7233 0
18.8008 50.7685 -36.4053 0
18.2157 47.623 -35.5153 0
18.4725 48.6092 -35.6499 0
19.1834 48.9319 -35.6589 0
19.582 48.3359 -35.5958 0
19.7312 49.4549 -35.4717 0
19.3504 47.3265 -35.4822 0
19.9536 47.7923 -35.5239 0
18.7084 46.9636 -35.3609 0
20.3755 47.2938 -35.3249 0
20.4733 48.3814 -35.3256 0
21.2131 47.3226 -35.0525 0
17.6932 52.6605 -34.1756 0
17.7111 52.3557 -33.3033 0
18.4281 52.8668 -35.8228 0
18.0813 52.847 -35.0991 0
18.7018 52.1928 -34.9675 0
19.8244 51.7734 -35.2213 0
19.344 51.7104 -34.7396 0
19.1992 51.683 -36.6121 0
18.8226 52.4114 -36.3166 0
19.2605 51.1999 -36.5933 0
19.6779 50.5382 -35.9865 0
20.0683 50.0123 -35.4988 0
20.0501 51.2097 -35.5969 0
20.552 50.6719 -35.2658 0
19.4768 51.7762 -35.9279 0
20.1559 50.579 -35.7286 0
20.4862 49.5639 -35.2672 0
21.0078 49.6252 -35.1229 0
20.9848 50.1255 -34.9831 0
20.816 49.0147 -35.1969 0
21.147 48.4312 -35.1243 0
21.4509 47.8631 -34.913 0
17.948 52.0388 -33.302 0
19.79 51.3522 -34.6217 0
18.7748 51.8278 -34.1331 0
18.3682 51.8142 -33.2991 0
18.6181 51.2127 -33.1926 0
21.2842 49.521 -34.7435 0
20.6991 50.5416 -34.72 0
21.6143 48.431 -34.6668 0
21.6191 48.9136 -34.4229 0
21.9237 48.3036 -34.0786 0
21.3138 49.2526 -34.1898 0
19.5605 50.782 -33.9212 0
18.9168 50.4286 -33.0551 0
20.1794 50.783 -34.4278 0
20.4872 50.0732 -34.1409 0
20.7127 49.2934 -33.7829 0
19.2202 49.5933 -32.8478 0
20.9161 48.5114 -33.3806 0
20.1086 49.1163 -33.23 0
19.3602 48.8874 -32.65 0
19.2518 48.0234 -32.4816 0
19.5167 47.366 -32.9728 0
18.6509 46.9857 -32.1085 0
21.6315 47.8397 -33.4336 0
20.6316 47.6631 -33.2135 0
20.138 46.682 -33.02 0
21.998 47.6065 -33.7155 0
18.0739 46.0018 -31.6998 0
13.2654 60.7691 -34.2204 0
13.1286 60.0941 -33.9658 0
13.7649 59.8408 -33.6345 0
13.7846 59.2128 -33.2031 0
14.6137 58.949 -32.8278 0
14.7392 58.1671 -32.3486 0
14.7665 57.3565 -31.9846 0
15.5284 57.2128 -31.7516 0
