#!ascii - generated by CreateLabelFiles project 
1559 2928
9.54778 15.1583 8.40549 0
8.33753 14.8662 9.74625 0
8.03041 14.7607 9.34925 0
7.78417 14.692 8.95683 0
9.38933 15.2743 7.91173 0
10.1623 15.3086 7.55511 0
8.54798 15.1305 8.25031 0
9.2547 15.4313 7.4419 0
9.86754 15.6672 6.65374 0
13.6969 20.6328 18.543 0
12.7001 19.87 17.9388 0
13.226 20.2842 18.217 0
13.3416 19.9914 18.4925 0
13.1461 19.4252 18.3794 0
13.5106 19.6933 18.7375 0
14.4129 20.2535 19.4176 0
14.7194 19.7067 19.4594 0
13.9469 19.9828 19.0821 0
13.754 19.4247 18.9485 0
14.5218 19.1532 19.3087 0
15.009 19.1931 19.5143 0
13.7139 18.8549 18.7277 0
14.0279 19.1423 19.1405 0
14.2959 18.6102 19.1539 0
14.1288 17.9188 18.9138 0
14.5375 18.0651 19.1824 0
11.9857 18.8277 17.2331 0
12.216 19.3658 17.6482 0
11.585 17.63 16.376 0
11.7381 18.3194 16.7988 0
12.0467 18.1903 16.9926 0
12.1477 17.3472 16.6988 0
12.3661 18.001 17.184 0
11.5391 16.2843 15.2629 0
11.5596 16.8781 15.8899 0
11.7582 15.179 13.9575 0
11.5997 15.7513 14.6105 0
11.9111 15.4162 14.6927 0
12.5292 14.4686 13.9643 0
12.3381 15.1059 14.6654 0
11.9966 16.6066 16.1277 0
12.4725 16.2722 16.097 0
11.7224 16.801 16.0441 0
12.1522 15.8386 15.3954 0
12.8235 14.8288 14.626 0
13.1702 15.2878 15.2998 0
12.9593 15.9559 16.043 0
13.6797 13.9569 13.8183 0
13.4027 14.6104 14.5623 0
13.9047 14.4613 14.5506 0
14.6203 13.7895 13.8652 0
14.347 14.405 14.4812 0
13.8034 17.5645 18.5399 0
14.0931 16.9903 18.4724 0
13.4287 18.5081 18.2814 0
13.6324 18.1197 18.4435 0
13.5786 17.0111 18.0283 0
13.4767 16.4477 17.4515 0
13.9696 16.0386 17.3002 0
12.7683 19.1768 18.0268 0
13.1037 18.849 18.1505 0
12.4825 19.2842 17.8362 0
12.55 18.6301 17.6289 0
12.5906 17.7093 17.3268 0
13.1467 16.8868 17.4515 0
13.6527 15.9238 16.6888 0
13.1028 18.029 17.8844 0
12.8137 17.2969 17.4437 0
12.8276 16.6041 16.7787 0
13.8516 15.4324 15.924 0
14.3098 15.1931 15.8277 0
13.3998 15.6428 15.999 0
14.0878 14.9783 15.1582 0
14.8788 14.3788 14.3555 0
14.4617 16.1303 17.7379 0
14.4196 16.4644 18.4091 0
14.7279 15.4773 16.3855 0
14.5408 15.792 17.0808 0
15.1785 14.7214 14.945 0
14.9263 15.1098 15.6727 0
15.8333 13.8107 13.5715 0
15.4938 14.2862 14.2368 0
16.0831 14.3386 14.1496 0
16.9364 14.1514 13.4438 0
15.5786 15.0843 15.4775 0
11.6244 14.1651 12.9819 0
11.7207 14.6342 13.4354 0
11.4651 13.6397 12.1446 0
11.5512 13.8807 12.5584 0
12.2061 13.6817 12.3531 0
12.8712 13.3862 11.7015 0
12.8146 13.5046 12.2392 0
11.5745 13.7141 11.0803 0
11.4475 13.5791 11.668 0
11.5995 13.9788 9.91694 0
11.6531 13.824 10.4803 0
12.2649 13.7208 10.2948 0
12.8612 13.7558 9.50256 0
12.9145 13.7094 10.0825 0
12.9329 13.4983 11.1587 0
13.5761 13.5768 11.0622 0
12.2122 13.4923 11.3722 0
12.95 13.6562 10.6593 0
13.6025 13.7707 9.91386 0
14.2207 13.8938 10.4108 0
14.1671 13.7227 10.9653 0
14.2595 13.7104 9.17791 0
14.2626 13.7733 9.80016 0
14.833 13.9737 9.72123 0
15.4111 14.2965 9.14923 0
15.3798 14.2793 9.71293 0
11.4643 14.6497 8.93709 0
11.5232 14.289 9.4061 0
11.1363 14.9794 7.92182 0
11.3372 14.876 8.43374 0
12.1103 14.7914 8.31739 0
12.6713 15.2617 7.9408 0
12.7851 14.7578 8.21757 0
10.8066 15.398 6.88942 0
10.9461 15.1417 7.37227 0
10.6732 15.5924 6.43882 0
11.4509 15.581 6.34395 0
12.1607 16.087 6.70257 0
12.4718 15.3861 7.43025 0
13.2302 15.6626 7.49622 0
11.7139 14.9623 7.2698 0
12.2939 15.77 7.15076 0
12.8748 16.4193 6.88788 0
13.798 15.8542 6.84999 0
13.9287 15.3702 7.13518 0
13.6272 16.2697 6.5559 0
14.3779 16.136 6.37389 0
15.0694 16.0164 6.34245 0
15.3868 14.3561 8.56894 0
15.9368 14.6041 8.61 0
14.2222 13.8389 8.63775 0
14.8563 13.9474 8.54593 0
15.3354 14.4486 7.99736 0
15.3273 14.5884 7.51079 0
15.8547 14.7866 7.59044 0
12.831 13.9361 9.01119 0
13.5021 13.9201 8.78902 0
12.1884 14.0001 9.20395 0
12.8194 14.2871 8.5966 0
13.4488 14.5916 8.0043 0
14.7964 14.3053 7.55364 0
15.3503 14.679 7.04339 0
14.1704 14.0243 8.13884 0
14.1339 14.3858 7.75735 0
14.0505 14.8533 7.41037 0
15.3211 14.928 6.65869 0
15.8876 14.9971 6.72418 0
14.6482 15.1309 6.8694 0
15.199 15.4687 6.52534 0
15.7203 15.9826 6.3579 0
16.463 14.707 8.11996 0
16.4899 14.6523 8.62129 0
17.1785 13.9288 12.8586 0
16.0726 13.5944 12.9258 0
16.6487 13.7148 12.9091 0
17.4004 13.7683 12.2745 0
17.4813 13.8884 11.6605 0
14.8724 13.3679 13.1633 0
15.4717 13.5432 13.0447 0
13.8436 13.431 13.1345 0
14.3819 13.3796 13.1604 0
15.1078 13.0819 12.4789 0
15.2254 13.2385 11.8668 0
15.7989 13.4573 11.8202 0
12.6336 13.9637 13.349 0
13.2448 13.6503 13.2088 0
12.2052 14.3641 13.3833 0
12.7347 13.5627 12.779 0
13.4501 13.3892 12.108 0
14.6387 13.0948 11.8634 0
15.2985 13.401 11.2765 0
13.9578 13.0486 12.4966 0
14.0555 13.1882 11.9495 0
14.1197 13.373 11.4735 0
15.3278 13.6793 10.7409 0
15.8959 13.874 10.7106 0
14.7537 13.6518 10.8143 0
15.3628 14.0733 10.2357 0
15.9362 14.3099 9.65196 0
16.9812 13.6338 11.6638 0
17.5632 14.001 11.0628 0
16.281 13.4503 12.2994 0
16.3945 13.5603 11.7198 0
16.4522 13.745 11.2086 0
17.0332 14.2041 10.6292 0
16.4495 14.1184 10.7031 0
17.0278 14.6183 9.63455 0
16.4698 14.3415 10.1592 0
16.5047 14.3953 9.62554 0
16.5079 14.5659 9.12082 0
15.4639 19.4162 19.7445 0
15.3854 18.3117 19.8319 0
15.2271 18.7527 19.6164 0
14.9894 18.176 19.4583 0
14.7239 17.6134 19.3419 0
0.993977 31.7379 12.4507 0
1.58742 31.8749 12.0741 0
0.312402 30.5872 12.7636 0
-0.247226 29.4155 12.9959 0
-0.206118 30.4125 13.162 0
-0.84988 30.281 13.1828 0
-1.57051 29.1525 12.9515 0
-2.15157 29.0569 12.7577 0
-4.65629 27.3548 8.4595 0
-4.56211 27.2023 8.85469 0
-4.61288 27.5411 8.1281 0
-4.04806 26.9335 9.70699 0
-3.15556 27.888 11.3147 0
-2.7176 29.0406 12.3924 0
-3.57939 27.894 10.7232 0
-4.35697 27.029 9.32043 0
-2.25594 23.3982 4.2363 0
-4.83102 26.8477 7.41709 0
-4.47997 27.0344 7.15874 0
-4.72609 26.3942 6.49472 0
-3.80181 24.0191 3.45222 0
-5.02502 24.1813 4.8216 0
-4.94043 24.4093 4.30713 0
-4.54196 24.0618 3.71273 0
-5.6084 24.7639 5.32716 0
-5.30274 25.3064 5.61843 0
-4.83098 25.9098 5.88632 0
-2.2915 23.6971 3.32393 0
-2.19352 23.8362 2.86241 0
-2.79951 24.1437 2.74748 0
-3.49574 24.3054 3.1053 0
-0.385334 23.218 4.92478 0
-1.32435 23.4585 4.45348 0
-1.38585 23.8501 4.19106 0
-0.430765 23.6216 4.732 0
1.70293 23.0758 5.40989 0
1.66278 23.4325 5.23534 0
-0.375491 22.8501 5.18149 0
0.629118 23.3353 5.12436 0
2.72739 23.2645 5.07715 0
-1.41 23.9627 3.72441 0
2.15285 32.0428 11.6577 0
2.94107 32.8866 11.4344 0
3.69532 23.4713 4.67211 0
4.59957 23.6982 4.3372 0
5.43664 24.3198 4.17949 0
5.9768 22.7989 2.63096 0
5.61298 23.2609 3.0669 0
5.88509 23.7005 3.33225 0
6.30233 23.2983 2.86042 0
6.07721 24.0747 3.677 0
6.23152 24.4522 3.97782 0
5.62151 22.2861 2.41141 0
6.31073 22.3512 2.14391 0
5.84432 21.8897 1.87345 0
5.45178 21.4171 1.6466 0
6.07127 21.1403 1.1884 0
6.19377 21.6726 1.26712 0
7.00591 21.4122 1.22414 0
7.95481 21.6431 1.2074 0
8.79678 21.921 1.16168 0
9.68206 22.2475 1.17681 0
14.6661 20.9054 4.41507 0
10.9083 21.8119 1.8577 0
11.3794 21.582 2.38333 0
11.4797 22.1048 2.1874 0
10.3836 22.0436 1.43722 0
10.4422 22.6265 1.40993 0
11.0463 22.3434 1.65768 0
14.5844 21.387 4.10703 0
14.5777 21.9566 3.89343 0
13.2416 21.7954 3.51026 0
13.9787 21.8171 3.57114 0
11.9528 21.9095 2.75056 0
12.5125 21.7157 3.37483 0
12.5309 22.2471 3.12567 0
14.7552 20.3862 4.56523 0
14.8005 19.9415 4.94129 0
14.8492 19.4694 5.3119 0
14.9261 18.8113 5.3321 0
15.0738 18.1916 5.40162 0
15.3062 17.6977 5.85597 0
15.5412 17.1357 6.09045 0
15.6337 16.5192 6.18959 0
5.64563 33.9546 8.38697 0
5.38905 33.5322 9.02511 0
5.41584 33.9709 8.38077 0
5.0981 34.1701 8.91261 0
4.61975 33.7058 9.50122 0
6.69924 33.28 11.5335 0
7.02152 33.7048 12.0495 0
5.88097 33.479 9.5244 0
6.27146 33.5887 9.95174 0
6.2963 33.0683 11.0997 0
6.64848 33.6048 14.5548 0
6.38595 33.0096 15.2888 0
6.97373 34.0262 13.6401 0
6.60272 33.6361 13.1551 0
4.30345 33.7156 10.0184 0
3.82283 32.976 10.5284 0
3.4142 32.9292 10.9905 0
9.40056 21.8514 11.1673 0
9.30134 21.9606 10.3839 0
8.88208 21.4981 11.3565 0
8.00107 24.1188 14.1403 0
8.23089 23.1271 13.6195 0
9.21865 22.0047 11.8452 0
8.42779 22.2125 13.0757 0
9.00245 22.3666 12.6921 0
7.64941 30.7734 15.4098 0
7.58852 29.461 15.1647 0
6.98116 28.3228 14.9389 0
6.88716 32.1625 15.5143 0
7.48907 32.098 15.4525 0
6.94984 33.0424 15.3127 0
8.07564 25.2445 14.3811 0
7.24818 26.8649 14.436 0
7.56101 26.7748 14.1957 0
9.27408 22.0974 9.75963 0
9.8173 22.4091 9.72277 0
14.1769 21.5349 18.2022 0
14.1492 21.3385 18.5546 0
13.5373 21.1291 17.9619 0
13.4008 21.283 17.692 0
12.7803 20.7947 17.4614 0
12.9397 20.9445 17.0399 0
12.5533 20.4143 16.7575 0
12.7634 20.6604 16.2928 0
12.9837 20.9027 15.8163 0
12.3664 20.3957 15.6762 0
12.4955 20.3026 14.674 0
12.3367 20.3391 15.2256 0
12.1437 19.9214 14.3849 0
12.3236 19.8267 13.7741 0
11.9196 19.4192 13.5734 0
10.6954 19.4934 11.6687 0
11.0896 19.1198 12.482 0
11.5369 19.2202 12.7336 0
11.1241 19.4472 11.8734 0
11.9955 19.2583 12.9328 0
10.3771 20.1638 10.8379 0
10.8138 20.002 11.0805 0
10.4972 20.7615 10.175 0
9.94825 20.8438 10.1808 0
10.029 21.4988 9.8187 0
9.54253 21.3379 9.81629 0
9.6884 21.8159 9.76511 0
15.1801 20.1403 19.3614 0
15.9473 20.0585 19.3228 0
14.2208 20.9898 18.8514 0
14.9591 20.6464 19.2576 0
14.2701 20.6202 19.1618 0
15.1859 15.7419 16.8003 0
15.9762 15.6759 16.6383 0
16.1113 15.2644 16.0302 0
16.7003 14.3161 14.1097 0
17.6168 14.1696 13.3374 0
16.2842 14.9047 15.424 0
16.4898 14.4795 14.8045 0
16.9915 14.7779 8.16157 0
16.415 14.8196 7.65778 0
16.3828 15.0503 7.31872 0
16.9713 14.8528 7.69861 0
16.3837 15.1886 6.91332 0
16.3597 15.5535 6.64502 0
16.3284 15.9926 6.39533 0
16.2671 16.5326 6.21758 0
17.736 14.3437 12.7529 0
17.9356 14.1902 12.1844 0
17.9589 14.2794 11.6272 0
18.0081 14.3733 11.0576 0
17.5758 14.6579 10.0553 0
17.5585 14.7803 9.60118 0
18.1008 14.5122 10.4825 0
17.6157 14.2506 10.5138 0
17.5496 14.8076 9.11244 0
17.0371 14.6539 9.12622 0
17.0199 14.7143 8.64326 0
15.8643 19.9443 19.7334 0
15.8782 19.2214 20.6144 0
15.6431 18.5158 20.413 0
15.8532 19.6708 20.1403 0
15.4 17.821 20.1812 0
15.2183 17.1677 19.9446 0
14.7944 17.048 19.5767 0
14.5439 16.8104 19.0488 0
15.0174 16.1314 18.1568 0
15.9229 15.9633 17.2545 0
345 1371 1372 0
1373 1371 345 0
22 1373 345 0
1374 1373 22 0
86 1375 1374 0
1376 1375 86 0
1377 1376 86 0
347 1374 22 0
346 86 1374 0
346 1374 347 0
88 346 347 0
349 1377 86 0
348 1378 1377 0
348 1377 349 0
87 348 349 0
350 346 88 0
349 86 346 0
349 346 350 0
87 349 350 0
352 350 88 0
351 87 350 0
351 350 352 0
5 351 352 0
354 1379 1380 0
353 1381 1379 0
353 1379 354 0
4 353 354 0
356 351 5 0
355 87 351 0
355 351 356 0
90 355 356 0
358 348 87 0
357 1378 348 0
357 348 358 0
89 357 358 0
359 355 90 0
358 87 355 0
358 355 359 0
89 358 359 0
361 359 90 0
360 89 359 0
360 359 361 0
23 360 361 0
363 360 23 0
362 89 360 0
362 360 363 0
1382 362 363 0
1383 357 89 0
1384 1378 357 0
1384 357 1383 0
1385 362 1382 0
1383 89 362 0
1383 362 1385 0
365 363 23 0
364 1382 363 0
364 363 365 0
91 364 365 0
366 364 91 0
1386 1382 364 0
1386 364 366 0
1380 1386 366 0
367 366 91 0
354 1380 366 0
354 366 367 0
4 354 367 0
369 356 5 0
368 90 356 0
368 356 369 0
93 368 369 0
371 361 90 0
370 23 361 0
370 361 371 0
92 370 371 0
372 368 93 0
371 90 368 0
371 368 372 0
92 371 372 0
374 372 93 0
373 92 372 0
373 372 374 0
25 373 374 0
376 365 23 0
375 91 365 0
375 365 376 0
95 375 376 0
378 367 91 0
377 4 367 0
377 367 378 0
94 377 378 0
379 375 95 0
378 91 375 0
378 375 379 0
94 378 379 0
381 379 95 0
380 94 379 0
380 379 381 0
24 380 381 0
383 373 25 0
382 92 373 0
382 373 383 0
96 382 383 0
384 370 92 0
376 23 370 0
376 370 384 0
95 376 384 0
385 382 96 0
384 92 382 0
384 382 385 0
95 384 385 0
386 385 96 0
381 95 385 0
381 385 386 0
24 381 386 0
388 383 25 0
387 96 383 0
387 383 388 0
98 387 388 0
390 386 96 0
389 24 386 0
389 386 390 0
97 389 390 0
391 387 98 0
390 96 387 0
390 387 391 0
97 390 391 0
393 391 98 0
392 97 391 0
392 391 393 0
1 392 393 0
395 392 1 0
394 97 392 0
394 392 395 0
100 394 395 0
397 389 97 0
396 24 389 0
396 389 397 0
99 396 397 0
398 394 100 0
397 97 394 0
397 394 398 0
99 397 398 0
400 398 100 0
399 99 398 0
399 398 400 0
27 399 400 0
402 380 24 0
401 94 380 0
401 380 402 0
102 401 402 0
404 377 94 0
403 4 377 0
403 377 404 0
101 403 404 0
405 401 102 0
404 94 401 0
404 401 405 0
101 404 405 0
407 405 102 0
406 101 405 0
406 405 407 0
26 406 407 0
409 399 27 0
408 99 399 0
408 399 409 0
103 408 409 0
410 396 99 0
402 24 396 0
402 396 410 0
102 402 410 0
411 408 103 0
410 99 408 0
410 408 411 0
102 410 411 0
412 411 103 0
407 102 411 0
407 411 412 0
26 407 412 0
414 409 27 0
413 103 409 0
413 409 414 0
105 413 414 0
416 412 103 0
415 26 412 0
415 412 416 0
104 415 416 0
417 413 105 0
416 103 413 0
416 413 417 0
104 416 417 0
1387 417 105 0
418 104 417 0
418 417 1387 0
6 418 1387 0
419 353 4 0
1388 1381 353 0
1388 353 419 0
106 1388 419 0
1389 1388 106 0
1390 1389 106 0
421 418 6 0
420 104 418 0
420 418 421 0
1391 420 421 0
422 415 104 0
1392 26 415 0
1392 415 422 0
1393 1392 422 0
1394 420 1391 0
422 104 420 0
422 420 1394 0
1393 422 1394 0
1395 406 26 0
423 101 406 0
423 406 1395 0
1396 423 1395 0
424 403 101 0
419 4 403 0
419 403 424 0
106 419 424 0
425 423 1396 0
424 101 423 0
424 423 425 0
106 424 425 0
1397 425 1396 0
1390 106 425 0
1390 425 1397 0
1395 26 1392 0
1398 421 6 0
426 1391 421 0
426 421 1398 0
1399 426 1398 0
1400 426 1399 0
1401 1391 426 0
1401 426 1400 0
428 395 1 0
427 100 395 0
427 395 428 0
108 427 428 0
430 400 100 0
429 27 400 0
429 400 430 0
107 429 430 0
431 427 108 0
430 100 427 0
430 427 431 0
107 430 431 0
433 431 108 0
432 107 431 0
432 431 433 0
28 432 433 0
435 414 27 0
434 105 414 0
434 414 435 0
1402 434 435 0
1403 1387 105 0
1404 6 1387 0
1405 434 1402 0
1403 105 434 0
1403 434 1405 0
1406 432 28 0
436 107 432 0
436 432 1406 0
1407 436 1406 0
1408 429 107 0
435 27 429 0
435 429 1408 0
1402 435 1408 0
1409 436 1407 0
1408 107 436 0
1408 436 1409 0
1410 1406 28 0
1411 1398 6 0
1411 6 1404 0
110 1412 1413 0
438 345 1372 0
437 22 345 0
437 345 438 0
109 437 438 0
439 1412 110 0
438 1372 1412 0
438 1412 439 0
109 438 439 0
441 439 110 0
440 109 439 0
440 439 441 0
30 440 441 0
443 347 22 0
442 88 347 0
442 347 443 0
112 442 443 0
445 352 88 0
444 5 352 0
444 352 445 0
111 444 445 0
446 442 112 0
445 88 442 0
445 442 446 0
111 445 446 0
448 446 112 0
447 111 446 0
447 446 448 0
29 447 448 0
450 440 30 0
449 109 440 0
449 440 450 0
113 449 450 0
451 437 109 0
443 22 437 0
443 437 451 0
112 443 451 0
452 449 113 0
451 109 449 0
451 449 452 0
112 451 452 0
453 452 113 0
448 112 452 0
448 452 453 0
29 448 453 0
455 450 30 0
454 113 450 0
454 450 455 0
115 454 455 0
457 453 113 0
456 29 453 0
456 453 457 0
114 456 457 0
458 454 115 0
457 113 454 0
457 454 458 0
114 457 458 0
460 458 115 0
459 114 458 0
459 458 460 0
8 459 460 0
462 369 5 0
461 93 369 0
461 369 462 0
117 461 462 0
464 374 93 0
463 25 374 0
463 374 464 0
116 463 464 0
465 461 117 0
464 93 461 0
464 461 465 0
116 464 465 0
467 465 117 0
466 116 465 0
466 465 467 0
32 466 467 0
469 388 25 0
468 98 388 0
468 388 469 0
119 468 469 0
471 393 98 0
470 1 393 0
470 393 471 0
118 470 471 0
472 468 119 0
471 98 468 0
471 468 472 0
118 471 472 0
474 472 119 0
473 118 472 0
473 472 474 0
31 473 474 0
476 466 32 0
475 116 466 0
475 466 476 0
120 475 476 0
477 463 116 0
469 25 463 0
469 463 477 0
119 469 477 0
478 475 120 0
477 116 475 0
477 475 478 0
119 477 478 0
479 478 120 0
474 119 478 0
474 478 479 0
31 474 479 0
481 476 32 0
480 120 476 0
480 476 481 0
122 480 481 0
483 479 120 0
482 31 479 0
482 479 483 0
121 482 483 0
484 480 122 0
483 120 480 0
483 480 484 0
121 483 484 0
486 484 122 0
485 121 484 0
485 484 486 0
7 485 486 0
488 459 8 0
487 114 459 0
487 459 488 0
124 487 488 0
490 456 114 0
489 29 456 0
489 456 490 0
123 489 490 0
491 487 124 0
490 114 487 0
490 487 491 0
123 490 491 0
493 491 124 0
492 123 491 0
492 491 493 0
33 492 493 0
495 447 29 0
494 111 447 0
494 447 495 0
125 494 495 0
496 444 111 0
462 5 444 0
462 444 496 0
117 462 496 0
497 494 125 0
496 111 494 0
496 494 497 0
117 496 497 0
498 497 125 0
467 117 497 0
467 497 498 0
32 467 498 0
500 492 33 0
499 123 492 0
499 492 500 0
126 499 500 0
501 489 123 0
495 29 489 0
495 489 501 0
125 495 501 0
502 499 126 0
501 123 499 0
501 499 502 0
125 501 502 0
503 502 126 0
498 125 502 0
498 502 503 0
32 498 503 0
505 500 33 0
504 126 500 0
504 500 505 0
127 504 505 0
506 503 126 0
481 32 503 0
481 503 506 0
122 481 506 0
507 504 127 0
506 126 504 0
506 504 507 0
122 506 507 0
508 507 127 0
486 122 507 0
486 507 508 0
7 486 508 0
510 488 8 0
509 124 488 0
509 488 510 0
129 509 510 0
512 493 124 0
511 33 493 0
511 493 512 0
128 511 512 0
513 509 129 0
512 124 509 0
512 509 513 0
128 512 513 0
515 513 129 0
514 128 513 0
514 513 515 0
35 514 515 0
517 505 33 0
516 127 505 0
516 505 517 0
131 516 517 0
519 508 127 0
518 7 508 0
518 508 519 0
130 518 519 0
520 516 131 0
519 127 516 0
519 516 520 0
130 519 520 0
522 520 131 0
521 130 520 0
521 520 522 0
34 521 522 0
524 514 35 0
523 128 514 0
523 514 524 0
132 523 524 0
525 511 128 0
517 33 511 0
517 511 525 0
131 517 525 0
526 523 132 0
525 128 523 0
525 523 526 0
131 525 526 0
527 526 132 0
522 131 526 0
522 526 527 0
34 522 527 0
529 524 35 0
528 132 524 0
528 524 529 0
134 528 529 0
531 527 132 0
530 34 527 0
530 527 531 0
133 530 531 0
532 528 134 0
531 132 528 0
531 528 532 0
133 531 532 0
534 532 134 0
533 133 532 0
533 532 534 0
2 533 534 0
536 428 1 0
535 108 428 0
535 428 536 0
136 535 536 0
538 433 108 0
537 28 433 0
537 433 538 0
135 537 538 0
539 535 136 0
538 108 535 0
538 535 539 0
135 538 539 0
541 539 136 0
540 135 539 0
540 539 541 0
37 540 541 0
542 1410 28 0
1414 1410 542 0
137 1414 542 0
1415 1414 137 0
544 1415 137 0
543 1416 1415 0
543 1415 544 0
36 543 544 0
546 540 37 0
545 135 540 0
545 540 546 0
138 545 546 0
547 537 135 0
542 28 537 0
542 537 547 0
137 542 547 0
548 545 138 0
547 135 545 0
547 545 548 0
137 547 548 0
549 548 138 0
544 137 548 0
544 548 549 0
36 544 549 0
551 546 37 0
550 138 546 0
550 546 551 0
140 550 551 0
553 549 138 0
552 36 549 0
552 549 553 0
139 552 553 0
554 550 140 0
553 138 550 0
553 550 554 0
139 553 554 0
556 554 140 0
555 139 554 0
555 554 556 0
9 555 556 0
558 555 9 0
557 139 555 0
557 555 558 0
1417 557 558 0
1418 552 139 0
1419 36 552 0
1419 552 1418 0
1420 557 1417 0
1418 139 557 0
1418 557 1420 0
1421 543 36 0
1422 1416 543 0
1422 543 1421 0
1421 36 1419 0
559 558 9 0
1423 1417 558 0
1423 558 559 0
141 1423 559 0
1424 1423 141 0
1425 1424 141 0
561 533 2 0
560 133 533 0
560 533 561 0
143 560 561 0
563 530 133 0
562 34 530 0
562 530 563 0
142 562 563 0
564 560 143 0
563 133 560 0
563 560 564 0
142 563 564 0
566 564 143 0
565 142 564 0
565 564 566 0
39 565 566 0
568 521 34 0
567 130 521 0
567 521 568 0
145 567 568 0
570 518 130 0
569 7 518 0
569 518 570 0
144 569 570 0
571 567 145 0
570 130 567 0
570 567 571 0
144 570 571 0
573 571 145 0
572 144 571 0
572 571 573 0
38 572 573 0
575 565 39 0
574 142 565 0
574 565 575 0
146 574 575 0
576 562 142 0
568 34 562 0
568 562 576 0
145 568 576 0
577 574 146 0
576 142 574 0
576 574 577 0
145 576 577 0
578 577 146 0
573 145 577 0
573 577 578 0
38 573 578 0
580 575 39 0
579 146 575 0
579 575 580 0
148 579 580 0
582 578 146 0
581 38 578 0
581 578 582 0
147 581 582 0
583 579 148 0
582 146 579 0
582 579 583 0
147 582 583 0
585 583 148 0
584 147 583 0
584 583 585 0
10 584 585 0
587 485 7 0
586 121 485 0
586 485 587 0
150 586 587 0
589 482 121 0
588 31 482 0
588 482 589 0
149 588 589 0
590 586 150 0
589 121 586 0
589 586 590 0
149 589 590 0
592 590 150 0
591 149 590 0
591 590 592 0
40 591 592 0
594 473 31 0
593 118 473 0
593 473 594 0
151 593 594 0
595 470 118 0
536 1 470 0
536 470 595 0
136 536 595 0
596 593 151 0
595 118 593 0
595 593 596 0
136 595 596 0
597 596 151 0
541 136 596 0
541 596 597 0
37 541 597 0
599 591 40 0
598 149 591 0
598 591 599 0
152 598 599 0
600 588 149 0
594 31 588 0
594 588 600 0
151 594 600 0
601 598 152 0
600 149 598 0
600 598 601 0
151 600 601 0
602 601 152 0
597 151 601 0
597 601 602 0
37 597 602 0
604 599 40 0
603 152 599 0
603 599 604 0
153 603 604 0
605 602 152 0
551 37 602 0
551 602 605 0
140 551 605 0
606 603 153 0
605 152 603 0
605 603 606 0
140 605 606 0
607 606 153 0
556 140 606 0
556 606 607 0
9 556 607 0
609 584 10 0
608 147 584 0
608 584 609 0
155 608 609 0
611 581 147 0
610 38 581 0
610 581 611 0
154 610 611 0
612 608 155 0
611 147 608 0
611 608 612 0
154 611 612 0
614 612 155 0
613 154 612 0
613 612 614 0
41 613 614 0
616 572 38 0
615 144 572 0
615 572 616 0
156 615 616 0
617 569 144 0
587 7 569 0
587 569 617 0
150 587 617 0
618 615 156 0
617 144 615 0
617 615 618 0
150 617 618 0
619 618 156 0
592 150 618 0
592 618 619 0
40 592 619 0
621 613 41 0
620 154 613 0
620 613 621 0
157 620 621 0
622 610 154 0
616 38 610 0
616 610 622 0
156 616 622 0
623 620 157 0
622 154 620 0
622 620 623 0
156 622 623 0
624 623 157 0
619 156 623 0
619 623 624 0
40 619 624 0
626 621 41 0
625 157 621 0
625 621 626 0
158 625 626 0
627 624 157 0
604 40 624 0
604 624 627 0
153 604 627 0
628 625 158 0
627 157 625 0
627 625 628 0
153 627 628 0
629 628 158 0
607 153 628 0
607 628 629 0
9 607 629 0
631 609 10 0
630 155 609 0
630 609 631 0
160 630 631 0
633 614 155 0
632 41 614 0
632 614 633 0
159 632 633 0
634 630 160 0
633 155 630 0
633 630 634 0
159 633 634 0
636 634 160 0
635 159 634 0
635 634 636 0
42 635 636 0
638 626 41 0
637 158 626 0
637 626 638 0
161 637 638 0
639 629 158 0
559 9 629 0
559 629 639 0
141 559 639 0
640 637 161 0
639 158 637 0
639 637 640 0
141 639 640 0
1426 640 161 0
1425 141 640 0
1425 640 1426 0
642 635 42 0
641 159 635 0
641 635 642 0
1427 641 642 0
643 632 159 0
638 41 632 0
638 632 643 0
161 638 643 0
644 641 1427 0
643 159 641 0
643 641 644 0
161 643 644 0
1428 644 1427 0
1426 161 644 0
1426 644 1428 0
645 642 42 0
1429 1427 642 0
1429 642 645 0
1430 1429 645 0
647 561 2 0
646 143 561 0
646 561 647 0
163 646 647 0
649 566 143 0
648 39 566 0
648 566 649 0
162 648 649 0
650 646 163 0
649 143 646 0
649 646 650 0
162 649 650 0
652 650 163 0
651 162 650 0
651 650 652 0
44 651 652 0
654 580 39 0
653 148 580 0
653 580 654 0
165 653 654 0
656 585 148 0
655 10 585 0
655 585 656 0
164 655 656 0
657 653 165 0
656 148 653 0
656 653 657 0
164 656 657 0
659 657 165 0
658 164 657 0
658 657 659 0
43 658 659 0
661 651 44 0
660 162 651 0
660 651 661 0
166 660 661 0
662 648 162 0
654 39 648 0
654 648 662 0
165 654 662 0
663 660 166 0
662 162 660 0
662 660 663 0
165 662 663 0
664 663 166 0
659 165 663 0
659 663 664 0
43 659 664 0
666 661 44 0
665 166 661 0
665 661 666 0
168 665 666 0
668 664 166 0
667 43 664 0
667 664 668 0
167 667 668 0
669 665 168 0
668 166 665 0
668 665 669 0
167 668 669 0
671 669 168 0
670 167 669 0
670 669 671 0
12 670 671 0
673 631 10 0
672 160 631 0
672 631 673 0
170 672 673 0
675 636 160 0
674 42 636 0
674 636 675 0
169 674 675 0
676 672 170 0
675 160 672 0
675 672 676 0
169 675 676 0
678 676 170 0
677 169 676 0
677 676 678 0
46 677 678 0
680 645 42 0
679 1430 645 0
679 645 680 0
171 679 680 0
681 679 171 0
1431 1430 679 0
1431 679 681 0
1432 1431 681 0
683 681 171 0
682 1432 681 0
682 681 683 0
45 682 683 0
685 677 46 0
684 169 677 0
684 677 685 0
172 684 685 0
686 674 169 0
680 42 674 0
680 674 686 0
171 680 686 0
687 684 172 0
686 169 684 0
686 684 687 0
171 686 687 0
688 687 172 0
683 171 687 0
683 687 688 0
45 683 688 0
690 685 46 0
689 172 685 0
689 685 690 0
174 689 690 0
692 688 172 0
691 45 688 0
691 688 692 0
173 691 692 0
693 689 174 0
692 172 689 0
692 689 693 0
173 692 693 0
695 693 174 0
694 173 693 0
694 693 695 0
11 694 695 0
697 670 12 0
696 167 670 0
696 670 697 0
176 696 697 0
699 667 167 0
698 43 667 0
698 667 699 0
175 698 699 0
700 696 176 0
699 167 696 0
699 696 700 0
175 699 700 0
702 700 176 0
701 175 700 0
701 700 702 0
47 701 702 0
704 658 43 0
703 164 658 0
703 658 704 0
177 703 704 0
705 655 164 0
673 10 655 0
673 655 705 0
170 673 705 0
706 703 177 0
705 164 703 0
705 703 706 0
170 705 706 0
707 706 177 0
678 170 706 0
678 706 707 0
46 678 707 0
709 701 47 0
708 175 701 0
708 701 709 0
178 708 709 0
710 698 175 0
704 43 698 0
704 698 710 0
177 704 710 0
711 708 178 0
710 175 708 0
710 708 711 0
177 710 711 0
712 711 178 0
707 177 711 0
707 711 712 0
46 707 712 0
714 709 47 0
713 178 709 0
713 709 714 0
179 713 714 0
715 712 178 0
690 46 712 0
690 712 715 0
174 690 715 0
716 713 179 0
715 178 713 0
715 713 716 0
174 715 716 0
717 716 179 0
695 174 716 0
695 716 717 0
11 695 717 0
719 697 12 0
718 176 697 0
718 697 719 0
181 718 719 0
721 702 176 0
720 47 702 0
720 702 721 0
180 720 721 0
722 718 181 0
721 176 718 0
721 718 722 0
180 721 722 0
724 722 181 0
723 180 722 0
723 722 724 0
49 723 724 0
726 714 47 0
725 179 714 0
725 714 726 0
183 725 726 0
728 717 179 0
727 11 717 0
727 717 728 0
182 727 728 0
729 725 183 0
728 179 725 0
728 725 729 0
182 728 729 0
731 729 183 0
730 182 729 0
730 729 731 0
48 730 731 0
733 723 49 0
732 180 723 0
732 723 733 0
184 732 733 0
734 720 180 0
726 47 720 0
726 720 734 0
183 726 734 0
735 732 184 0
734 180 732 0
734 732 735 0
183 734 735 0
736 735 184 0
731 183 735 0
731 735 736 0
48 731 736 0
738 733 49 0
737 184 733 0
737 733 738 0
186 737 738 0
740 736 184 0
739 48 736 0
739 736 740 0
185 739 740 0
741 737 186 0
740 184 737 0
740 737 741 0
185 740 741 0
743 741 186 0
742 185 741 0
742 741 743 0
0 742 743 0
745 742 0 0
744 185 742 0
744 742 745 0
188 744 745 0
747 739 185 0
746 48 739 0
746 739 747 0
187 746 747 0
748 744 188 0
747 185 744 0
747 744 748 0
187 747 748 0
750 748 188 0
749 187 748 0
749 748 750 0
51 749 750 0
752 730 48 0
751 182 730 0
751 730 752 0
190 751 752 0
754 727 182 0
753 11 727 0
753 727 754 0
189 753 754 0
755 751 190 0
754 182 751 0
754 751 755 0
189 754 755 0
757 755 190 0
756 189 755 0
756 755 757 0
50 756 757 0
759 749 51 0
758 187 749 0
758 749 759 0
191 758 759 0
760 746 187 0
752 48 746 0
752 746 760 0
190 752 760 0
761 758 191 0
760 187 758 0
760 758 761 0
190 760 761 0
762 761 191 0
757 190 761 0
757 761 762 0
50 757 762 0
764 759 51 0
763 191 759 0
763 759 764 0
193 763 764 0
766 762 191 0
765 50 762 0
765 762 766 0
192 765 766 0
767 763 193 0
766 191 763 0
766 763 767 0
192 766 767 0
769 767 193 0
768 192 767 0
768 767 769 0
1433 768 769 0
771 694 11 0
770 173 694 0
770 694 771 0
194 770 771 0
773 691 173 0
772 45 691 0
772 691 773 0
1434 772 773 0
774 770 194 0
773 173 770 0
773 770 774 0
1434 773 774 0
1435 774 194 0
1436 1434 774 0
1436 774 1435 0
1437 682 45 0
1438 1432 682 0
1438 682 1437 0
1439 772 1434 0
1437 45 772 0
1437 772 1439 0
1440 768 1433 0
775 192 768 0
775 768 1440 0
1441 775 1440 0
777 765 192 0
776 50 765 0
776 765 777 0
1442 776 777 0
1443 775 1441 0
777 192 775 0
777 775 1443 0
1442 777 1443 0
779 756 50 0
778 189 756 0
778 756 779 0
195 778 779 0
780 753 189 0
771 11 753 0
771 753 780 0
194 771 780 0
781 778 195 0
780 189 778 0
780 778 781 0
194 780 781 0
1444 781 195 0
1435 194 781 0
1435 781 1444 0
1445 776 1442 0
779 50 776 0
779 776 1445 0
195 779 1445 0
195 1445 1446 0
1444 195 1446 0
783 745 0 0
782 188 745 0
782 745 783 0
197 782 783 0
785 750 188 0
784 51 750 0
784 750 785 0
196 784 785 0
786 782 197 0
785 188 782 0
785 782 786 0
196 785 786 0
788 786 197 0
787 196 786 0
787 786 788 0
52 787 788 0
790 764 51 0
789 193 764 0
789 764 790 0
198 789 790 0
791 769 193 0
1447 1433 769 0
1447 769 791 0
1448 1447 791 0
792 789 198 0
791 193 789 0
791 789 792 0
1448 791 792 0
793 792 198 0
1449 1448 792 0
1449 792 793 0
1450 1449 793 0
795 787 52 0
794 196 787 0
794 787 795 0
199 794 795 0
796 784 196 0
790 51 784 0
790 784 796 0
198 790 796 0
797 794 199 0
796 196 794 0
796 794 797 0
198 796 797 0
798 797 199 0
793 198 797 0
793 797 798 0
1450 793 798 0
800 795 52 0
799 199 795 0
799 795 800 0
200 799 800 0
801 798 199 0
1451 1450 798 0
1451 798 801 0
1452 1451 801 0
802 799 200 0
801 199 799 0
801 799 802 0
1452 801 802 0
803 802 200 0
1453 1452 802 0
1453 802 803 0
1454 1453 803 0
201 1455 1456 0
1457 1455 201 0
804 1457 201 0
1458 1457 804 0
1459 1458 804 0
203 1460 1461 0
805 1462 1463 0
805 1463 1464 0
202 805 1464 0
806 1460 203 0
1464 1460 806 0
202 1464 806 0
808 806 203 0
807 202 806 0
807 806 808 0
53 807 808 0
810 1465 1466 0
809 1467 1465 0
809 1465 810 0
204 809 810 0
203 1461 1468 0
811 809 204 0
1468 1467 809 0
1468 809 811 0
203 1468 811 0
812 811 204 0
808 203 811 0
808 811 812 0
53 808 812 0
814 810 1466 0
813 204 810 0
813 810 814 0
206 813 814 0
816 812 204 0
815 53 812 0
815 812 816 0
205 815 816 0
817 813 206 0
816 204 813 0
816 813 817 0
205 816 817 0
819 817 206 0
818 205 817 0
818 817 819 0
13 818 819 0
821 1456 1462 0
820 201 1456 0
820 1456 821 0
208 820 821 0
823 804 201 0
822 1459 804 0
822 804 823 0
207 822 823 0
824 820 208 0
823 201 820 0
823 820 824 0
207 823 824 0
826 824 208 0
825 207 824 0
825 824 826 0
54 825 826 0
827 1469 1459 0
1470 1469 827 0
209 1470 827 0
110 1413 1471 0
828 1470 209 0
1471 1470 828 0
110 1471 828 0
829 828 209 0
441 110 828 0
441 828 829 0
30 441 829 0
831 825 54 0
830 207 825 0
830 825 831 0
210 830 831 0
832 822 207 0
827 1459 822 0
827 822 832 0
209 827 832 0
833 830 210 0
832 207 830 0
832 830 833 0
209 832 833 0
834 833 210 0
829 209 833 0
829 833 834 0
30 829 834 0
836 831 54 0
835 210 831 0
835 831 836 0
211 835 836 0
837 834 210 0
455 30 834 0
455 834 837 0
115 455 837 0
838 835 211 0
837 210 835 0
837 835 838 0
115 837 838 0
839 838 211 0
460 115 838 0
460 838 839 0
8 460 839 0
841 818 13 0
840 205 818 0
840 818 841 0
213 840 841 0
843 815 205 0
842 53 815 0
842 815 843 0
212 842 843 0
844 840 213 0
843 205 840 0
843 840 844 0
212 843 844 0
846 844 213 0
845 212 844 0
845 844 846 0
55 845 846 0
848 807 53 0
847 202 807 0
847 807 848 0
214 847 848 0
849 805 202 0
821 1462 805 0
821 805 849 0
208 821 849 0
850 847 214 0
849 202 847 0
849 847 850 0
208 849 850 0
851 850 214 0
826 208 850 0
826 850 851 0
54 826 851 0
853 845 55 0
852 212 845 0
852 845 853 0
215 852 853 0
854 842 212 0
848 53 842 0
848 842 854 0
214 848 854 0
855 852 215 0
854 212 852 0
854 852 855 0
214 854 855 0
856 855 215 0
851 214 855 0
851 855 856 0
54 851 856 0
858 853 55 0
857 215 853 0
857 853 858 0
216 857 858 0
859 856 215 0
836 54 856 0
836 856 859 0
211 836 859 0
860 857 216 0
859 215 857 0
859 857 860 0
211 859 860 0
861 860 216 0
839 211 860 0
839 860 861 0
8 839 861 0
863 841 13 0
862 213 841 0
862 841 863 0
218 862 863 0
865 846 213 0
864 55 846 0
864 846 865 0
217 864 865 0
866 862 218 0
865 213 862 0
865 862 866 0
217 865 866 0
868 866 218 0
867 217 866 0
867 866 868 0
56 867 868 0
870 858 55 0
869 216 858 0
869 858 870 0
219 869 870 0
871 861 216 0
510 8 861 0
510 861 871 0
129 510 871 0
872 869 219 0
871 216 869 0
871 869 872 0
129 871 872 0
873 872 219 0
515 129 872 0
515 872 873 0
35 515 873 0
875 867 56 0
874 217 867 0
874 867 875 0
220 874 875 0
876 864 217 0
870 55 864 0
870 864 876 0
219 870 876 0
877 874 220 0
876 217 874 0
876 874 877 0
219 876 877 0
878 877 220 0
873 219 877 0
873 877 878 0
35 873 878 0
880 875 56 0
879 220 875 0
879 875 880 0
221 879 880 0
881 878 220 0
529 35 878 0
529 878 881 0
134 529 881 0
882 879 221 0
881 220 879 0
881 879 882 0
134 881 882 0
883 882 221 0
534 134 882 0
534 882 883 0
2 534 883 0
884 1472 1473 0
1474 1472 884 0
58 1474 884 0
57 1475 1476 0
886 1474 58 0
885 1477 1474 0
885 1474 886 0
222 885 886 0
1478 885 222 0
1479 1477 885 0
1479 885 1478 0
887 1478 222 0
1476 1478 887 0
57 1476 887 0
889 886 58 0
888 222 886 0
888 886 889 0
224 888 889 0
891 887 222 0
890 57 887 0
890 887 891 0
223 890 891 0
892 888 224 0
891 222 888 0
891 888 892 0
223 891 892 0
894 892 224 0
893 223 892 0
893 892 894 0
14 893 894 0
895 1480 1481 0
895 1481 1482 0
59 895 1482 0
897 895 59 0
896 1480 895 0
896 895 897 0
225 896 897 0
1483 896 225 0
1484 1480 896 0
1484 896 1483 0
898 1483 225 0
1485 1483 898 0
1466 1485 898 0
900 897 59 0
899 225 897 0
899 897 900 0
226 899 900 0
901 898 225 0
814 1466 898 0
814 898 901 0
206 814 901 0
902 899 226 0
901 225 899 0
901 899 902 0
206 901 902 0
903 902 226 0
819 206 902 0
819 902 903 0
13 819 903 0
905 893 14 0
904 223 893 0
904 893 905 0
228 904 905 0
907 890 223 0
906 57 890 0
906 890 907 0
227 906 907 0
908 904 228 0
907 223 904 0
907 904 908 0
227 907 908 0
910 908 228 0
909 227 908 0
909 908 910 0
60 909 910 0
912 1475 57 0
911 1486 1475 0
911 1475 912 0
229 911 912 0
1487 911 229 0
1488 1486 911 0
1488 911 1487 0
913 1487 229 0
1482 1487 913 0
59 1482 913 0
915 909 60 0
914 227 909 0
914 909 915 0
230 914 915 0
916 906 227 0
912 57 906 0
912 906 916 0
229 912 916 0
917 914 230 0
916 227 914 0
916 914 917 0
229 916 917 0
918 917 230 0
913 229 917 0
913 917 918 0
59 913 918 0
920 915 60 0
919 230 915 0
919 915 920 0
231 919 920 0
921 918 230 0
900 59 918 0
900 918 921 0
226 900 921 0
922 919 231 0
921 230 919 0
921 919 922 0
226 921 922 0
923 922 231 0
903 226 922 0
903 922 923 0
13 903 923 0
925 905 14 0
924 228 905 0
924 905 925 0
233 924 925 0
927 910 228 0
926 60 910 0
926 910 927 0
232 926 927 0
928 924 233 0
927 228 924 0
927 924 928 0
232 927 928 0
930 928 233 0
929 232 928 0
929 928 930 0
61 929 930 0
932 920 60 0
931 231 920 0
931 920 932 0
234 931 932 0
933 923 231 0
863 13 923 0
863 923 933 0
218 863 933 0
934 931 234 0
933 231 931 0
933 931 934 0
218 933 934 0
935 934 234 0
868 218 934 0
868 934 935 0
56 868 935 0
937 929 61 0
936 232 929 0
936 929 937 0
235 936 937 0
938 926 232 0
932 60 926 0
932 926 938 0
234 932 938 0
939 936 235 0
938 232 936 0
938 936 939 0
234 938 939 0
940 939 235 0
935 234 939 0
935 939 940 0
56 935 940 0
942 937 61 0
941 235 937 0
941 937 942 0
236 941 942 0
943 940 235 0
880 56 940 0
880 940 943 0
221 880 943 0
944 941 236 0
943 235 941 0
943 941 944 0
221 943 944 0
945 944 236 0
883 221 944 0
883 944 945 0
2 883 945 0
238 1489 1490 0
947 884 1473 0
946 58 884 0
946 884 947 0
237 946 947 0
948 1489 238 0
947 1473 1489 0
947 1489 948 0
237 947 948 0
950 948 238 0
949 237 948 0
949 948 950 0
63 949 950 0
952 889 58 0
951 224 889 0
951 889 952 0
240 951 952 0
954 894 224 0
953 14 894 0
953 894 954 0
239 953 954 0
955 951 240 0
954 224 951 0
954 951 955 0
239 954 955 0
957 955 240 0
956 239 955 0
956 955 957 0
62 956 957 0
959 949 63 0
958 237 949 0
958 949 959 0
241 958 959 0
960 946 237 0
952 58 946 0
952 946 960 0
240 952 960 0
961 958 241 0
960 237 958 0
960 958 961 0
240 960 961 0
962 961 241 0
957 240 961 0
957 961 962 0
62 957 962 0
964 959 63 0
963 241 959 0
963 959 964 0
243 963 964 0
966 962 241 0
965 62 962 0
965 962 966 0
242 965 966 0
967 963 243 0
966 241 963 0
966 963 967 0
242 966 967 0
969 967 243 0
968 242 967 0
968 967 969 0
15 968 969 0
971 925 14 0
970 233 925 0
970 925 971 0
245 970 971 0
973 930 233 0
972 61 930 0
972 930 973 0
244 972 973 0
974 970 245 0
973 233 970 0
973 970 974 0
244 973 974 0
976 974 245 0
975 244 974 0
975 974 976 0
64 975 976 0
978 942 61 0
977 236 942 0
977 942 978 0
246 977 978 0
979 945 236 0
647 2 945 0
647 945 979 0
163 647 979 0
980 977 246 0
979 236 977 0
979 977 980 0
163 979 980 0
981 980 246 0
652 163 980 0
652 980 981 0
44 652 981 0
983 975 64 0
982 244 975 0
982 975 983 0
247 982 983 0
984 972 244 0
978 61 972 0
978 972 984 0
246 978 984 0
985 982 247 0
984 244 982 0
984 982 985 0
246 984 985 0
986 985 247 0
981 246 985 0
981 985 986 0
44 981 986 0
988 983 64 0
987 247 983 0
987 983 988 0
248 987 988 0
989 986 247 0
666 44 986 0
666 986 989 0
168 666 989 0
990 987 248 0
989 247 987 0
989 987 990 0
168 989 990 0
991 990 248 0
671 168 990 0
671 990 991 0
12 671 991 0
993 968 15 0
992 242 968 0
992 968 993 0
250 992 993 0
995 965 242 0
994 62 965 0
994 965 995 0
249 994 995 0
996 992 250 0
995 242 992 0
995 992 996 0
249 995 996 0
998 996 250 0
997 249 996 0
997 996 998 0
65 997 998 0
1000 956 62 0
999 239 956 0
999 956 1000 0
251 999 1000 0
1001 953 239 0
971 14 953 0
971 953 1001 0
245 971 1001 0
1002 999 251 0
1001 239 999 0
1001 999 1002 0
245 1001 1002 0
1003 1002 251 0
976 245 1002 0
976 1002 1003 0
64 976 1003 0
1005 997 65 0
1004 249 997 0
1004 997 1005 0
252 1004 1005 0
1006 994 249 0
1000 62 994 0
1000 994 1006 0
251 1000 1006 0
1007 1004 252 0
1006 249 1004 0
1006 1004 1007 0
251 1006 1007 0
1008 1007 252 0
1003 251 1007 0
1003 1007 1008 0
64 1003 1008 0
1010 1005 65 0
1009 252 1005 0
1009 1005 1010 0
253 1009 1010 0
1011 1008 252 0
988 64 1008 0
988 1008 1011 0
248 988 1011 0
1012 1009 253 0
1011 252 1009 0
1011 1009 1012 0
248 1011 1012 0
1013 1012 253 0
991 248 1012 0
991 1012 1013 0
12 991 1013 0
1015 993 15 0
1014 250 993 0
1014 993 1015 0
255 1014 1015 0
1017 998 250 0
1016 65 998 0
1016 998 1017 0
254 1016 1017 0
1018 1014 255 0
1017 250 1014 0
1017 1014 1018 0
254 1017 1018 0
1020 1018 255 0
1019 254 1018 0
1019 1018 1020 0
66 1019 1020 0
1022 1010 65 0
1021 253 1010 0
1021 1010 1022 0
256 1021 1022 0
1023 1013 253 0
719 12 1013 0
719 1013 1023 0
181 719 1023 0
1024 1021 256 0
1023 253 1021 0
1023 1021 1024 0
181 1023 1024 0
1025 1024 256 0
724 181 1024 0
724 1024 1025 0
49 724 1025 0
1027 1019 66 0
1026 254 1019 0
1026 1019 1027 0
257 1026 1027 0
1028 1016 254 0
1022 65 1016 0
1022 1016 1028 0
256 1022 1028 0
1029 1026 257 0
1028 254 1026 0
1028 1026 1029 0
256 1028 1029 0
1030 1029 257 0
1025 256 1029 0
1025 1029 1030 0
49 1025 1030 0
1032 1027 66 0
1031 257 1027 0
1031 1027 1032 0
258 1031 1032 0
1033 1030 257 0
738 49 1030 0
738 1030 1033 0
186 738 1033 0
1034 1031 258 0
1033 257 1031 0
1033 1031 1034 0
186 1033 1034 0
1035 1034 258 0
743 186 1034 0
743 1034 1035 0
0 743 1035 0
259 1491 1492 0
1493 1491 259 0
1037 1493 259 0
1036 1494 1493 0
1036 1493 1037 0
16 1036 1037 0
1038 1036 16 0
1495 1494 1036 0
1495 1036 1038 0
260 1495 1038 0
1496 1495 260 0
1497 1496 260 0
1040 1038 16 0
1039 260 1038 0
1039 1038 1040 0
262 1039 1040 0
1042 1497 260 0
1041 1498 1497 0
1041 1497 1042 0
261 1041 1042 0
1043 1039 262 0
1042 260 1039 0
1042 1039 1043 0
261 1042 1043 0
1045 1043 262 0
1044 261 1043 0
1044 1043 1045 0
68 1044 1045 0
1046 1499 1498 0
1500 1499 1046 0
264 1500 1046 0
263 1501 1502 0
1047 1500 264 0
1502 1500 1047 0
263 1502 1047 0
1049 1047 264 0
1048 263 1047 0
1048 1047 1049 0
67 1048 1049 0
1051 1044 68 0
1050 261 1044 0
1050 1044 1051 0
265 1050 1051 0
1052 1041 261 0
1046 1498 1041 0
1046 1041 1052 0
264 1046 1052 0
1053 1050 265 0
1052 261 1050 0
1052 1050 1053 0
264 1052 1053 0
1054 1053 265 0
1049 264 1053 0
1049 1053 1054 0
67 1049 1054 0
1056 1051 68 0
1055 265 1051 0
1055 1051 1056 0
267 1055 1056 0
1058 1054 265 0
1057 67 1054 0
1057 1054 1058 0
266 1057 1058 0
1059 1055 267 0
1058 265 1055 0
1058 1055 1059 0
266 1058 1059 0
1061 1059 267 0
1060 266 1059 0
1060 1059 1061 0
3 1060 1061 0
1063 1060 3 0
1062 266 1060 0
1062 1060 1063 0
269 1062 1063 0
1065 1057 266 0
1064 67 1057 0
1064 1057 1065 0
268 1064 1065 0
1066 1062 269 0
1065 266 1062 0
1065 1062 1066 0
268 1065 1066 0
1068 1066 269 0
1067 268 1066 0
1067 1066 1068 0
70 1067 1068 0
1070 1048 67 0
1069 263 1048 0
1069 1048 1070 0
270 1069 1070 0
1503 1501 263 0
1071 1069 270 0
1503 263 1069 0
1503 1069 1071 0
1504 1503 1071 0
1072 1071 270 0
1505 1504 1071 0
1505 1071 1072 0
69 1505 1072 0
1074 1067 70 0
1073 268 1067 0
1073 1067 1074 0
271 1073 1074 0
1075 1064 268 0
1070 67 1064 0
1070 1064 1075 0
270 1070 1075 0
1076 1073 271 0
1075 268 1073 0
1075 1073 1076 0
270 1075 1076 0
1077 1076 271 0
1072 270 1076 0
1072 1076 1077 0
69 1072 1077 0
1079 1074 70 0
1078 271 1074 0
1078 1074 1079 0
273 1078 1079 0
1081 1077 271 0
1080 69 1077 0
1080 1077 1081 0
272 1080 1081 0
1082 1078 273 0
1081 271 1078 0
1081 1078 1082 0
272 1081 1082 0
1084 1082 273 0
1083 272 1082 0
1083 1082 1084 0
17 1083 1084 0
1086 1083 17 0
1085 272 1083 0
1085 1083 1086 0
1506 1085 1086 0
1507 1080 272 0
1508 69 1080 0
1508 1080 1507 0
1509 1085 1506 0
1507 272 1085 0
1507 1085 1509 0
1510 1505 69 0
1510 69 1508 0
1088 1086 17 0
1087 1506 1086 0
1087 1086 1088 0
274 1087 1088 0
1511 1087 274 0
1512 1506 1087 0
1512 1087 1511 0
1089 1511 274 0
1513 1511 1089 0
1514 1513 1089 0
1091 1063 3 0
1090 269 1063 0
1090 1063 1091 0
276 1090 1091 0
1093 1068 269 0
1092 70 1068 0
1092 1068 1093 0
275 1092 1093 0
1094 1090 276 0
1093 269 1090 0
1093 1090 1094 0
275 1093 1094 0
1096 1094 276 0
1095 275 1094 0
1095 1094 1096 0
72 1095 1096 0
1098 1079 70 0
1097 273 1079 0
1097 1079 1098 0
278 1097 1098 0
1100 1084 273 0
1099 17 1084 0
1099 1084 1100 0
277 1099 1100 0
1101 1097 278 0
1100 273 1097 0
1100 1097 1101 0
277 1100 1101 0
1103 1101 278 0
1102 277 1101 0
1102 1101 1103 0
71 1102 1103 0
1105 1095 72 0
1104 275 1095 0
1104 1095 1105 0
279 1104 1105 0
1106 1092 275 0
1098 70 1092 0
1098 1092 1106 0
278 1098 1106 0
1107 1104 279 0
1106 275 1104 0
1106 1104 1107 0
278 1106 1107 0
1108 1107 279 0
1103 278 1107 0
1103 1107 1108 0
71 1103 1108 0
1110 1105 72 0
1109 279 1105 0
1109 1105 1110 0
281 1109 1110 0
1112 1108 279 0
1111 71 1108 0
1111 1108 1112 0
280 1111 1112 0
1113 1109 281 0
1112 279 1109 0
1112 1109 1113 0
280 1112 1113 0
1115 1113 281 0
1114 280 1113 0
1114 1113 1115 0
18 1114 1115 0
1117 1088 17 0
1116 274 1088 0
1116 1088 1117 0
283 1116 1117 0
1119 1089 274 0
1118 1514 1089 0
1118 1089 1119 0
282 1118 1119 0
1120 1116 283 0
1119 274 1116 0
1119 1116 1120 0
282 1119 1120 0
1122 1120 283 0
1121 282 1120 0
1121 1120 1122 0
73 1121 1122 0
1123 1515 1514 0
1516 1515 1123 0
284 1516 1123 0
238 1490 1517 0
1124 1516 284 0
1517 1516 1124 0
238 1517 1124 0
1125 1124 284 0
950 238 1124 0
950 1124 1125 0
63 950 1125 0
1127 1121 73 0
1126 282 1121 0
1126 1121 1127 0
285 1126 1127 0
1128 1118 282 0
1123 1514 1118 0
1123 1118 1128 0
284 1123 1128 0
1129 1126 285 0
1128 282 1126 0
1128 1126 1129 0
284 1128 1129 0
1130 1129 285 0
1125 284 1129 0
1125 1129 1130 0
63 1125 1130 0
1132 1127 73 0
1131 285 1127 0
1131 1127 1132 0
286 1131 1132 0
1133 1130 285 0
964 63 1130 0
964 1130 1133 0
243 964 1133 0
1134 1131 286 0
1133 285 1131 0
1133 1131 1134 0
243 1133 1134 0
1135 1134 286 0
969 243 1134 0
969 1134 1135 0
15 969 1135 0
1137 1114 18 0
1136 280 1114 0
1136 1114 1137 0
288 1136 1137 0
1139 1111 280 0
1138 71 1111 0
1138 1111 1139 0
287 1138 1139 0
1140 1136 288 0
1139 280 1136 0
1139 1136 1140 0
287 1139 1140 0
1142 1140 288 0
1141 287 1140 0
1141 1140 1142 0
74 1141 1142 0
1144 1102 71 0
1143 277 1102 0
1143 1102 1144 0
289 1143 1144 0
1145 1099 277 0
1117 17 1099 0
1117 1099 1145 0
283 1117 1145 0
1146 1143 289 0
1145 277 1143 0
1145 1143 1146 0
283 1145 1146 0
1147 1146 289 0
1122 283 1146 0
1122 1146 1147 0
73 1122 1147 0
1149 1141 74 0
1148 287 1141 0
1148 1141 1149 0
290 1148 1149 0
1150 1138 287 0
1144 71 1138 0
1144 1138 1150 0
289 1144 1150 0
1151 1148 290 0
1150 287 1148 0
1150 1148 1151 0
289 1150 1151 0
1152 1151 290 0
1147 289 1151 0
1147 1151 1152 0
73 1147 1152 0
1154 1149 74 0
1153 290 1149 0
1153 1149 1154 0
291 1153 1154 0
1155 1152 290 0
1132 73 1152 0
1132 1152 1155 0
286 1132 1155 0
1156 1153 291 0
1155 290 1153 0
1155 1153 1156 0
286 1155 1156 0
1157 1156 291 0
1135 286 1156 0
1135 1156 1157 0
15 1135 1157 0
1159 1137 18 0
1158 288 1137 0
1158 1137 1159 0
293 1158 1159 0
1161 1142 288 0
1160 74 1142 0
1160 1142 1161 0
292 1160 1161 0
1162 1158 293 0
1161 288 1158 0
1161 1158 1162 0
292 1161 1162 0
1164 1162 293 0
1163 292 1162 0
1163 1162 1164 0
75 1163 1164 0
1166 1154 74 0
1165 291 1154 0
1165 1154 1166 0
294 1165 1166 0
1167 1157 291 0
1015 15 1157 0
1015 1157 1167 0
255 1015 1167 0
1168 1165 294 0
1167 291 1165 0
1167 1165 1168 0
255 1167 1168 0
1169 1168 294 0
1020 255 1168 0
1020 1168 1169 0
66 1020 1169 0
1171 1163 75 0
1170 292 1163 0
1170 1163 1171 0
295 1170 1171 0
1172 1160 292 0
1166 74 1160 0
1166 1160 1172 0
294 1166 1172 0
1173 1170 295 0
1172 292 1170 0
1172 1170 1173 0
294 1172 1173 0
1174 1173 295 0
1169 294 1173 0
1169 1173 1174 0
66 1169 1174 0
1176 1171 75 0
1175 295 1171 0
1175 1171 1176 0
296 1175 1176 0
1177 1174 295 0
1032 66 1174 0
1032 1174 1177 0
258 1032 1177 0
1178 1175 296 0
1177 295 1175 0
1177 1175 1178 0
258 1177 1178 0
1179 1178 296 0
1035 258 1178 0
1035 1178 1179 0
0 1035 1179 0
77 1518 1519 0
1180 259 1492 0
1180 1492 1520 0
298 1180 1520 0
1182 1037 259 0
1181 16 1037 0
1181 1037 1182 0
297 1181 1182 0
1183 1180 298 0
1182 259 1180 0
1182 1180 1183 0
297 1182 1183 0
1185 1183 298 0
1184 297 1183 0
1184 1183 1185 0
76 1184 1185 0
1187 1518 77 0
1186 1521 1518 0
1186 1518 1187 0
299 1186 1187 0
298 1520 1522 0
1188 1186 299 0
1522 1521 1186 0
1522 1186 1188 0
298 1522 1188 0
1189 1188 299 0
1185 298 1188 0
1185 1188 1189 0
76 1185 1189 0
1191 1187 77 0
1190 299 1187 0
1190 1187 1191 0
301 1190 1191 0
1193 1189 299 0
1192 76 1189 0
1192 1189 1193 0
300 1192 1193 0
1194 1190 301 0
1193 299 1190 0
1193 1190 1194 0
300 1193 1194 0
1196 1194 301 0
1195 300 1194 0
1195 1194 1196 0
20 1195 1196 0
1198 1040 16 0
1197 262 1040 0
1197 1040 1198 0
303 1197 1198 0
1200 1045 262 0
1199 68 1045 0
1199 1045 1200 0
302 1199 1200 0
1201 1197 303 0
1200 262 1197 0
1200 1197 1201 0
302 1200 1201 0
1203 1201 303 0
1202 302 1201 0
1202 1201 1203 0
79 1202 1203 0
1205 1056 68 0
1204 267 1056 0
1204 1056 1205 0
305 1204 1205 0
1207 1061 267 0
1206 3 1061 0
1206 1061 1207 0
304 1206 1207 0
1208 1204 305 0
1207 267 1204 0
1207 1204 1208 0
304 1207 1208 0
1210 1208 305 0
1209 304 1208 0
1209 1208 1210 0
78 1209 1210 0
1212 1202 79 0
1211 302 1202 0
1211 1202 1212 0
306 1211 1212 0
1213 1199 302 0
1205 68 1199 0
1205 1199 1213 0
305 1205 1213 0
1214 1211 306 0
1213 302 1211 0
1213 1211 1214 0
305 1213 1214 0
1215 1214 306 0
1210 305 1214 0
1210 1214 1215 0
78 1210 1215 0
1217 1212 79 0
1216 306 1212 0
1216 1212 1217 0
308 1216 1217 0
1219 1215 306 0
1218 78 1215 0
1218 1215 1219 0
307 1218 1219 0
1220 1216 308 0
1219 306 1216 0
1219 1216 1220 0
307 1219 1220 0
1222 1220 308 0
1221 307 1220 0
1221 1220 1222 0
19 1221 1222 0
1224 1195 20 0
1223 300 1195 0
1223 1195 1224 0
310 1223 1224 0
1226 1192 300 0
1225 76 1192 0
1225 1192 1226 0
309 1225 1226 0
1227 1223 310 0
1226 300 1223 0
1226 1223 1227 0
309 1226 1227 0
1229 1227 310 0
1228 309 1227 0
1228 1227 1229 0
80 1228 1229 0
1231 1184 76 0
1230 297 1184 0
1230 1184 1231 0
311 1230 1231 0
1232 1181 297 0
1198 16 1181 0
1198 1181 1232 0
303 1198 1232 0
1233 1230 311 0
1232 297 1230 0
1232 1230 1233 0
303 1232 1233 0
1234 1233 311 0
1203 303 1233 0
1203 1233 1234 0
79 1203 1234 0
1236 1228 80 0
1235 309 1228 0
1235 1228 1236 0
312 1235 1236 0
1237 1225 309 0
1231 76 1225 0
1231 1225 1237 0
311 1231 1237 0
1238 1235 312 0
1237 309 1235 0
1237 1235 1238 0
311 1237 1238 0
1239 1238 312 0
1234 311 1238 0
1234 1238 1239 0
79 1234 1239 0
1241 1236 80 0
1240 312 1236 0
1240 1236 1241 0
313 1240 1241 0
1242 1239 312 0
1217 79 1239 0
1217 1239 1242 0
308 1217 1242 0
1243 1240 313 0
1242 312 1240 0
1242 1240 1243 0
308 1242 1243 0
1244 1243 313 0
1222 308 1243 0
1222 1243 1244 0
19 1222 1244 0
1246 1224 20 0
1245 310 1224 0
1245 1224 1246 0
315 1245 1246 0
1248 1229 310 0
1247 80 1229 0
1247 1229 1248 0
314 1247 1248 0
1523 1245 315 0
1248 310 1245 0
1248 1245 1523 0
314 1248 1523 0
1524 1523 315 0
1525 314 1523 0
1250 1241 80 0
1249 313 1241 0
1249 1241 1250 0
317 1249 1250 0
1252 1244 313 0
1251 19 1244 0
1251 1244 1252 0
316 1251 1252 0
1253 1249 317 0
1252 313 1249 0
1252 1249 1253 0
316 1252 1253 0
1526 1253 317 0
1254 316 1253 0
1254 1253 1526 0
1527 1254 1526 0
1528 314 1525 0
1255 1247 314 0
1250 80 1247 0
1250 1247 1255 0
317 1250 1255 0
1255 314 1528 0
1255 1528 1529 0
317 1255 1529 0
1526 317 1529 0
1257 1091 3 0
1256 276 1091 0
1256 1091 1257 0
319 1256 1257 0
1259 1096 276 0
1258 72 1096 0
1258 1096 1259 0
318 1258 1259 0
1260 1256 319 0
1259 276 1256 0
1259 1256 1260 0
318 1259 1260 0
1262 1260 319 0
1261 318 1260 0
1261 1260 1262 0
82 1261 1262 0
1264 1110 72 0
1263 281 1110 0
1263 1110 1264 0
321 1263 1264 0
1266 1115 281 0
1265 18 1115 0
1265 1115 1266 0
320 1265 1266 0
1267 1263 321 0
1266 281 1263 0
1266 1263 1267 0
320 1266 1267 0
1269 1267 321 0
1268 320 1267 0
1268 1267 1269 0
81 1268 1269 0
1271 1261 82 0
1270 318 1261 0
1270 1261 1271 0
322 1270 1271 0
1272 1258 318 0
1264 72 1258 0
1264 1258 1272 0
321 1264 1272 0
1273 1270 322 0
1272 318 1270 0
1272 1270 1273 0
321 1272 1273 0
1274 1273 322 0
