#!ascii - generated by CreateLabelFiles project 
2563 4915
868 865 869 0
219 868 869 0
870 866 220 0
869 218 866 0
869 866 870 0
219 869 870 0
872 870 220 0
871 219 870 0
871 870 872 0
15 871 872 0
874 871 15 0
873 219 871 0
873 871 874 0
222 873 874 0
876 868 219 0
875 53 868 0
875 868 876 0
221 875 876 0
877 873 222 0
876 219 873 0
876 873 877 0
221 876 877 0
879 877 222 0
878 221 877 0
878 877 879 0
2409 878 879 0
2410 859 53 0
2411 2408 859 0
2411 859 2410 0
2412 878 2409 0
2413 221 878 0
2413 878 2412 0
2414 875 221 0
2410 53 875 0
2410 875 2414 0
2414 221 2413 0
881 874 15 0
880 222 874 0
880 874 881 0
224 880 881 0
883 879 222 0
882 2409 879 0
882 879 883 0
223 882 883 0
884 880 224 0
883 222 880 0
883 880 884 0
223 883 884 0
886 884 224 0
885 223 884 0
885 884 886 0
55 885 886 0
888 885 55 0
887 223 885 0
887 885 888 0
225 887 888 0
2415 882 223 0
2416 2409 882 0
2416 882 2415 0
2417 887 225 0
2415 223 887 0
2415 887 2417 0
2418 2417 225 0
890 888 55 0
889 225 888 0
889 888 890 0
226 889 890 0
891 2418 225 0
2388 2418 891 0
169 2388 891 0
892 889 226 0
891 225 889 0
891 889 892 0
169 891 892 0
893 892 226 0
678 169 892 0
678 892 893 0
4 678 893 0
895 847 5 0
894 213 847 0
894 847 895 0
228 894 895 0
897 844 213 0
896 51 844 0
896 844 897 0
227 896 897 0
898 894 228 0
897 213 894 0
897 894 898 0
227 897 898 0
900 898 228 0
899 227 898 0
899 898 900 0
57 899 900 0
902 835 51 0
901 210 835 0
901 835 902 0
230 901 902 0
904 832 210 0
903 13 832 0
903 832 904 0
229 903 904 0
905 901 230 0
904 210 901 0
904 901 905 0
229 904 905 0
907 905 230 0
906 229 905 0
906 905 907 0
56 906 907 0
909 899 57 0
908 227 899 0
908 899 909 0
231 908 909 0
910 896 227 0
902 51 896 0
902 896 910 0
230 902 910 0
911 908 231 0
910 227 908 0
910 908 911 0
230 910 911 0
912 911 231 0
907 230 911 0
907 911 912 0
56 907 912 0
914 909 57 0
913 231 909 0
913 909 914 0
233 913 914 0
916 912 231 0
915 56 912 0
915 912 916 0
232 915 916 0
917 913 233 0
916 231 913 0
916 913 917 0
232 916 917 0
919 917 233 0
918 232 917 0
918 917 919 0
16 918 919 0
921 799 13 0
920 201 799 0
920 799 921 0
235 920 921 0
923 796 201 0
922 48 796 0
922 796 923 0
234 922 923 0
924 920 235 0
923 201 920 0
923 920 924 0
234 923 924 0
926 924 235 0
925 234 924 0
925 924 926 0
58 925 926 0
928 787 48 0
927 198 787 0
927 787 928 0
236 927 928 0
929 784 198 0
850 3 784 0
850 784 929 0
216 850 929 0
930 927 236 0
929 198 927 0
929 927 930 0
216 929 930 0
931 930 236 0
855 216 930 0
855 930 931 0
54 855 931 0
933 925 58 0
932 234 925 0
932 925 933 0
237 932 933 0
934 922 234 0
928 48 922 0
928 922 934 0
236 928 934 0
935 932 237 0
934 234 932 0
934 932 935 0
236 934 935 0
936 935 237 0
931 236 935 0
931 935 936 0
54 931 936 0
938 933 58 0
937 237 933 0
937 933 938 0
238 937 938 0
939 936 237 0
867 54 936 0
867 936 939 0
220 867 939 0
940 937 238 0
939 237 937 0
939 937 940 0
220 939 940 0
941 940 238 0
872 220 940 0
872 940 941 0
15 872 941 0
943 918 16 0
942 232 918 0
942 918 943 0
240 942 943 0
945 915 232 0
944 56 915 0
944 915 945 0
239 944 945 0
946 942 240 0
945 232 942 0
945 942 946 0
239 945 946 0
948 946 240 0
947 239 946 0
947 946 948 0
59 947 948 0
950 906 56 0
949 229 906 0
949 906 950 0
241 949 950 0
951 903 229 0
921 13 903 0
921 903 951 0
235 921 951 0
952 949 241 0
951 229 949 0
951 949 952 0
235 951 952 0
953 952 241 0
926 235 952 0
926 952 953 0
58 926 953 0
955 947 59 0
954 239 947 0
954 947 955 0
242 954 955 0
956 944 239 0
950 56 944 0
950 944 956 0
241 950 956 0
957 954 242 0
956 239 954 0
956 954 957 0
241 956 957 0
958 957 242 0
953 241 957 0
953 957 958 0
58 953 958 0
960 955 59 0
959 242 955 0
959 955 960 0
243 959 960 0
961 958 242 0
938 58 958 0
938 958 961 0
238 938 961 0
962 959 243 0
961 242 959 0
961 959 962 0
238 961 962 0
963 962 243 0
941 238 962 0
941 962 963 0
15 941 963 0
965 943 16 0
964 240 943 0
964 943 965 0
245 964 965 0
967 948 240 0
966 59 948 0
966 948 967 0
244 966 967 0
968 964 245 0
967 240 964 0
967 964 968 0
244 967 968 0
970 968 245 0
969 244 968 0
969 968 970 0
60 969 970 0
972 960 59 0
971 243 960 0
971 960 972 0
246 971 972 0
973 963 243 0
881 15 963 0
881 963 973 0
224 881 973 0
974 971 246 0
973 243 971 0
973 971 974 0
224 973 974 0
975 974 246 0
886 224 974 0
886 974 975 0
55 886 975 0
977 969 60 0
976 244 969 0
976 969 977 0
247 976 977 0
978 966 244 0
972 59 966 0
972 966 978 0
246 972 978 0
979 976 247 0
978 244 976 0
978 976 979 0
246 978 979 0
980 979 247 0
975 246 979 0
975 979 980 0
55 975 980 0
982 977 60 0
981 247 977 0
981 977 982 0
248 981 982 0
983 980 247 0
890 55 980 0
890 980 983 0
226 890 983 0
984 981 248 0
983 247 981 0
983 981 984 0
226 983 984 0
985 984 248 0
893 226 984 0
893 984 985 0
4 893 985 0
987 895 5 0
986 228 895 0
986 895 987 0
250 986 987 0
989 900 228 0
988 57 900 0
988 900 989 0
249 988 989 0
990 986 250 0
989 228 986 0
989 986 990 0
249 989 990 0
992 990 250 0
991 249 990 0
991 990 992 0
62 991 992 0
994 914 57 0
993 233 914 0
993 914 994 0
252 993 994 0
996 919 233 0
995 16 919 0
995 919 996 0
251 995 996 0
997 993 252 0
996 233 993 0
996 993 997 0
251 996 997 0
999 997 252 0
998 251 997 0
998 997 999 0
61 998 999 0
1001 991 62 0
1000 249 991 0
1000 991 1001 0
253 1000 1001 0
1002 988 249 0
994 57 988 0
994 988 1002 0
252 994 1002 0
1003 1000 253 0
1002 249 1000 0
1002 1000 1003 0
252 1002 1003 0
1004 1003 253 0
999 252 1003 0
999 1003 1004 0
61 999 1004 0
1006 1001 62 0
1005 253 1001 0
1005 1001 1006 0
255 1005 1006 0
1008 1004 253 0
1007 61 1004 0
1007 1004 1008 0
254 1007 1008 0
1009 1005 255 0
1008 253 1005 0
1008 1005 1009 0
254 1008 1009 0
1011 1009 255 0
1010 254 1009 0
1010 1009 1011 0
17 1010 1011 0
1013 965 16 0
1012 245 965 0
1012 965 1013 0
257 1012 1013 0
1015 970 245 0
1014 60 970 0
1014 970 1015 0
256 1014 1015 0
1016 1012 257 0
1015 245 1012 0
1015 1012 1016 0
256 1015 1016 0
1018 1016 257 0
1017 256 1016 0
1017 1016 1018 0
63 1017 1018 0
1020 982 60 0
1019 248 982 0
1019 982 1020 0
258 1019 1020 0
1021 985 248 0
687 4 985 0
687 985 1021 0
172 687 1021 0
1022 1019 258 0
1021 248 1019 0
1021 1019 1022 0
172 1021 1022 0
1023 1022 258 0
692 172 1022 0
692 1022 1023 0
42 692 1023 0
1025 1017 63 0
1024 256 1017 0
1024 1017 1025 0
259 1024 1025 0
1026 1014 256 0
1020 60 1014 0
1020 1014 1026 0
258 1020 1026 0
1027 1024 259 0
1026 256 1024 0
1026 1024 1027 0
258 1026 1027 0
1028 1027 259 0
1023 258 1027 0
1023 1027 1028 0
42 1023 1028 0
1030 1025 63 0
1029 259 1025 0
1029 1025 1030 0
260 1029 1030 0
1031 1028 259 0
704 42 1028 0
704 1028 1031 0
176 704 1031 0
1032 1029 260 0
1031 259 1029 0
1031 1029 1032 0
176 1031 1032 0
1033 1032 260 0
709 176 1032 0
709 1032 1033 0
12 709 1033 0
1035 1010 17 0
1034 254 1010 0
1034 1010 1035 0
262 1034 1035 0
1037 1007 254 0
1036 61 1007 0
1036 1007 1037 0
261 1036 1037 0
1038 1034 262 0
1037 254 1034 0
1037 1034 1038 0
261 1037 1038 0
1040 1038 262 0
1039 261 1038 0
1039 1038 1040 0
64 1039 1040 0
1042 998 61 0
1041 251 998 0
1041 998 1042 0
263 1041 1042 0
1043 995 251 0
1013 16 995 0
1013 995 1043 0
257 1013 1043 0
1044 1041 263 0
1043 251 1041 0
1043 1041 1044 0
257 1043 1044 0
1045 1044 263 0
1018 257 1044 0
1018 1044 1045 0
63 1018 1045 0
1047 1039 64 0
1046 261 1039 0
1046 1039 1047 0
264 1046 1047 0
1048 1036 261 0
1042 61 1036 0
1042 1036 1048 0
263 1042 1048 0
1049 1046 264 0
1048 261 1046 0
1048 1046 1049 0
263 1048 1049 0
1050 1049 264 0
1045 263 1049 0
1045 1049 1050 0
63 1045 1050 0
1052 1047 64 0
1051 264 1047 0
1051 1047 1052 0
265 1051 1052 0
1053 1050 264 0
1030 63 1050 0
1030 1050 1053 0
260 1030 1053 0
1054 1051 265 0
1053 264 1051 0
1053 1051 1054 0
260 1053 1054 0
1055 1054 265 0
1033 260 1054 0
1033 1054 1055 0
12 1033 1055 0
1057 1035 17 0
1056 262 1035 0
1056 1035 1057 0
267 1056 1057 0
1059 1040 262 0
1058 64 1040 0
1058 1040 1059 0
266 1058 1059 0
1060 1056 267 0
1059 262 1056 0
1059 1056 1060 0
266 1059 1060 0
1062 1060 267 0
1061 266 1060 0
1061 1060 1062 0
65 1061 1062 0
1064 1052 64 0
1063 265 1052 0
1063 1052 1064 0
268 1063 1064 0
1065 1055 265 0
725 12 1055 0
725 1055 1065 0
183 725 1065 0
1066 1063 268 0
1065 265 1063 0
1065 1063 1066 0
183 1065 1066 0
1067 1066 268 0
730 183 1066 0
730 1066 1067 0
45 730 1067 0
1069 1061 65 0
1068 266 1061 0
1068 1061 1069 0
269 1068 1069 0
1070 1058 266 0
1064 64 1058 0
1064 1058 1070 0
268 1064 1070 0
1071 1068 269 0
1070 266 1068 0
1070 1068 1071 0
268 1070 1071 0
1072 1071 269 0
1067 268 1071 0
1067 1071 1072 0
45 1067 1072 0
1074 1069 65 0
1073 269 1069 0
1073 1069 1074 0
270 1073 1074 0
1075 1072 269 0
743 45 1072 0
743 1072 1075 0
188 743 1075 0
1076 1073 270 0
1075 269 1073 0
1075 1073 1076 0
188 1075 1076 0
1077 1076 270 0
748 188 1076 0
748 1076 1077 0
1 748 1077 0
1079 750 2 0
1078 190 750 0
1078 750 1079 0
272 1078 1079 0
1081 755 190 0
1080 47 755 0
1080 755 1081 0
271 1080 1081 0
1082 1078 272 0
1081 190 1078 0
1081 1078 1082 0
271 1081 1082 0
1084 1082 272 0
1083 271 1082 0
1083 1082 1084 0
67 1083 1084 0
1086 769 47 0
1085 195 769 0
1085 769 1086 0
274 1085 1086 0
1088 774 195 0
1087 14 774 0
1087 774 1088 0
273 1087 1088 0
1089 1085 274 0
1088 195 1085 0
1088 1085 1089 0
273 1088 1089 0
1091 1089 274 0
1090 273 1089 0
1090 1089 1091 0
66 1090 1091 0
1093 1083 67 0
1092 271 1083 0
1092 1083 1093 0
275 1092 1093 0
1094 1080 271 0
1086 47 1080 0
1086 1080 1094 0
274 1086 1094 0
1095 1092 275 0
1094 271 1092 0
1094 1092 1095 0
274 1094 1095 0
1096 1095 275 0
1091 274 1095 0
1091 1095 1096 0
66 1091 1096 0
1098 1093 67 0
1097 275 1093 0
1097 1093 1098 0
277 1097 1098 0
1100 1096 275 0
1099 66 1096 0
1099 1096 1100 0
276 1099 1100 0
1101 1097 277 0
1100 275 1097 0
1100 1097 1101 0
276 1100 1101 0
1103 1101 277 0
1102 276 1101 0
1102 1101 1103 0
19 1102 1103 0
1105 824 14 0
1104 209 824 0
1104 824 1105 0
279 1104 1105 0
1107 829 209 0
1106 52 829 0
1106 829 1107 0
278 1106 1107 0
1108 1104 279 0
1107 209 1104 0
1107 1104 1108 0
278 1107 1108 0
1110 1108 279 0
1109 278 1108 0
1109 1108 1110 0
69 1109 1110 0
1112 843 52 0
1111 214 843 0
1111 843 1112 0
281 1111 1112 0
1114 848 214 0
1113 5 848 0
1113 848 1114 0
280 1113 1114 0
1115 1111 281 0
1114 214 1111 0
1114 1111 1115 0
280 1114 1115 0
1117 1115 281 0
1116 280 1115 0
1116 1115 1117 0
68 1116 1117 0
1119 1109 69 0
1118 278 1109 0
1118 1109 1119 0
282 1118 1119 0
1120 1106 278 0
1112 52 1106 0
1112 1106 1120 0
281 1112 1120 0
1121 1118 282 0
1120 278 1118 0
1120 1118 1121 0
281 1120 1121 0
1122 1121 282 0
1117 281 1121 0
1117 1121 1122 0
68 1117 1122 0
1124 1119 69 0
1123 282 1119 0
1123 1119 1124 0
284 1123 1124 0
1126 1122 282 0
1125 68 1122 0
1125 1122 1126 0
283 1125 1126 0
1127 1123 284 0
1126 282 1123 0
1126 1123 1127 0
283 1126 1127 0
1129 1127 284 0
1128 283 1127 0
1128 1127 1129 0
18 1128 1129 0
1131 1102 19 0
1130 276 1102 0
1130 1102 1131 0
286 1130 1131 0
1133 1099 276 0
1132 66 1099 0
1132 1099 1133 0
285 1132 1133 0
1134 1130 286 0
1133 276 1130 0
1133 1130 1134 0
285 1133 1134 0
1136 1134 286 0
1135 285 1134 0
1135 1134 1136 0
70 1135 1136 0
1138 1090 66 0
1137 273 1090 0
1137 1090 1138 0
287 1137 1138 0
1139 1087 273 0
1105 14 1087 0
1105 1087 1139 0
279 1105 1139 0
1140 1137 287 0
1139 273 1137 0
1139 1137 1140 0
279 1139 1140 0
1141 1140 287 0
1110 279 1140 0
1110 1140 1141 0
69 1110 1141 0
1143 1135 70 0
1142 285 1135 0
1142 1135 1143 0
288 1142 1143 0
1144 1132 285 0
1138 66 1132 0
1138 1132 1144 0
287 1138 1144 0
1145 1142 288 0
1144 285 1142 0
1144 1142 1145 0
287 1144 1145 0
1146 1145 288 0
1141 287 1145 0
1141 1145 1146 0
69 1141 1146 0
1148 1143 70 0
1147 288 1143 0
1147 1143 1148 0
289 1147 1148 0
1149 1146 288 0
1124 69 1146 0
1124 1146 1149 0
284 1124 1149 0
1150 1147 289 0
1149 288 1147 0
1149 1147 1150 0
284 1149 1150 0
1151 1150 289 0
1129 284 1150 0
1129 1150 1151 0
18 1129 1151 0
1153 1131 19 0
1152 286 1131 0
1152 1131 1153 0
291 1152 1153 0
1155 1136 286 0
1154 70 1136 0
1154 1136 1155 0
290 1154 1155 0
1156 1152 291 0
1155 286 1152 0
1155 1152 1156 0
290 1155 1156 0
1158 1156 291 0
1157 290 1156 0
1157 1156 1158 0
72 1157 1158 0
1160 1148 70 0
1159 289 1148 0
1159 1148 1160 0
293 1159 1160 0
1162 1151 289 0
1161 18 1151 0
1161 1151 1162 0
292 1161 1162 0
1163 1159 293 0
1162 289 1159 0
1162 1159 1163 0
292 1162 1163 0
1165 1163 293 0
1164 292 1163 0
1164 1163 1165 0
71 1164 1165 0
1167 1157 72 0
1166 290 1157 0
1166 1157 1167 0
294 1166 1167 0
1168 1154 290 0
1160 70 1154 0
1160 1154 1168 0
293 1160 1168 0
1169 1166 294 0
1168 290 1166 0
1168 1166 1169 0
293 1168 1169 0
1170 1169 294 0
1165 293 1169 0
1165 1169 1170 0
71 1165 1170 0
1172 1167 72 0
1171 294 1167 0
1171 1167 1172 0
296 1171 1172 0
1174 1170 294 0
1173 71 1170 0
1173 1170 1174 0
295 1173 1174 0
1175 1171 296 0
1174 294 1171 0
1174 1171 1175 0
295 1174 1175 0
1177 1175 296 0
1176 295 1175 0
1176 1175 1177 0
7 1176 1177 0
1179 987 5 0
1178 250 987 0
1178 987 1179 0
298 1178 1179 0
1181 992 250 0
1180 62 992 0
1180 992 1181 0
297 1180 1181 0
1182 1178 298 0
1181 250 1178 0
1181 1178 1182 0
297 1181 1182 0
1184 1182 298 0
1183 297 1182 0
1183 1182 1184 0
74 1183 1184 0
1186 1006 62 0
1185 255 1006 0
1185 1006 1186 0
300 1185 1186 0
1188 1011 255 0
1187 17 1011 0
1187 1011 1188 0
299 1187 1188 0
1189 1185 300 0
1188 255 1185 0
1188 1185 1189 0
299 1188 1189 0
1191 1189 300 0
1190 299 1189 0
1190 1189 1191 0
73 1190 1191 0
1193 1183 74 0
1192 297 1183 0
1192 1183 1193 0
301 1192 1193 0
1194 1180 297 0
1186 62 1180 0
1186 1180 1194 0
300 1186 1194 0
1195 1192 301 0
1194 297 1192 0
1194 1192 1195 0
300 1194 1195 0
1196 1195 301 0
1191 300 1195 0
1191 1195 1196 0
73 1191 1196 0
1198 1193 74 0
1197 301 1193 0
1197 1193 1198 0
303 1197 1198 0
1200 1196 301 0
1199 73 1196 0
1199 1196 1200 0
302 1199 1200 0
1201 1197 303 0
1200 301 1197 0
1200 1197 1201 0
302 1200 1201 0
1203 1201 303 0
1202 302 1201 0
1202 1201 1203 0
21 1202 1203 0
1205 1057 17 0
1204 267 1057 0
1204 1057 1205 0
305 1204 1205 0
1207 1062 267 0
1206 65 1062 0
1206 1062 1207 0
304 1206 1207 0
1208 1204 305 0
1207 267 1204 0
1207 1204 1208 0
304 1207 1208 0
1210 1208 305 0
1209 304 1208 0
1209 1208 1210 0
76 1209 1210 0
1212 1074 65 0
1211 270 1074 0
1211 1074 1212 0
307 1211 1212 0
1214 1077 270 0
1213 1 1077 0
1213 1077 1214 0
306 1213 1214 0
1215 1211 307 0
1214 270 1211 0
1214 1211 1215 0
306 1214 1215 0
1217 1215 307 0
1216 306 1215 0
1216 1215 1217 0
75 1216 1217 0
1219 1209 76 0
1218 304 1209 0
1218 1209 1219 0
308 1218 1219 0
1220 1206 304 0
1212 65 1206 0
1212 1206 1220 0
307 1212 1220 0
1221 1218 308 0
1220 304 1218 0
1220 1218 1221 0
307 1220 1221 0
1222 1221 308 0
1217 307 1221 0
1217 1221 1222 0
75 1217 1222 0
1224 1219 76 0
1223 308 1219 0
1223 1219 1224 0
310 1223 1224 0
1226 1222 308 0
1225 75 1222 0
1225 1222 1226 0
309 1225 1226 0
1227 1223 310 0
1226 308 1223 0
1226 1223 1227 0
309 1226 1227 0
1229 1227 310 0
1228 309 1227 0
1228 1227 1229 0
20 1228 1229 0
1231 1202 21 0
1230 302 1202 0
1230 1202 1231 0
312 1230 1231 0
1233 1199 302 0
1232 73 1199 0
1232 1199 1233 0
311 1232 1233 0
1234 1230 312 0
1233 302 1230 0
1233 1230 1234 0
311 1233 1234 0
1236 1234 312 0
1235 311 1234 0
1235 1234 1236 0
77 1235 1236 0
1238 1190 73 0
1237 299 1190 0
1237 1190 1238 0
313 1237 1238 0
1239 1187 299 0
1205 17 1187 0
1205 1187 1239 0
305 1205 1239 0
1240 1237 313 0
1239 299 1237 0
1239 1237 1240 0
305 1239 1240 0
1241 1240 313 0
1210 305 1240 0
1210 1240 1241 0
76 1210 1241 0
1243 1235 77 0
1242 311 1235 0
1242 1235 1243 0
314 1242 1243 0
1244 1232 311 0
1238 73 1232 0
1238 1232 1244 0
313 1238 1244 0
1245 1242 314 0
1244 311 1242 0
1244 1242 1245 0
313 1244 1245 0
1246 1245 314 0
1241 313 1245 0
1241 1245 1246 0
76 1241 1246 0
1248 1243 77 0
1247 314 1243 0
1247 1243 1248 0
315 1247 1248 0
1249 1246 314 0
1224 76 1246 0
1224 1246 1249 0
310 1224 1249 0
1250 1247 315 0
1249 314 1247 0
1249 1247 1250 0
310 1249 1250 0
1251 1250 315 0
1229 310 1250 0
1229 1250 1251 0
20 1229 1251 0
1253 1231 21 0
1252 312 1231 0
1252 1231 1253 0
317 1252 1253 0
1255 1236 312 0
1254 77 1236 0
1254 1236 1255 0
316 1254 1255 0
1256 1252 317 0
1255 312 1252 0
1255 1252 1256 0
316 1255 1256 0
1258 1256 317 0
1257 316 1256 0
1257 1256 1258 0
79 1257 1258 0
1260 1248 77 0
1259 315 1248 0
1259 1248 1260 0
319 1259 1260 0
1262 1251 315 0
1261 20 1251 0
1261 1251 1262 0
318 1261 1262 0
1263 1259 319 0
1262 315 1259 0
1262 1259 1263 0
318 1262 1263 0
1265 1263 319 0
1264 318 1263 0
1264 1263 1265 0
78 1264 1265 0
1267 1257 79 0
1266 316 1257 0
1266 1257 1267 0
320 1266 1267 0
1268 1254 316 0
1260 77 1254 0
1260 1254 1268 0
319 1260 1268 0
1269 1266 320 0
1268 316 1266 0
1268 1266 1269 0
319 1268 1269 0
1270 1269 320 0
1265 319 1269 0
1265 1269 1270 0
78 1265 1270 0
1272 1267 79 0
1271 320 1267 0
1271 1267 1272 0
322 1271 1272 0
1274 1270 320 0
1273 78 1270 0
1273 1270 1274 0
321 1273 1274 0
1275 1271 322 0
1274 320 1271 0
1274 1271 1275 0
321 1274 1275 0
1277 1275 322 0
1276 321 1275 0
1276 1275 1277 0
6 1276 1277 0
1279 1176 7 0
1278 295 1176 0
1278 1176 1279 0
324 1278 1279 0
1281 1173 295 0
1280 71 1173 0
1280 1173 1281 0
323 1280 1281 0
1282 1278 324 0
1281 295 1278 0
1281 1278 1282 0
323 1281 1282 0
1284 1282 324 0
1283 323 1282 0
1283 1282 1284 0
81 1283 1284 0
1286 1164 71 0
1285 292 1164 0
1285 1164 1286 0
326 1285 1286 0
1288 1161 292 0
1287 18 1161 0
1287 1161 1288 0
325 1287 1288 0
1289 1285 326 0
1288 292 1285 0
1288 1285 1289 0
325 1288 1289 0
1291 1289 326 0
1290 325 1289 0
1290 1289 1291 0
80 1290 1291 0
1293 1283 81 0
1292 323 1283 0
1292 1283 1293 0
327 1292 1293 0
1294 1280 323 0
1286 71 1280 0
1286 1280 1294 0
326 1286 1294 0
1295 1292 327 0
1294 323 1292 0
1294 1292 1295 0
326 1294 1295 0
1296 1295 327 0
1291 326 1295 0
1291 1295 1296 0
80 1291 1296 0
1298 1293 81 0
1297 327 1293 0
1297 1293 1298 0
329 1297 1298 0
1300 1296 327 0
1299 80 1296 0
1299 1296 1300 0
328 1299 1300 0
1301 1297 329 0
1300 327 1297 0
1300 1297 1301 0
328 1300 1301 0
1303 1301 329 0
1302 328 1301 0
1302 1301 1303 0
22 1302 1303 0
1305 1128 18 0
1304 283 1128 0
1304 1128 1305 0
331 1304 1305 0
1307 1125 283 0
1306 68 1125 0
1306 1125 1307 0
330 1306 1307 0
1308 1304 331 0
1307 283 1304 0
1307 1304 1308 0
330 1307 1308 0
1310 1308 331 0
1309 330 1308 0
1309 1308 1310 0
82 1309 1310 0
1312 1116 68 0
1311 280 1116 0
1311 1116 1312 0
332 1311 1312 0
1313 1113 280 0
1179 5 1113 0
1179 1113 1313 0
298 1179 1313 0
1314 1311 332 0
1313 280 1311 0
1313 1311 1314 0
298 1313 1314 0
1315 1314 332 0
1184 298 1314 0
1184 1314 1315 0
74 1184 1315 0
1317 1309 82 0
1316 330 1309 0
1316 1309 1317 0
333 1316 1317 0
1318 1306 330 0
1312 68 1306 0
1312 1306 1318 0
332 1312 1318 0
1319 1316 333 0
1318 330 1316 0
1318 1316 1319 0
332 1318 1319 0
1320 1319 333 0
1315 332 1319 0
1315 1319 1320 0
74 1315 1320 0
1322 1317 82 0
1321 333 1317 0
1321 1317 1322 0
334 1321 1322 0
1323 1320 333 0
1198 74 1320 0
1198 1320 1323 0
303 1198 1323 0
1324 1321 334 0
1323 333 1321 0
1323 1321 1324 0
303 1323 1324 0
1325 1324 334 0
1203 303 1324 0
1203 1324 1325 0
21 1203 1325 0
1327 1302 22 0
1326 328 1302 0
1326 1302 1327 0
336 1326 1327 0
1329 1299 328 0
1328 80 1299 0
1328 1299 1329 0
335 1328 1329 0
1330 1326 336 0
1329 328 1326 0
1329 1326 1330 0
335 1329 1330 0
1332 1330 336 0
1331 335 1330 0
1331 1330 1332 0
83 1331 1332 0
1334 1290 80 0
1333 325 1290 0
1333 1290 1334 0
337 1333 1334 0
1335 1287 325 0
1305 18 1287 0
1305 1287 1335 0
331 1305 1335 0
1336 1333 337 0
1335 325 1333 0
1335 1333 1336 0
331 1335 1336 0
1337 1336 337 0
1310 331 1336 0
1310 1336 1337 0
82 1310 1337 0
1339 1331 83 0
1338 335 1331 0
1338 1331 1339 0
338 1338 1339 0
1340 1328 335 0
1334 80 1328 0
1334 1328 1340 0
337 1334 1340 0
1341 1338 338 0
1340 335 1338 0
1340 1338 1341 0
337 1340 1341 0
1342 1341 338 0
1337 337 1341 0
1337 1341 1342 0
82 1337 1342 0
1344 1339 83 0
1343 338 1339 0
1343 1339 1344 0
339 1343 1344 0
1345 1342 338 0
1322 82 1342 0
1322 1342 1345 0
334 1322 1345 0
1346 1343 339 0
1345 338 1343 0
1345 1343 1346 0
334 1345 1346 0
1347 1346 339 0
1325 334 1346 0
1325 1346 1347 0
21 1325 1347 0
1349 1327 22 0
1348 336 1327 0
1348 1327 1349 0
341 1348 1349 0
1351 1332 336 0
1350 83 1332 0
1350 1332 1351 0
340 1350 1351 0
1352 1348 341 0
1351 336 1348 0
1351 1348 1352 0
340 1351 1352 0
1354 1352 341 0
1353 340 1352 0
1353 1352 1354 0
84 1353 1354 0
1356 1344 83 0
1355 339 1344 0
1355 1344 1356 0
342 1355 1356 0
1357 1347 339 0
1253 21 1347 0
1253 1347 1357 0
317 1253 1357 0
1358 1355 342 0
1357 339 1355 0
1357 1355 1358 0
317 1357 1358 0
1359 1358 342 0
1258 317 1358 0
1258 1358 1359 0
79 1258 1359 0
1361 1353 84 0
1360 340 1353 0
1360 1353 1361 0
343 1360 1361 0
1362 1350 340 0
1356 83 1350 0
1356 1350 1362 0
342 1356 1362 0
1363 1360 343 0
1362 340 1360 0
1362 1360 1363 0
342 1362 1363 0
1364 1363 343 0
1359 342 1363 0
1359 1363 1364 0
79 1359 1364 0
1366 1361 84 0
1365 343 1361 0
1365 1361 1366 0
344 1365 1366 0
1367 1364 343 0
1272 79 1364 0
1272 1364 1367 0
322 1272 1367 0
1368 1365 344 0
1367 343 1365 0
1367 1365 1368 0
322 1367 1368 0
1369 1368 344 0
1277 322 1368 0
1277 1368 1369 0
6 1277 1369 0
1371 1279 7 0
1370 324 1279 0
1370 1279 1371 0
346 1370 1371 0
1373 1284 324 0
1372 81 1284 0
1372 1284 1373 0
345 1372 1373 0
1374 1370 346 0
1373 324 1370 0
1373 1370 1374 0
345 1373 1374 0
1376 1374 346 0
1375 345 1374 0
1375 1374 1376 0
86 1375 1376 0
1378 1298 81 0
1377 329 1298 0
1377 1298 1378 0
348 1377 1378 0
1380 1303 329 0
1379 22 1303 0
1379 1303 1380 0
347 1379 1380 0
1381 1377 348 0
1380 329 1377 0
1380 1377 1381 0
347 1380 1381 0
1383 1381 348 0
1382 347 1381 0
1382 1381 1383 0
85 1382 1383 0
1385 1375 86 0
1384 345 1375 0
1384 1375 1385 0
349 1384 1385 0
1386 1372 345 0
1378 81 1372 0
1378 1372 1386 0
348 1378 1386 0
1387 1384 349 0
1386 345 1384 0
1386 1384 1387 0
348 1386 1387 0
1388 1387 349 0
1383 348 1387 0
1383 1387 1388 0
85 1383 1388 0
1390 1385 86 0
1389 349 1385 0
1389 1385 1390 0
351 1389 1390 0
1392 1388 349 0
1391 85 1388 0
1391 1388 1392 0
350 1391 1392 0
1393 1389 351 0
1392 349 1389 0
1392 1389 1393 0
350 1392 1393 0
1395 1393 351 0
1394 350 1393 0
1394 1393 1395 0
24 1394 1395 0
1397 1349 22 0
1396 341 1349 0
1396 1349 1397 0
353 1396 1397 0
1399 1354 341 0
1398 84 1354 0
1398 1354 1399 0
352 1398 1399 0
1400 1396 353 0
1399 341 1396 0
1399 1396 1400 0
352 1399 1400 0
1402 1400 353 0
1401 352 1400 0
1401 1400 1402 0
88 1401 1402 0
1404 1366 84 0
1403 344 1366 0
1403 1366 1404 0
355 1403 1404 0
1406 1369 344 0
1405 6 1369 0
1405 1369 1406 0
354 1405 1406 0
1407 1403 355 0
1406 344 1403 0
1406 1403 1407 0
354 1406 1407 0
1409 1407 355 0
1408 354 1407 0
1408 1407 1409 0
87 1408 1409 0
1411 1401 88 0
1410 352 1401 0
1410 1401 1411 0
356 1410 1411 0
1412 1398 352 0
1404 84 1398 0
1404 1398 1412 0
355 1404 1412 0
1413 1410 356 0
1412 352 1410 0
1412 1410 1413 0
355 1412 1413 0
1414 1413 356 0
1409 355 1413 0
1409 1413 1414 0
87 1409 1414 0
1416 1411 88 0
1415 356 1411 0
1415 1411 1416 0
358 1415 1416 0
1418 1414 356 0
1417 87 1414 0
1417 1414 1418 0
357 1417 1418 0
1419 1415 358 0
1418 356 1415 0
1418 1415 1419 0
357 1418 1419 0
1421 1419 358 0
1420 357 1419 0
1420 1419 1421 0
23 1420 1421 0
1423 1394 24 0
1422 350 1394 0
1422 1394 1423 0
360 1422 1423 0
1425 1391 350 0
1424 85 1391 0
1424 1391 1425 0
359 1424 1425 0
1426 1422 360 0
1425 350 1422 0
1425 1422 1426 0
359 1425 1426 0
1428 1426 360 0
1427 359 1426 0
1427 1426 1428 0
89 1427 1428 0
1430 1382 85 0
1429 347 1382 0
1429 1382 1430 0
361 1429 1430 0
1431 1379 347 0
1397 22 1379 0
1397 1379 1431 0
353 1397 1431 0
1432 1429 361 0
1431 347 1429 0
1431 1429 1432 0
353 1431 1432 0
1433 1432 361 0
1402 353 1432 0
1402 1432 1433 0
88 1402 1433 0
1435 1427 89 0
1434 359 1427 0
1434 1427 1435 0
362 1434 1435 0
1436 1424 359 0
1430 85 1424 0
1430 1424 1436 0
361 1430 1436 0
1437 1434 362 0
1436 359 1434 0
1436 1434 1437 0
361 1436 1437 0
1438 1437 362 0
1433 361 1437 0
1433 1437 1438 0
88 1433 1438 0
1440 1435 89 0
1439 362 1435 0
1439 1435 1440 0
363 1439 1440 0
1441 1438 362 0
1416 88 1438 0
1416 1438 1441 0
358 1416 1441 0
1442 1439 363 0
1441 362 1439 0
1441 1439 1442 0
358 1441 1442 0
1443 1442 363 0
1421 358 1442 0
1421 1442 1443 0
23 1421 1443 0
1445 1423 24 0
1444 360 1423 0
1444 1423 1445 0
365 1444 1445 0
1447 1428 360 0
1446 89 1428 0
1446 1428 1447 0
364 1446 1447 0
1448 1444 365 0
1447 360 1444 0
1447 1444 1448 0
364 1447 1448 0
1450 1448 365 0
1449 364 1448 0
1449 1448 1450 0
91 1449 1450 0
1452 1440 89 0
1451 363 1440 0
1451 1440 1452 0
367 1451 1452 0
1454 1443 363 0
1453 23 1443 0
1453 1443 1454 0
366 1453 1454 0
1455 1451 367 0
1454 363 1451 0
1454 1451 1455 0
366 1454 1455 0
1457 1455 367 0
1456 366 1455 0
1456 1455 1457 0
90 1456 1457 0
1459 1449 91 0
1458 364 1449 0
1458 1449 1459 0
368 1458 1459 0
1460 1446 364 0
1452 89 1446 0
1452 1446 1460 0
367 1452 1460 0
1461 1458 368 0
1460 364 1458 0
1460 1458 1461 0
367 1460 1461 0
1462 1461 368 0
1457 367 1461 0
1457 1461 1462 0
90 1457 1462 0
1464 1459 91 0
1463 368 1459 0
1463 1459 1464 0
370 1463 1464 0
1466 1462 368 0
1465 90 1462 0
1465 1462 1466 0
369 1465 1466 0
1467 1463 370 0
1466 368 1463 0
1466 1463 1467 0
369 1466 1467 0
1469 1467 370 0
1468 369 1467 0
1468 1467 1469 0
0 1468 1469 0
1471 1468 0 0
1470 369 1468 0
1470 1468 1471 0
372 1470 1471 0
1473 1465 369 0
1472 90 1465 0
1472 1465 1473 0
371 1472 1473 0
1474 1470 372 0
1473 369 1470 0
1473 1470 1474 0
371 1473 1474 0
1476 1474 372 0
1475 371 1474 0
1475 1474 1476 0
93 1475 1476 0
1478 1456 90 0
1477 366 1456 0
1477 1456 1478 0
374 1477 1478 0
1480 1453 366 0
1479 23 1453 0
1479 1453 1480 0
373 1479 1480 0
1481 1477 374 0
1480 366 1477 0
1480 1477 1481 0
373 1480 1481 0
1483 1481 374 0
1482 373 1481 0
1482 1481 1483 0
92 1482 1483 0
1485 1475 93 0
1484 371 1475 0
1484 1475 1485 0
375 1484 1485 0
1486 1472 371 0
1478 90 1472 0
1478 1472 1486 0
374 1478 1486 0
1487 1484 375 0
1486 371 1484 0
1486 1484 1487 0
374 1486 1487 0
1488 1487 375 0
1483 374 1487 0
1483 1487 1488 0
92 1483 1488 0
1490 1485 93 0
1489 375 1485 0
1489 1485 1490 0
377 1489 1490 0
1492 1488 375 0
1491 92 1488 0
1491 1488 1492 0
376 1491 1492 0
1493 1489 377 0
1492 375 1489 0
1492 1489 1493 0
376 1492 1493 0
1495 1493 377 0
1494 376 1493 0
1494 1493 1495 0
26 1494 1495 0
1497 1420 23 0
1496 357 1420 0
1496 1420 1497 0
379 1496 1497 0
1499 1417 357 0
1498 87 1417 0
1498 1417 1499 0
378 1498 1499 0
1500 1496 379 0
1499 357 1496 0
1499 1496 1500 0
378 1499 1500 0
1502 1500 379 0
1501 378 1500 0
1501 1500 1502 0
95 1501 1502 0
1504 1408 87 0
1503 354 1408 0
1503 1408 1504 0
381 1503 1504 0
1506 1405 354 0
1505 6 1405 0
1505 1405 1506 0
380 1505 1506 0
1507 1503 381 0
1506 354 1503 0
1506 1503 1507 0
380 1506 1507 0
1509 1507 381 0
1508 380 1507 0
1508 1507 1509 0
94 1508 1509 0
1511 1501 95 0
1510 378 1501 0
1510 1501 1511 0
382 1510 1511 0
1512 1498 378 0
1504 87 1498 0
1504 1498 1512 0
381 1504 1512 0
1513 1510 382 0
1512 378 1510 0
1512 1510 1513 0
381 1512 1513 0
1514 1513 382 0
1509 381 1513 0
1509 1513 1514 0
94 1509 1514 0
1516 1511 95 0
1515 382 1511 0
1515 1511 1516 0
384 1515 1516 0
1518 1514 382 0
1517 94 1514 0
1517 1514 1518 0
383 1517 1518 0
1519 1515 384 0
1518 382 1515 0
1518 1515 1519 0
383 1518 1519 0
1521 1519 384 0
1520 383 1519 0
1520 1519 1521 0
25 1520 1521 0
1523 1494 26 0
1522 376 1494 0
1522 1494 1523 0
386 1522 1523 0
1525 1491 376 0
1524 92 1491 0
1524 1491 1525 0
385 1524 1525 0
1526 1522 386 0
1525 376 1522 0
1525 1522 1526 0
385 1525 1526 0
1528 1526 386 0
1527 385 1526 0
1527 1526 1528 0
96 1527 1528 0
1530 1482 92 0
1529 373 1482 0
1529 1482 1530 0
387 1529 1530 0
1531 1479 373 0
1497 23 1479 0
1497 1479 1531 0
379 1497 1531 0
1532 1529 387 0
1531 373 1529 0
1531 1529 1532 0
379 1531 1532 0
1533 1532 387 0
1502 379 1532 0
1502 1532 1533 0
95 1502 1533 0
1535 1527 96 0
1534 385 1527 0
1534 1527 1535 0
388 1534 1535 0
1536 1524 385 0
1530 92 1524 0
1530 1524 1536 0
387 1530 1536 0
1537 1534 388 0
1536 385 1534 0
1536 1534 1537 0
387 1536 1537 0
1538 1537 388 0
1533 387 1537 0
1533 1537 1538 0
95 1533 1538 0
1540 1535 96 0
1539 388 1535 0
1539 1535 1540 0
389 1539 1540 0
1541 1538 388 0
1516 95 1538 0
1516 1538 1541 0
384 1516 1541 0
1542 1539 389 0
1541 388 1539 0
1541 1539 1542 0
384 1541 1542 0
1543 1542 389 0
1521 384 1542 0
1521 1542 1543 0
25 1521 1543 0
1545 1523 26 0
1544 386 1523 0
1544 1523 1545 0
391 1544 1545 0
1547 1528 386 0
1546 96 1528 0
1546 1528 1547 0
390 1546 1547 0
1548 1544 391 0
1547 386 1544 0
1547 1544 1548 0
390 1547 1548 0
1550 1548 391 0
1549 390 1548 0
1549 1548 1550 0
98 1549 1550 0
1552 1540 96 0
1551 389 1540 0
1551 1540 1552 0
393 1551 1552 0
1554 1543 389 0
1553 25 1543 0
1553 1543 1554 0
392 1553 1554 0
1555 1551 393 0
1554 389 1551 0
1554 1551 1555 0
392 1554 1555 0
1557 1555 393 0
1556 392 1555 0
1556 1555 1557 0
97 1556 1557 0
1559 1549 98 0
1558 390 1549 0
1558 1549 1559 0
394 1558 1559 0
1560 1546 390 0
1552 96 1546 0
1552 1546 1560 0
393 1552 1560 0
1561 1558 394 0
1560 390 1558 0
1560 1558 1561 0
393 1560 1561 0
1562 1561 394 0
1557 393 1561 0
1557 1561 1562 0
97 1557 1562 0
1564 1559 98 0
1563 394 1559 0
1563 1559 1564 0
396 1563 1564 0
1566 1562 394 0
1565 97 1562 0
1565 1562 1566 0
395 1565 1566 0
1567 1563 396 0
1566 394 1563 0
1566 1563 1567 0
395 1566 1567 0
1569 1567 396 0
1568 395 1567 0
1568 1567 1569 0
9 1568 1569 0
1571 1276 6 0
1570 321 1276 0
1570 1276 1571 0
398 1570 1571 0
1573 1273 321 0
1572 78 1273 0
1572 1273 1573 0
397 1572 1573 0
1574 1570 398 0
1573 321 1570 0
1573 1570 1574 0
397 1573 1574 0
1576 1574 398 0
1575 397 1574 0
1575 1574 1576 0
100 1575 1576 0
1578 1264 78 0
1577 318 1264 0
1577 1264 1578 0
400 1577 1578 0
1580 1261 318 0
1579 20 1261 0
1579 1261 1580 0
399 1579 1580 0
1581 1577 400 0
1580 318 1577 0
1580 1577 1581 0
399 1580 1581 0
1583 1581 400 0
1582 399 1581 0
1582 1581 1583 0
99 1582 1583 0
1585 1575 100 0
1584 397 1575 0
1584 1575 1585 0
401 1584 1585 0
1586 1572 397 0
1578 78 1572 0
1578 1572 1586 0
400 1578 1586 0
1587 1584 401 0
1586 397 1584 0
1586 1584 1587 0
400 1586 1587 0
1588 1587 401 0
1583 400 1587 0
1583 1587 1588 0
99 1583 1588 0
1590 1585 100 0
1589 401 1585 0
1589 1585 1590 0
403 1589 1590 0
1592 1588 401 0
1591 99 1588 0
1591 1588 1592 0
402 1591 1592 0
1593 1589 403 0
1592 401 1589 0
1592 1589 1593 0
402 1592 1593 0
1595 1593 403 0
1594 402 1593 0
1594 1593 1595 0
28 1594 1595 0
1597 1228 20 0
1596 309 1228 0
1596 1228 1597 0
405 1596 1597 0
1599 1225 309 0
1598 75 1225 0
1598 1225 1599 0
404 1598 1599 0
1600 1596 405 0
1599 309 1596 0
1599 1596 1600 0
404 1599 1600 0
1602 1600 405 0
1601 404 1600 0
1601 1600 1602 0
102 1601 1602 0
1604 1216 75 0
1603 306 1216 0
1603 1216 1604 0
407 1603 1604 0
1606 1213 306 0
1605 1 1213 0
1605 1213 1606 0
406 1605 1606 0
1607 1603 407 0
1606 306 1603 0
1606 1603 1607 0
406 1606 1607 0
1609 1607 407 0
1608 406 1607 0
1608 1607 1609 0
101 1608 1609 0
1611 1601 102 0
1610 404 1601 0
1610 1601 1611 0
408 1610 1611 0
1612 1598 404 0
1604 75 1598 0
1604 1598 1612 0
407 1604 1612 0
1613 1610 408 0
1612 404 1610 0
1612 1610 1613 0
407 1612 1613 0
1614 1613 408 0
1609 407 1613 0
1609 1613 1614 0
101 1609 1614 0
1616 1611 102 0
1615 408 1611 0
1615 1611 1616 0
410 1615 1616 0
1618 1614 408 0
1617 101 1614 0
1617 1614 1618 0
409 1617 1618 0
1619 1615 410 0
1618 408 1615 0
1618 1615 1619 0
409 1618 1619 0
1621 1619 410 0
1620 409 1619 0
1620 1619 1621 0
27 1620 1621 0
1623 1594 28 0
1622 402 1594 0
1622 1594 1623 0
412 1622 1623 0
1625 1591 402 0
1624 99 1591 0
1624 1591 1625 0
411 1624 1625 0
1626 1622 412 0
1625 402 1622 0
1625 1622 1626 0
411 1625 1626 0
1628 1626 412 0
1627 411 1626 0
1627 1626 1628 0
103 1627 1628 0
1630 1582 99 0
1629 399 1582 0
1629 1582 1630 0
413 1629 1630 0
1631 1579 399 0
1597 20 1579 0
1597 1579 1631 0
405 1597 1631 0
1632 1629 413 0
1631 399 1629 0
1631 1629 1632 0
405 1631 1632 0
1633 1632 413 0
1602 405 1632 0
1602 1632 1633 0
102 1602 1633 0
1635 1627 103 0
1634 411 1627 0
1634 1627 1635 0
414 1634 1635 0
1636 1624 411 0
1630 99 1624 0
1630 1624 1636 0
413 1630 1636 0
1637 1634 414 0
1636 411 1634 0
1636 1634 1637 0
413 1636 1637 0
1638 1637 414 0
1633 413 1637 0
1633 1637 1638 0
102 1633 1638 0
1640 1635 103 0
1639 414 1635 0
1639 1635 1640 0
415 1639 1640 0
1641 1638 414 0
1616 102 1638 0
1616 1638 1641 0
410 1616 1641 0
1642 1639 415 0
1641 414 1639 0
1641 1639 1642 0
410 1641 1642 0
1643 1642 415 0
1621 410 1642 0
1621 1642 1643 0
27 1621 1643 0
1645 1623 28 0
1644 412 1623 0
1644 1623 1645 0
417 1644 1645 0
1647 1628 412 0
1646 103 1628 0
1646 1628 1647 0
416 1646 1647 0
1648 1644 417 0
1647 412 1644 0
1647 1644 1648 0
416 1647 1648 0
1650 1648 417 0
1649 416 1648 0
1649 1648 1650 0
105 1649 1650 0
1652 1640 103 0
1651 415 1640 0
1651 1640 1652 0
419 1651 1652 0
1654 1643 415 0
1653 27 1643 0
1653 1643 1654 0
418 1653 1654 0
1655 1651 419 0
1654 415 1651 0
1654 1651 1655 0
418 1654 1655 0
1657 1655 419 0
1656 418 1655 0
1656 1655 1657 0
104 1656 1657 0
1659 1649 105 0
1658 416 1649 0
1658 1649 1659 0
420 1658 1659 0
1660 1646 416 0
1652 103 1646 0
1652 1646 1660 0
419 1652 1660 0
1661 1658 420 0
1660 416 1658 0
1660 1658 1661 0
419 1660 1661 0
1662 1661 420 0
1657 419 1661 0
1657 1661 1662 0
104 1657 1662 0
1664 1659 105 0
1663 420 1659 0
1663 1659 1664 0
422 1663 1664 0
1666 1662 420 0
1665 104 1662 0
1665 1662 1666 0
421 1665 1666 0
1667 1663 422 0
1666 420 1663 0
1666 1663 1667 0
421 1666 1667 0
1669 1667 422 0
1668 421 1667 0
1668 1667 1669 0
8 1668 1669 0
1671 1568 9 0
1670 395 1568 0
1670 1568 1671 0
424 1670 1671 0
1673 1565 395 0
1672 97 1565 0
1672 1565 1673 0
423 1672 1673 0
1674 1670 424 0
1673 395 1670 0
1673 1670 1674 0
423 1673 1674 0
1676 1674 424 0
1675 423 1674 0
1675 1674 1676 0
107 1675 1676 0
1678 1556 97 0
1677 392 1556 0
1677 1556 1678 0
426 1677 1678 0
1680 1553 392 0
1679 25 1553 0
1679 1553 1680 0
425 1679 1680 0
1681 1677 426 0
1680 392 1677 0
1680 1677 1681 0
425 1680 1681 0
1683 1681 426 0
1682 425 1681 0
1682 1681 1683 0
106 1682 1683 0
1685 1675 107 0
1684 423 1675 0
1684 1675 1685 0
427 1684 1685 0
1686 1672 423 0
1678 97 1672 0
1678 1672 1686 0
426 1678 1686 0
1687 1684 427 0
1686 423 1684 0
1686 1684 1687 0
426 1686 1687 0
1688 1687 427 0
1683 426 1687 0
1683 1687 1688 0
106 1683 1688 0
1690 1685 107 0
1689 427 1685 0
1689 1685 1690 0
429 1689 1690 0
1692 1688 427 0
1691 106 1688 0
1691 1688 1692 0
428 1691 1692 0
1693 1689 429 0
1692 427 1689 0
1692 1689 1693 0
428 1692 1693 0
1695 1693 429 0
1694 428 1693 0
1694 1693 1695 0
29 1694 1695 0
1697 1520 25 0
1696 383 1520 0
1696 1520 1697 0
431 1696 1697 0
1699 1517 383 0
1698 94 1517 0
1698 1517 1699 0
430 1698 1699 0
1700 1696 431 0
1699 383 1696 0
1699 1696 1700 0
430 1699 1700 0
1702 1700 431 0
1701 430 1700 0
1701 1700 1702 0
108 1701 1702 0
1704 1508 94 0
1703 380 1508 0
1703 1508 1704 0
432 1703 1704 0
1705 1505 380 0
1571 6 1505 0
1571 1505 1705 0
398 1571 1705 0
1706 1703 432 0
1705 380 1703 0
1705 1703 1706 0
398 1705 1706 0
1707 1706 432 0
1576 398 1706 0
1576 1706 1707 0
100 1576 1707 0
1709 1701 108 0
1708 430 1701 0
1708 1701 1709 0
433 1708 1709 0
1710 1698 430 0
1704 94 1698 0
1704 1698 1710 0
432 1704 1710 0
1711 1708 433 0
1710 430 1708 0
1710 1708 1711 0
432 1710 1711 0
1712 1711 433 0
1707 432 1711 0
1707 1711 1712 0
100 1707 1712 0
1714 1709 108 0
1713 433 1709 0
1713 1709 1714 0
434 1713 1714 0
1715 1712 433 0
1590 100 1712 0
1590 1712 1715 0
403 1590 1715 0
1716 1713 434 0
1715 433 1713 0
1715 1713 1716 0
403 1715 1716 0
1717 1716 434 0
1595 403 1716 0
1595 1716 1717 0
28 1595 1717 0
1719 1694 29 0
1718 428 1694 0
1718 1694 1719 0
436 1718 1719 0
1721 1691 428 0
1720 106 1691 0
1720 1691 1721 0
435 1720 1721 0
1722 1718 436 0
1721 428 1718 0
1721 1718 1722 0
435 1721 1722 0
1724 1722 436 0
1723 435 1722 0
1723 1722 1724 0
109 1723 1724 0
1726 1682 106 0
1725 425 1682 0
1725 1682 1726 0
437 1725 1726 0
1727 1679 425 0
1697 25 1679 0
1697 1679 1727 0
431 1697 1727 0
1728 1725 437 0
1727 425 1725 0
1727 1725 1728 0
431 1727 1728 0
1729 1728 437 0
1702 431 1728 0
1702 1728 1729 0
108 1702 1729 0
1731 1723 109 0
1730 435 1723 0
1730 1723 1731 0
438 1730 1731 0
1732 1720 435 0
1726 106 1720 0
1726 1720 1732 0
437 1726 1732 0
1733 1730 438 0
1732 435 1730 0
1732 1730 1733 0
437 1732 1733 0
1734 1733 438 0
1729 437 1733 0
1729 1733 1734 0
108 1729 1734 0
1736 1731 109 0
1735 438 1731 0
1735 1731 1736 0
439 1735 1736 0
1737 1734 438 0
1714 108 1734 0
1714 1734 1737 0
434 1714 1737 0
1738 1735 439 0
1737 438 1735 0
1737 1735 1738 0
434 1737 1738 0
1739 1738 439 0
1717 434 1738 0
1717 1738 1739 0
28 1717 1739 0
1741 1719 29 0
1740 436 1719 0
1740 1719 1741 0
441 1740 1741 0
1743 1724 436 0
1742 109 1724 0
1742 1724 1743 0
440 1742 1743 0
1744 1740 441 0
1743 436 1740 0
1743 1740 1744 0
440 1743 1744 0
1746 1744 441 0
1745 440 1744 0
1745 1744 1746 0
110 1745 1746 0
1748 1736 109 0
1747 439 1736 0
1747 1736 1748 0
442 1747 1748 0
1749 1739 439 0
1645 28 1739 0
1645 1739 1749 0
417 1645 1749 0
1750 1747 442 0
1749 439 1747 0
1749 1747 1750 0
417 1749 1750 0
1751 1750 442 0
1650 417 1750 0
1650 1750 1751 0
105 1650 1751 0
1753 1745 110 0
1752 440 1745 0
1752 1745 1753 0
443 1752 1753 0
1754 1742 440 0
1748 109 1742 0
1748 1742 1754 0
442 1748 1754 0
1755 1752 443 0
1754 440 1752 0
1754 1752 1755 0
442 1754 1755 0
1756 1755 443 0
1751 442 1755 0
1751 1755 1756 0
105 1751 1756 0
1758 1753 110 0
1757 443 1753 0
1757 1753 1758 0
444 1757 1758 0
1759 1756 443 0
1664 105 1756 0
1664 1756 1759 0
422 1664 1759 0
1760 1757 444 0
1759 443 1757 0
1759 1757 1760 0
422 1759 1760 0
1761 1760 444 0
1669 422 1760 0
1669 1760 1761 0
8 1669 1761 0
1763 1671 9 0
1762 424 1671 0
1762 1671 1763 0
446 1762 1763 0
1765 1676 424 0
1764 107 1676 0
1764 1676 1765 0
445 1764 1765 0
1766 1762 446 0
1765 424 1762 0
1765 1762 1766 0
445 1765 1766 0
1768 1766 446 0
1767 445 1766 0
1767 1766 1768 0
112 1767 1768 0
1770 1690 107 0
1769 429 1690 0
1769 1690 1770 0
448 1769 1770 0
1772 1695 429 0
1771 29 1695 0
1771 1695 1772 0
447 1771 1772 0
1773 1769 448 0
1772 429 1769 0
1772 1769 1773 0
447 1772 1773 0
1775 1773 448 0
1774 447 1773 0
1774 1773 1775 0
111 1774 1775 0
1777 1767 112 0
1776 445 1767 0
1776 1767 1777 0
449 1776 1777 0
1778 1764 445 0
1770 107 1764 0
1770 1764 1778 0
448 1770 1778 0
1779 1776 449 0
1778 445 1776 0
1778 1776 1779 0
448 1778 1779 0
1780 1779 449 0
1775 448 1779 0
1775 1779 1780 0
111 1775 1780 0
1782 1777 112 0
1781 449 1777 0
1781 1777 1782 0
451 1781 1782 0
1784 1780 449 0
1783 111 1780 0
1783 1780 1784 0
450 1783 1784 0
1785 1781 451 0
1784 449 1781 0
1784 1781 1785 0
450 1784 1785 0
1787 1785 451 0
1786 450 1785 0
1786 1785 1787 0
31 1786 1787 0
1789 1741 29 0
1788 441 1741 0
1788 1741 1789 0
453 1788 1789 0
1791 1746 441 0
1790 110 1746 0
1790 1746 1791 0
452 1790 1791 0
1792 1788 453 0
1791 441 1788 0
1791 1788 1792 0
452 1791 1792 0
1794 1792 453 0
1793 452 1792 0
1793 1792 1794 0
114 1793 1794 0
1796 1758 110 0
1795 444 1758 0
1795 1758 1796 0
455 1795 1796 0
1798 1761 444 0
1797 8 1761 0
1797 1761 1798 0
454 1797 1798 0
1799 1795 455 0
1798 444 1795 0
1798 1795 1799 0
454 1798 1799 0
1801 1799 455 0
1800 454 1799 0
1800 1799 1801 0
113 1800 1801 0
1803 1793 114 0
1802 452 1793 0
1802 1793 1803 0
456 1802 1803 0
1804 1790 452 0
1796 110 1790 0
1796 1790 1804 0
455 1796 1804 0
1805 1802 456 0
1804 452 1802 0
1804 1802 1805 0
455 1804 1805 0
1806 1805 456 0
1801 455 1805 0
1801 1805 1806 0
113 1801 1806 0
1808 1803 114 0
1807 456 1803 0
1807 1803 1808 0
458 1807 1808 0
1810 1806 456 0
1809 113 1806 0
1809 1806 1810 0
457 1809 1810 0
1811 1807 458 0
1810 456 1807 0
1810 1807 1811 0
457 1810 1811 0
1813 1811 458 0
1812 457 1811 0
1812 1811 1813 0
30 1812 1813 0
1815 1786 31 0
1814 450 1786 0
1814 1786 1815 0
460 1814 1815 0
1817 1783 450 0
1816 111 1783 0
1816 1783 1817 0
459 1816 1817 0
1818 1814 460 0
1817 450 1814 0
1817 1814 1818 0
459 1817 1818 0
1820 1818 460 0
1819 459 1818 0
1819 1818 1820 0
115 1819 1820 0
1822 1774 111 0
1821 447 1774 0
1821 1774 1822 0
461 1821 1822 0
1823 1771 447 0
1789 29 1771 0
1789 1771 1823 0
453 1789 1823 0
1824 1821 461 0
1823 447 1821 0
1823 1821 1824 0
453 1823 1824 0
1825 1824 461 0
1794 453 1824 0
1794 1824 1825 0
114 1794 1825 0
1827 1819 115 0
1826 459 1819 0
1826 1819 1827 0
462 1826 1827 0
1828 1816 459 0
1822 111 1816 0
1822 1816 1828 0
461 1822 1828 0
1829 1826 462 0
1828 459 1826 0
1828 1826 1829 0
461 1828 1829 0
1830 1829 462 0
1825 461 1829 0
1825 1829 1830 0
114 1825 1830 0
1832 1827 115 0
1831 462 1827 0
1831 1827 1832 0
463 1831 1832 0
1833 1830 462 0
1808 114 1830 0
1808 1830 1833 0
458 1808 1833 0
1834 1831 463 0
1833 462 1831 0
1833 1831 1834 0
458 1833 1834 0
1835 1834 463 0
1813 458 1834 0
1813 1834 1835 0
30 1813 1835 0
1837 1815 31 0
1836 460 1815 0
1836 1815 1837 0
465 1836 1837 0
1839 1820 460 0
1838 115 1820 0
1838 1820 1839 0
464 1838 1839 0
1840 1836 465 0
1839 460 1836 0
1839 1836 1840 0
464 1839 1840 0
1842 1840 465 0
1841 464 1840 0
1841 1840 1842 0
117 1841 1842 0
1844 1832 115 0
1843 463 1832 0
1843 1832 1844 0
467 1843 1844 0
1846 1835 463 0
1845 30 1835 0
1845 1835 1846 0
466 1845 1846 0
1847 1843 467 0
1846 463 1843 0
1846 1843 1847 0
466 1846 1847 0
1849 1847 467 0
1848 466 1847 0
1848 1847 1849 0
116 1848 1849 0
1851 1841 117 0
1850 464 1841 0
1850 1841 1851 0
468 1850 1851 0
1852 1838 464 0
1844 115 1838 0
1844 1838 1852 0
467 1844 1852 0
1853 1850 468 0
1852 464 1850 0
1852 1850 1853 0
467 1852 1853 0
1854 1853 468 0
1849 467 1853 0
1849 1853 1854 0
116 1849 1854 0
1856 1851 117 0
1855 468 1851 0
1855 1851 1856 0
470 1855 1856 0
1858 1854 468 0
1857 116 1854 0
1857 1854 1858 0
469 1857 1858 0
1859 1855 470 0
1858 468 1855 0
1858 1855 1859 0
469 1858 1859 0
2419 1859 470 0
2420 469 1859 0
2420 1859 2419 0
1861 747 1 0
1860 187 747 0
1860 747 1861 0
472 1860 1861 0
1863 744 187 0
1862 44 744 0
1862 744 1863 0
471 1862 1863 0
1864 1860 472 0
1863 187 1860 0
1863 1860 1864 0
471 1863 1864 0
1866 1864 472 0
1865 471 1864 0
1865 1864 1866 0
118 1865 1866 0
1868 735 44 0
1867 184 735 0
1867 735 1868 0
473 1867 1868 0
2421 2406 184 0
2422 1867 473 0
2421 184 1867 0
2421 1867 2422 0
1869 2422 473 0
2423 2422 1869 0
2424 2423 1869 0
1871 1865 118 0
1870 471 1865 0
1870 1865 1871 0
474 1870 1871 0
1872 1862 471 0
1868 44 1862 0
1868 1862 1872 0
473 1868 1872 0
1873 1870 474 0
1872 471 1870 0
1872 1870 1873 0
473 1872 1873 0
1874 1873 474 0
1869 473 1873 0
1869 1873 1874 0
2424 1869 1874 0
1876 1871 118 0
1875 474 1871 0
1875 1871 1876 0
475 1875 1876 0
2425 1874 474 0
2426 2424 1874 0
2426 1874 2425 0
2427 1875 475 0
2425 474 1875 0
2425 1875 2427 0
2428 2427 475 0
2429 469 2420 0
2430 1857 469 0
2431 116 1857 0
2431 1857 2430 0
2430 469 2429 0
1878 1848 116 0
1877 466 1848 0
1877 1848 1878 0
477 1877 1878 0
1880 1845 466 0
1879 30 1845 0
1879 1845 1880 0
476 1879 1880 0
1881 1877 477 0
1880 466 1877 0
1880 1877 1881 0
476 1880 1881 0
1883 1881 477 0
1882 476 1881 0
1882 1881 1883 0
119 1882 1883 0
1878 116 2431 0
1878 2431 2432 0
477 1878 2432 0
477 2432 2433 0
1883 477 2433 0
1883 2433 2434 0
119 1883 2434 0
2435 119 2434 0
1885 1812 30 0
1884 457 1812 0
1884 1812 1885 0
479 1884 1885 0
1887 1809 457 0
1886 113 1809 0
1886 1809 1887 0
478 1886 1887 0
1888 1884 479 0
1887 457 1884 0
1887 1884 1888 0
478 1887 1888 0
1890 1888 479 0
1889 478 1888 0
1889 1888 1890 0
121 1889 1890 0
1892 1800 113 0
1891 454 1800 0
1891 1800 1892 0
481 1891 1892 0
1894 1797 454 0
1893 8 1797 0
1893 1797 1894 0
480 1893 1894 0
1895 1891 481 0
1894 454 1891 0
1894 1891 1895 0
480 1894 1895 0
1897 1895 481 0
1896 480 1895 0
1896 1895 1897 0
120 1896 1897 0
1899 1889 121 0
1898 478 1889 0
1898 1889 1899 0
482 1898 1899 0
1900 1886 478 0
1892 113 1886 0
1892 1886 1900 0
481 1892 1900 0
1901 1898 482 0
1900 478 1898 0
1900 1898 1901 0
481 1900 1901 0
1902 1901 482 0
1897 481 1901 0
1897 1901 1902 0
120 1897 1902 0
1904 1899 121 0
1903 482 1899 0
1903 1899 1904 0
2436 1903 1904 0
1906 1902 482 0
1905 120 1902 0
1905 1902 1906 0
2437 1905 1906 0
2438 1903 2436 0
1906 482 1903 0
1906 1903 2438 0
2437 1906 2438 0
2439 119 2435 0
2440 1882 119 0
1907 476 1882 0
1907 1882 2440 0
2441 1907 2440 0
1908 1879 476 0
1885 30 1879 0
1885 1879 1908 0
479 1885 1908 0
1909 1907 2441 0
1908 476 1907 0
1908 1907 1909 0
479 1908 1909 0
1910 1909 2441 0
1890 479 1909 0
1890 1909 1910 0
121 1890 1910 0
2440 119 2439 0
1910 2441 2442 0
1910 2442 2443 0
121 1910 2443 0
1904 121 2443 0
1904 2443 2444 0
2436 1904 2444 0
1912 1668 8 0
1911 421 1668 0
1911 1668 1912 0
484 1911 1912 0
1914 1665 421 0
1913 104 1665 0
1913 1665 1914 0
483 1913 1914 0
1915 1911 484 0
1914 421 1911 0
1914 1911 1915 0
483 1914 1915 0
1917 1915 484 0
1916 483 1915 0
1916 1915 1917 0
123 1916 1917 0
1919 1656 104 0
1918 418 1656 0
1918 1656 1919 0
486 1918 1919 0
1921 1653 418 0
1920 27 1653 0
1920 1653 1921 0
485 1920 1921 0
1922 1918 486 0
1921 418 1918 0
1921 1918 1922 0
485 1921 1922 0
1924 1922 486 0
1923 485 1922 0
1923 1922 1924 0
122 1923 1924 0
1926 1916 123 0
1925 483 1916 0
1925 1916 1926 0
487 1925 1926 0
1927 1913 483 0
1919 104 1913 0
1919 1913 1927 0
486 1919 1927 0
1928 1925 487 0
1927 483 1925 0
1927 1925 1928 0
486 1927 1928 0
1929 1928 487 0
1924 486 1928 0
1924 1928 1929 0
122 1924 1929 0
1931 1926 123 0
1930 487 1926 0
1930 1926 1931 0
489 1930 1931 0
1933 1929 487 0
1932 122 1929 0
1932 1929 1933 0
488 1932 1933 0
1934 1930 489 0
1933 487 1930 0
1933 1930 1934 0
488 1933 1934 0
2445 1934 489 0
2446 488 1934 0
2446 1934 2445 0
1936 1620 27 0
1935 409 1620 0
1935 1620 1936 0
491 1935 1936 0
1938 1617 409 0
1937 101 1617 0
1937 1617 1938 0
490 1937 1938 0
1939 1935 491 0
1938 409 1935 0
1938 1935 1939 0
490 1938 1939 0
1941 1939 491 0
1940 490 1939 0
1940 1939 1941 0
124 1940 1941 0
1943 1608 101 0
1942 406 1608 0
1942 1608 1943 0
492 1942 1943 0
1944 1605 406 0
1861 1 1605 0
1861 1605 1944 0
472 1861 1944 0
1945 1942 492 0
1944 406 1942 0
1944 1942 1945 0
472 1944 1945 0
1946 1945 492 0
1866 472 1945 0
1866 1945 1946 0
118 1866 1946 0
1948 1940 124 0
1947 490 1940 0
1947 1940 1948 0
493 1947 1948 0
1949 1937 490 0
1943 101 1937 0
1943 1937 1949 0
492 1943 1949 0
1950 1947 493 0
1949 490 1947 0
1949 1947 1950 0
492 1949 1950 0
1951 1950 493 0
1946 492 1950 0
1946 1950 1951 0
118 1946 1951 0
1953 1948 124 0
1952 493 1948 0
1952 1948 1953 0
494 1952 1953 0
1954 1951 493 0
1876 118 1951 0
1876 1951 1954 0
475 1876 1954 0
1955 1952 494 0
1954 493 1952 0
1954 1952 1955 0
475 1954 1955 0
2447 1955 494 0
2428 475 1955 0
2428 1955 2447 0
2448 488 2446 0
1957 1932 488 0
1956 122 1932 0
1956 1932 1957 0
495 1956 1957 0
1958 2448 2449 0
1957 488 2448 0
1957 2448 1958 0
495 1957 1958 0
2450 1958 2449 0
1959 495 1958 0
1959 1958 2450 0
2451 1959 2450 0
1961 1923 122 0
1960 485 1923 0
1960 1923 1961 0
496 1960 1961 0
1962 1920 485 0
1936 27 1920 0
1936 1920 1962 0
491 1936 1962 0
1963 1960 496 0
1962 485 1960 0
1962 1960 1963 0
491 1962 1963 0
1964 1963 496 0
1941 491 1963 0
1941 1963 1964 0
124 1941 1964 0
1966 1959 2451 0
1965 495 1959 0
1965 1959 1966 0
497 1965 1966 0
1967 1956 495 0
1961 122 1956 0
1961 1956 1967 0
496 1961 1967 0
1968 1965 497 0
1967 495 1965 0
1967 1965 1968 0
496 1967 1968 0
1969 1968 497 0
1964 496 1968 0
1964 1968 1969 0
124 1964 1969 0
2452 1966 2451 0
1970 497 1966 0
1970 1966 2452 0
2453 1970 2452 0
1971 1969 497 0
1953 124 1969 0
1953 1969 1971 0
494 1953 1971 0
2454 1970 2453 0
1971 497 1970 0
1971 1970 2454 0
494 1971 2454 0
2447 494 2454 0
1973 1905 2437 0
1972 120 1905 0
1972 1905 1973 0
498 1972 1973 0
1973 2437 2455 0
1973 2455 2456 0
498 1973 2456 0
2457 498 2456 0
1975 1896 120 0
1974 480 1896 0
1974 1896 1975 0
499 1974 1975 0
1976 1893 480 0
1912 8 1893 0
1912 1893 1976 0
484 1912 1976 0
1977 1974 499 0
1976 480 1974 0
1976 1974 1977 0
484 1976 1977 0
1978 1977 499 0
1917 484 1977 0
1917 1977 1978 0
123 1917 1978 0
1979 498 2457 0
1979 2457 2458 0
500 1979 2458 0
1980 1972 498 0
1975 120 1972 0
1975 1972 1980 0
499 1975 1980 0
1981 1979 500 0
1980 498 1979 0
1980 1979 1981 0
499 1980 1981 0
1982 1981 500 0
1978 499 1981 0
1978 1981 1982 0
123 1978 1982 0
2459 500 2458 0
1983 1982 500 0
1931 123 1982 0
