#!ascii - generated by CreateLabelFiles project 
3827 7340
2213 2203 143 0
2212 553 2203 0
2212 2203 2213 0
557 2212 2213 0
2214 2200 553 0
2206 141 2200 0
2206 2200 2214 0
556 2206 2214 0
2215 2212 557 0
2214 553 2212 0
2214 2212 2215 0
556 2214 2215 0
2216 2215 557 0
2211 556 2215 0
2211 2215 2216 0
142 2211 2216 0
2218 2213 143 0
2217 557 2213 0
2217 2213 2218 0
559 2217 2218 0
2220 2216 557 0
2219 142 2216 0
2219 2216 2220 0
558 2219 2220 0
2221 2217 559 0
2220 557 2217 0
2220 2217 2221 0
558 2220 2221 0
2223 2221 559 0
2222 558 2221 0
2222 2221 2223 0
8 2222 2223 0
2225 2122 9 0
2224 532 2122 0
2224 2122 2225 0
561 2224 2225 0
2227 2119 532 0
2226 135 2119 0
2226 2119 2227 0
560 2226 2227 0
2228 2224 561 0
2227 532 2224 0
2227 2224 2228 0
560 2227 2228 0
2230 2228 561 0
2229 560 2228 0
2229 2228 2230 0
145 2229 2230 0
2232 2110 135 0
2231 529 2110 0
2231 2110 2232 0
563 2231 2232 0
2234 2107 529 0
2233 33 2107 0
2233 2107 2234 0
562 2233 2234 0
2235 2231 563 0
2234 529 2231 0
2234 2231 2235 0
562 2234 2235 0
2237 2235 563 0
2236 562 2235 0
2236 2235 2237 0
144 2236 2237 0
2239 2229 145 0
2238 560 2229 0
2238 2229 2239 0
564 2238 2239 0
2240 2226 560 0
2232 135 2226 0
2232 2226 2240 0
563 2232 2240 0
2241 2238 564 0
2240 560 2238 0
2240 2238 2241 0
563 2240 2241 0
2242 2241 564 0
2237 563 2241 0
2237 2241 2242 0
144 2237 2242 0
2244 2239 145 0
2243 564 2239 0
2243 2239 2244 0
566 2243 2244 0
2246 2242 564 0
2245 144 2242 0
2245 2242 2246 0
565 2245 2246 0
2247 2243 566 0
2246 564 2243 0
2246 2243 2247 0
565 2246 2247 0
2249 2247 566 0
2248 565 2247 0
2248 2247 2249 0
37 2248 2249 0
2251 2074 33 0
2250 520 2074 0
2250 2074 2251 0
568 2250 2251 0
2253 2071 520 0
2252 132 2071 0
2252 2071 2253 0
567 2252 2253 0
2254 2250 568 0
2253 520 2250 0
2253 2250 2254 0
567 2253 2254 0
2256 2254 568 0
2255 567 2254 0
2255 2254 2256 0
146 2255 2256 0
2258 2062 132 0
2257 517 2062 0
2257 2062 2258 0
569 2257 2258 0
2259 2059 517 0
2125 7 2059 0
2125 2059 2259 0
535 2125 2259 0
2260 2257 569 0
2259 517 2257 0
2259 2257 2260 0
535 2259 2260 0
2261 2260 569 0
2130 535 2260 0
2130 2260 2261 0
138 2130 2261 0
2263 2255 146 0
2262 567 2255 0
2262 2255 2263 0
570 2262 2263 0
2264 2252 567 0
2258 132 2252 0
2258 2252 2264 0
569 2258 2264 0
2265 2262 570 0
2264 567 2262 0
2264 2262 2265 0
569 2264 2265 0
2266 2265 570 0
2261 569 2265 0
2261 2265 2266 0
138 2261 2266 0
2268 2263 146 0
2267 570 2263 0
2267 2263 2268 0
571 2267 2268 0
2269 2266 570 0
2144 138 2266 0
2144 2266 2269 0
540 2144 2269 0
2270 2267 571 0
2269 570 2267 0
2269 2267 2270 0
540 2269 2270 0
2271 2270 571 0
2149 540 2270 0
2149 2270 2271 0
36 2149 2271 0
2273 2248 37 0
2272 565 2248 0
2272 2248 2273 0
573 2272 2273 0
2275 2245 565 0
2274 144 2245 0
2274 2245 2275 0
572 2274 2275 0
2276 2272 573 0
2275 565 2272 0
2275 2272 2276 0
572 2275 2276 0
2278 2276 573 0
2277 572 2276 0
2277 2276 2278 0
147 2277 2278 0
2280 2236 144 0
2279 562 2236 0
2279 2236 2280 0
574 2279 2280 0
2281 2233 562 0
2251 33 2233 0
2251 2233 2281 0
568 2251 2281 0
2282 2279 574 0
2281 562 2279 0
2281 2279 2282 0
568 2281 2282 0
2283 2282 574 0
2256 568 2282 0
2256 2282 2283 0
146 2256 2283 0
2285 2277 147 0
2284 572 2277 0
2284 2277 2285 0
575 2284 2285 0
2286 2274 572 0
2280 144 2274 0
2280 2274 2286 0
574 2280 2286 0
2287 2284 575 0
2286 572 2284 0
2286 2284 2287 0
574 2286 2287 0
2288 2287 575 0
2283 574 2287 0
2283 2287 2288 0
146 2283 2288 0
2290 2285 147 0
2289 575 2285 0
2289 2285 2290 0
576 2289 2290 0
2291 2288 575 0
2268 146 2288 0
2268 2288 2291 0
571 2268 2291 0
2292 2289 576 0
2291 575 2289 0
2291 2289 2292 0
571 2291 2292 0
2293 2292 576 0
2271 571 2292 0
2271 2292 2293 0
36 2271 2293 0
2295 2273 37 0
2294 573 2273 0
2294 2273 2295 0
578 2294 2295 0
2297 2278 573 0
2296 147 2278 0
2296 2278 2297 0
577 2296 2297 0
2298 2294 578 0
2297 573 2294 0
2297 2294 2298 0
577 2297 2298 0
2300 2298 578 0
2299 577 2298 0
2299 2298 2300 0
148 2299 2300 0
2302 2290 147 0
2301 576 2290 0
2301 2290 2302 0
579 2301 2302 0
2303 2293 576 0
2199 36 2293 0
2199 2293 2303 0
554 2199 2303 0
2304 2301 579 0
2303 576 2301 0
2303 2301 2304 0
554 2303 2304 0
2305 2304 579 0
2204 554 2304 0
2204 2304 2305 0
143 2204 2305 0
2307 2299 148 0
2306 577 2299 0
2306 2299 2307 0
580 2306 2307 0
2308 2296 577 0
2302 147 2296 0
2302 2296 2308 0
579 2302 2308 0
2309 2306 580 0
2308 577 2306 0
2308 2306 2309 0
579 2308 2309 0
2310 2309 580 0
2305 579 2309 0
2305 2309 2310 0
143 2305 2310 0
2312 2307 148 0
2311 580 2307 0
2311 2307 2312 0
581 2311 2312 0
2313 2310 580 0
2218 143 2310 0
2218 2310 2313 0
559 2218 2313 0
2314 2311 581 0
2313 580 2311 0
2313 2311 2314 0
559 2313 2314 0
2315 2314 581 0
2223 559 2314 0
2223 2314 2315 0
8 2223 2315 0
2317 2225 9 0
2316 561 2225 0
2316 2225 2317 0
583 2316 2317 0
2319 2230 561 0
2318 145 2230 0
2318 2230 2319 0
582 2318 2319 0
2320 2316 583 0
2319 561 2316 0
2319 2316 2320 0
582 2319 2320 0
2322 2320 583 0
2321 582 2320 0
2321 2320 2322 0
150 2321 2322 0
2324 2244 145 0
2323 566 2244 0
2323 2244 2324 0
585 2323 2324 0
2326 2249 566 0
2325 37 2249 0
2325 2249 2326 0
584 2325 2326 0
2327 2323 585 0
2326 566 2323 0
2326 2323 2327 0
584 2326 2327 0
2329 2327 585 0
2328 584 2327 0
2328 2327 2329 0
149 2328 2329 0
2331 2321 150 0
2330 582 2321 0
2330 2321 2331 0
586 2330 2331 0
2332 2318 582 0
2324 145 2318 0
2324 2318 2332 0
585 2324 2332 0
2333 2330 586 0
2332 582 2330 0
2332 2330 2333 0
585 2332 2333 0
2334 2333 586 0
2329 585 2333 0
2329 2333 2334 0
149 2329 2334 0
2336 2331 150 0
2335 586 2331 0
2335 2331 2336 0
588 2335 2336 0
2338 2334 586 0
2337 149 2334 0
2337 2334 2338 0
587 2337 2338 0
2339 2335 588 0
2338 586 2335 0
2338 2335 2339 0
587 2338 2339 0
2341 2339 588 0
2340 587 2339 0
2340 2339 2341 0
39 2340 2341 0
2343 2295 37 0
2342 578 2295 0
2342 2295 2343 0
590 2342 2343 0
2345 2300 578 0
2344 148 2300 0
2344 2300 2345 0
589 2344 2345 0
2346 2342 590 0
2345 578 2342 0
2345 2342 2346 0
589 2345 2346 0
2348 2346 590 0
2347 589 2346 0
2347 2346 2348 0
152 2347 2348 0
2350 2312 148 0
2349 581 2312 0
2349 2312 2350 0
592 2349 2350 0
2352 2315 581 0
2351 8 2315 0
2351 2315 2352 0
591 2351 2352 0
2353 2349 592 0
2352 581 2349 0
2352 2349 2353 0
591 2352 2353 0
2355 2353 592 0
2354 591 2353 0
2354 2353 2355 0
151 2354 2355 0
2357 2347 152 0
2356 589 2347 0
2356 2347 2357 0
593 2356 2357 0
2358 2344 589 0
2350 148 2344 0
2350 2344 2358 0
592 2350 2358 0
2359 2356 593 0
2358 589 2356 0
2358 2356 2359 0
592 2358 2359 0
2360 2359 593 0
2355 592 2359 0
2355 2359 2360 0
151 2355 2360 0
2362 2357 152 0
2361 593 2357 0
2361 2357 2362 0
595 2361 2362 0
2364 2360 593 0
2363 151 2360 0
2363 2360 2364 0
594 2363 2364 0
2365 2361 595 0
2364 593 2361 0
2364 2361 2365 0
594 2364 2365 0
2367 2365 595 0
2366 594 2365 0
2366 2365 2367 0
38 2366 2367 0
2369 2340 39 0
2368 587 2340 0
2368 2340 2369 0
597 2368 2369 0
2371 2337 587 0
2370 149 2337 0
2370 2337 2371 0
596 2370 2371 0
2372 2368 597 0
2371 587 2368 0
2371 2368 2372 0
596 2371 2372 0
2374 2372 597 0
2373 596 2372 0
2373 2372 2374 0
153 2373 2374 0
2376 2328 149 0
2375 584 2328 0
2375 2328 2376 0
598 2375 2376 0
2377 2325 584 0
2343 37 2325 0
2343 2325 2377 0
590 2343 2377 0
2378 2375 598 0
2377 584 2375 0
2377 2375 2378 0
590 2377 2378 0
2379 2378 598 0
2348 590 2378 0
2348 2378 2379 0
152 2348 2379 0
2381 2373 153 0
2380 596 2373 0
2380 2373 2381 0
599 2380 2381 0
2382 2370 596 0
2376 149 2370 0
2376 2370 2382 0
598 2376 2382 0
2383 2380 599 0
2382 596 2380 0
2382 2380 2383 0
598 2382 2383 0
2384 2383 599 0
2379 598 2383 0
2379 2383 2384 0
152 2379 2384 0
2386 2381 153 0
2385 599 2381 0
2385 2381 2386 0
600 2385 2386 0
2387 2384 599 0
2362 152 2384 0
2362 2384 2387 0
595 2362 2387 0
2388 2385 600 0
2387 599 2385 0
2387 2385 2388 0
595 2387 2388 0
2389 2388 600 0
2367 595 2388 0
2367 2388 2389 0
38 2367 2389 0
2391 2369 39 0
2390 597 2369 0
2390 2369 2391 0
602 2390 2391 0
2393 2374 597 0
2392 153 2374 0
2392 2374 2393 0
601 2392 2393 0
2394 2390 602 0
2393 597 2390 0
2393 2390 2394 0
601 2393 2394 0
2396 2394 602 0
2395 601 2394 0
2395 2394 2396 0
155 2395 2396 0
2398 2386 153 0
2397 600 2386 0
2397 2386 2398 0
604 2397 2398 0
2400 2389 600 0
2399 38 2389 0
2399 2389 2400 0
603 2399 2400 0
2401 2397 604 0
2400 600 2397 0
2400 2397 2401 0
603 2400 2401 0
2403 2401 604 0
2402 603 2401 0
2402 2401 2403 0
154 2402 2403 0
2405 2395 155 0
2404 601 2395 0
2404 2395 2405 0
605 2404 2405 0
2406 2392 601 0
2398 153 2392 0
2398 2392 2406 0
604 2398 2406 0
2407 2404 605 0
2406 601 2404 0
2406 2404 2407 0
604 2406 2407 0
2408 2407 605 0
2403 604 2407 0
2403 2407 2408 0
154 2403 2408 0
2410 2405 155 0
2409 605 2405 0
2409 2405 2410 0
607 2409 2410 0
2412 2408 605 0
2411 154 2408 0
2411 2408 2412 0
606 2411 2412 0
2413 2409 607 0
2412 605 2409 0
2412 2409 2413 0
606 2412 2413 0
2415 2413 607 0
2414 606 2413 0
2414 2413 2415 0
0 2414 2415 0
608 3674 3675 0
3676 3674 608 0
3677 3676 608 0
3678 1563 3635 0
3679 394 1563 0
3679 1563 3678 0
2417 1568 394 0
2416 26 1568 0
2416 1568 2417 0
3680 2416 2417 0
2417 394 3679 0
2417 3679 3681 0
3680 2417 3681 0
2419 1618 26 0
2418 408 1618 0
2418 1618 2419 0
610 2418 2419 0
2421 1623 408 0
2420 105 1623 0
2420 1623 2421 0
609 2420 2421 0
2422 2418 610 0
2421 408 2418 0
2421 2418 2422 0
609 2421 2422 0
3682 2422 610 0
3683 609 2422 0
3683 2422 3682 0
2424 1637 105 0
2423 413 1637 0
2423 1637 2424 0
612 2423 2424 0
2426 1642 413 0
2425 3 1642 0
2425 1642 2426 0
611 2425 2426 0
2427 2423 612 0
2426 413 2423 0
2426 2423 2427 0
611 2426 2427 0
2429 2427 612 0
2428 611 2427 0
2428 2427 2429 0
156 2428 2429 0
2430 609 3683 0
2430 3683 3684 0
613 2430 3684 0
2431 2420 609 0
2424 105 2420 0
2424 2420 2431 0
612 2424 2431 0
2432 2430 613 0
2431 609 2430 0
2431 2430 2432 0
612 2431 2432 0
2433 2432 613 0
2429 612 2432 0
2429 2432 2433 0
156 2429 2433 0
3685 613 3684 0
2434 2433 613 0
3686 156 2433 0
3686 2433 2434 0
3687 3686 2434 0
2434 613 3685 0
2434 3685 3688 0
3687 2434 3688 0
3689 2416 3680 0
2419 26 2416 0
2419 2416 3689 0
610 2419 3689 0
610 3689 3690 0
3682 610 3690 0
2436 2025 3 0
2435 509 2025 0
2435 2025 2436 0
615 2435 2436 0
2438 2030 509 0
2437 131 2030 0
2437 2030 2438 0
614 2437 2438 0
2439 2435 615 0
2438 509 2435 0
2438 2435 2439 0
614 2438 2439 0
2441 2439 615 0
2440 614 2439 0
2440 2439 2441 0
158 2440 2441 0
2443 2044 131 0
2442 514 2044 0
2442 2044 2443 0
617 2442 2443 0
2445 2049 514 0
2444 34 2049 0
2444 2049 2445 0
616 2444 2445 0
2446 2442 617 0
2445 514 2442 0
2445 2442 2446 0
616 2445 2446 0
2448 2446 617 0
2447 616 2446 0
2447 2446 2448 0
157 2447 2448 0
2450 2440 158 0
2449 614 2440 0
2449 2440 2450 0
618 2449 2450 0
2451 2437 614 0
2443 131 2437 0
2443 2437 2451 0
617 2443 2451 0
2452 2449 618 0
2451 614 2449 0
2451 2449 2452 0
617 2451 2452 0
2453 2452 618 0
2448 617 2452 0
2448 2452 2453 0
157 2448 2453 0
2455 2450 158 0
2454 618 2450 0
2454 2450 2455 0
620 2454 2455 0
2457 2453 618 0
2456 157 2453 0
2456 2453 2457 0
619 2456 2457 0
2458 2454 620 0
2457 618 2454 0
2457 2454 2458 0
619 2457 2458 0
2460 2458 620 0
2459 619 2458 0
2459 2458 2460 0
41 2459 2460 0
2462 2099 34 0
2461 528 2099 0
2461 2099 2462 0
622 2461 2462 0
2464 2104 528 0
2463 136 2104 0
2463 2104 2464 0
621 2463 2464 0
2465 2461 622 0
2464 528 2461 0
2464 2461 2465 0
621 2464 2465 0
2467 2465 622 0
2466 621 2465 0
2466 2465 2467 0
160 2466 2467 0
2469 2118 136 0
2468 533 2118 0
2468 2118 2469 0
624 2468 2469 0
2471 2123 533 0
2470 9 2123 0
2470 2123 2471 0
623 2470 2471 0
2472 2468 624 0
2471 533 2468 0
2471 2468 2472 0
623 2471 2472 0
2474 2472 624 0
2473 623 2472 0
2473 2472 2474 0
159 2473 2474 0
2476 2466 160 0
2475 621 2466 0
2475 2466 2476 0
625 2475 2476 0
2477 2463 621 0
2469 136 2463 0
2469 2463 2477 0
624 2469 2477 0
2478 2475 625 0
2477 621 2475 0
2477 2475 2478 0
624 2477 2478 0
2479 2478 625 0
2474 624 2478 0
2474 2478 2479 0
159 2474 2479 0
2481 2476 160 0
2480 625 2476 0
2480 2476 2481 0
627 2480 2481 0
2483 2479 625 0
2482 159 2479 0
2482 2479 2483 0
626 2482 2483 0
2484 2480 627 0
2483 625 2480 0
2483 2480 2484 0
626 2483 2484 0
2486 2484 627 0
2485 626 2484 0
2485 2484 2486 0
40 2485 2486 0
2488 2459 41 0
2487 619 2459 0
2487 2459 2488 0
629 2487 2488 0
2490 2456 619 0
2489 157 2456 0
2489 2456 2490 0
628 2489 2490 0
2491 2487 629 0
2490 619 2487 0
2490 2487 2491 0
628 2490 2491 0
2493 2491 629 0
2492 628 2491 0
2492 2491 2493 0
161 2492 2493 0
2495 2447 157 0
2494 616 2447 0
2494 2447 2495 0
630 2494 2495 0
2496 2444 616 0
2462 34 2444 0
2462 2444 2496 0
622 2462 2496 0
2497 2494 630 0
2496 616 2494 0
2496 2494 2497 0
622 2496 2497 0
2498 2497 630 0
2467 622 2497 0
2467 2497 2498 0
160 2467 2498 0
2500 2492 161 0
2499 628 2492 0
2499 2492 2500 0
631 2499 2500 0
2501 2489 628 0
2495 157 2489 0
2495 2489 2501 0
630 2495 2501 0
2502 2499 631 0
2501 628 2499 0
2501 2499 2502 0
630 2501 2502 0
2503 2502 631 0
2498 630 2502 0
2498 2502 2503 0
160 2498 2503 0
2505 2500 161 0
2504 631 2500 0
2504 2500 2505 0
632 2504 2505 0
2506 2503 631 0
2481 160 2503 0
2481 2503 2506 0
627 2481 2506 0
2507 2504 632 0
2506 631 2504 0
2506 2504 2507 0
627 2506 2507 0
2508 2507 632 0
2486 627 2507 0
2486 2507 2508 0
40 2486 2508 0
2510 2488 41 0
2509 629 2488 0
2509 2488 2510 0
634 2509 2510 0
2512 2493 629 0
2511 161 2493 0
2511 2493 2512 0
633 2511 2512 0
2513 2509 634 0
2512 629 2509 0
2512 2509 2513 0
633 2512 2513 0
3691 2513 634 0
3692 633 2513 0
3692 2513 3691 0
2515 2505 161 0
2514 632 2505 0
2514 2505 2515 0
636 2514 2515 0
2517 2508 632 0
2516 40 2508 0
2516 2508 2517 0
635 2516 2517 0
2518 2514 636 0
2517 632 2514 0
2517 2514 2518 0
635 2517 2518 0
2520 2518 636 0
2519 635 2518 0
2519 2518 2520 0
162 2519 2520 0
2521 633 3692 0
2521 3692 3693 0
637 2521 3693 0
2522 2511 633 0
2515 161 2511 0
2515 2511 2522 0
636 2515 2522 0
2523 2521 637 0
2522 633 2521 0
2522 2521 2523 0
636 2522 2523 0
2524 2523 637 0
2520 636 2523 0
2520 2523 2524 0
162 2520 2524 0
3694 637 3693 0
2525 2524 637 0
3695 162 2524 0
3695 2524 2525 0
3696 3695 2525 0
2525 637 3694 0
2525 3694 3697 0
3696 2525 3697 0
2527 2317 9 0
2526 583 2317 0
2526 2317 2527 0
639 2526 2527 0
2529 2322 583 0
2528 150 2322 0
2528 2322 2529 0
638 2528 2529 0
2530 2526 639 0
2529 583 2526 0
2529 2526 2530 0
638 2529 2530 0
2532 2530 639 0
2531 638 2530 0
2531 2530 2532 0
164 2531 2532 0
2534 2336 150 0
2533 588 2336 0
2533 2336 2534 0
641 2533 2534 0
2536 2341 588 0
2535 39 2341 0
2535 2341 2536 0
640 2535 2536 0
2537 2533 641 0
2536 588 2533 0
2536 2533 2537 0
640 2536 2537 0
2539 2537 641 0
2538 640 2537 0
2538 2537 2539 0
163 2538 2539 0
2541 2531 164 0
2540 638 2531 0
2540 2531 2541 0
642 2540 2541 0
2542 2528 638 0
2534 150 2528 0
2534 2528 2542 0
641 2534 2542 0
2543 2540 642 0
2542 638 2540 0
2542 2540 2543 0
641 2542 2543 0
2544 2543 642 0
2539 641 2543 0
2539 2543 2544 0
163 2539 2544 0
2546 2541 164 0
2545 642 2541 0
2545 2541 2546 0
644 2545 2546 0
2548 2544 642 0
2547 163 2544 0
2547 2544 2548 0
643 2547 2548 0
2549 2545 644 0
2548 642 2545 0
2548 2545 2549 0
643 2548 2549 0
2551 2549 644 0
2550 643 2549 0
2550 2549 2551 0
43 2550 2551 0
2553 2391 39 0
2552 602 2391 0
2552 2391 2553 0
646 2552 2553 0
2555 2396 602 0
2554 155 2396 0
2554 2396 2555 0
645 2554 2555 0
2556 2552 646 0
2555 602 2552 0
2555 2552 2556 0
645 2555 2556 0
2558 2556 646 0
2557 645 2556 0
2557 2556 2558 0
166 2557 2558 0
2560 2410 155 0
2559 607 2410 0
2559 2410 2560 0
648 2559 2560 0
2562 2415 607 0
2561 0 2415 0
2561 2415 2562 0
647 2561 2562 0
2563 2559 648 0
2562 607 2559 0
2562 2559 2563 0
647 2562 2563 0
2565 2563 648 0
2564 647 2563 0
2564 2563 2565 0
165 2564 2565 0
2567 2557 166 0
2566 645 2557 0
2566 2557 2567 0
649 2566 2567 0
2568 2554 645 0
2560 155 2554 0
2560 2554 2568 0
648 2560 2568 0
2569 2566 649 0
2568 645 2566 0
2568 2566 2569 0
648 2568 2569 0
2570 2569 649 0
2565 648 2569 0
2565 2569 2570 0
165 2565 2570 0
2572 2567 166 0
2571 649 2567 0
2571 2567 2572 0
651 2571 2572 0
2574 2570 649 0
2573 165 2570 0
2573 2570 2574 0
650 2573 2574 0
2575 2571 651 0
2574 649 2571 0
2574 2571 2575 0
650 2574 2575 0
2577 2575 651 0
2576 650 2575 0
2576 2575 2577 0
42 2576 2577 0
2579 2550 43 0
2578 643 2550 0
2578 2550 2579 0
653 2578 2579 0
2581 2547 643 0
2580 163 2547 0
2580 2547 2581 0
652 2580 2581 0
2582 2578 653 0
2581 643 2578 0
2581 2578 2582 0
652 2581 2582 0
2584 2582 653 0
2583 652 2582 0
2583 2582 2584 0
167 2583 2584 0
2586 2538 163 0
2585 640 2538 0
2585 2538 2586 0
654 2585 2586 0
2587 2535 640 0
2553 39 2535 0
2553 2535 2587 0
646 2553 2587 0
2588 2585 654 0
2587 640 2585 0
2587 2585 2588 0
646 2587 2588 0
2589 2588 654 0
2558 646 2588 0
2558 2588 2589 0
166 2558 2589 0
2591 2583 167 0
2590 652 2583 0
2590 2583 2591 0
655 2590 2591 0
2592 2580 652 0
2586 163 2580 0
2586 2580 2592 0
654 2586 2592 0
2593 2590 655 0
2592 652 2590 0
2592 2590 2593 0
654 2592 2593 0
2594 2593 655 0
2589 654 2593 0
2589 2593 2594 0
166 2589 2594 0
2596 2591 167 0
2595 655 2591 0
2595 2591 2596 0
656 2595 2596 0
2597 2594 655 0
2572 166 2594 0
2572 2594 2597 0
651 2572 2597 0
2598 2595 656 0
2597 655 2595 0
2597 2595 2598 0
651 2597 2598 0
2599 2598 656 0
2577 651 2598 0
2577 2598 2599 0
42 2577 2599 0
2601 2579 43 0
2600 653 2579 0
2600 2579 2601 0
658 2600 2601 0
2603 2584 653 0
2602 167 2584 0
2602 2584 2603 0
657 2602 2603 0
2604 2600 658 0
2603 653 2600 0
2603 2600 2604 0
657 2603 2604 0
2606 2604 658 0
2605 657 2604 0
2605 2604 2606 0
169 2605 2606 0
2608 2596 167 0
2607 656 2596 0
2607 2596 2608 0
660 2607 2608 0
2610 2599 656 0
2609 42 2599 0
2609 2599 2610 0
659 2609 2610 0
2611 2607 660 0
2610 656 2607 0
2610 2607 2611 0
659 2610 2611 0
2613 2611 660 0
2612 659 2611 0
2612 2611 2613 0
168 2612 2613 0
2615 2605 169 0
2614 657 2605 0
2614 2605 2615 0
661 2614 2615 0
2616 2602 657 0
2608 167 2602 0
2608 2602 2616 0
660 2608 2616 0
2617 2614 661 0
2616 657 2614 0
2616 2614 2617 0
660 2616 2617 0
2618 2617 661 0
2613 660 2617 0
2613 2617 2618 0
168 2613 2618 0
2620 2615 169 0
2619 661 2615 0
2619 2615 2620 0
663 2619 2620 0
2622 2618 661 0
2621 168 2618 0
2621 2618 2622 0
662 2621 2622 0
2623 2619 663 0
2622 661 2619 0
2622 2619 2623 0
662 2622 2623 0
2625 2623 663 0
2624 662 2623 0
2624 2623 2625 0
10 2624 2625 0
2626 162 3695 0
2626 3695 3698 0
3699 2626 3698 0
2628 2519 162 0
2627 635 2519 0
2627 2519 2628 0
665 2627 2628 0
2630 2516 635 0
2629 40 2516 0
2629 2516 2630 0
664 2629 2630 0
2631 2627 665 0
2630 635 2627 0
2630 2627 2631 0
664 2630 2631 0
2633 2631 665 0
2632 664 2631 0
2632 2631 2633 0
170 2632 2633 0
2635 3700 3701 0
2634 3699 3700 0
2634 3700 2635 0
666 2634 2635 0
2636 2626 3699 0
2628 162 2626 0
2628 2626 2636 0
665 2628 2636 0
2637 2634 666 0
2636 3699 2634 0
2636 2634 2637 0
665 2636 2637 0
2638 2637 666 0
2633 665 2637 0
2633 2637 2638 0
170 2633 2638 0
2640 2635 3701 0
2639 666 2635 0
2639 2635 2640 0
668 2639 2640 0
2642 2638 666 0
2641 170 2638 0
2641 2638 2642 0
667 2641 2642 0
2643 2639 668 0
2642 666 2639 0
2642 2639 2643 0
667 2642 2643 0
2645 2643 668 0
2644 667 2643 0
2644 2643 2645 0
44 2644 2645 0
2647 2485 40 0
2646 626 2485 0
2646 2485 2647 0
670 2646 2647 0
2649 2482 626 0
2648 159 2482 0
2648 2482 2649 0
669 2648 2649 0
2650 2646 670 0
2649 626 2646 0
2649 2646 2650 0
669 2649 2650 0
2652 2650 670 0
2651 669 2650 0
2651 2650 2652 0
171 2651 2652 0
2654 2473 159 0
2653 623 2473 0
2653 2473 2654 0
671 2653 2654 0
2655 2470 623 0
2527 9 2470 0
2527 2470 2655 0
639 2527 2655 0
2656 2653 671 0
2655 623 2653 0
2655 2653 2656 0
639 2655 2656 0
2657 2656 671 0
2532 639 2656 0
2532 2656 2657 0
164 2532 2657 0
2659 2651 171 0
2658 669 2651 0
2658 2651 2659 0
672 2658 2659 0
2660 2648 669 0
2654 159 2648 0
2654 2648 2660 0
671 2654 2660 0
2661 2658 672 0
2660 669 2658 0
2660 2658 2661 0
671 2660 2661 0
2662 2661 672 0
2657 671 2661 0
2657 2661 2662 0
164 2657 2662 0
2664 2659 171 0
2663 672 2659 0
2663 2659 2664 0
673 2663 2664 0
2665 2662 672 0
2546 164 2662 0
2546 2662 2665 0
644 2546 2665 0
2666 2663 673 0
2665 672 2663 0
2665 2663 2666 0
644 2665 2666 0
2667 2666 673 0
2551 644 2666 0
2551 2666 2667 0
43 2551 2667 0
2669 2644 44 0
2668 667 2644 0
2668 2644 2669 0
675 2668 2669 0
2671 2641 667 0
2670 170 2641 0
2670 2641 2671 0
674 2670 2671 0
2672 2668 675 0
2671 667 2668 0
2671 2668 2672 0
674 2671 2672 0
2674 2672 675 0
2673 674 2672 0
2673 2672 2674 0
172 2673 2674 0
2676 2632 170 0
2675 664 2632 0
2675 2632 2676 0
676 2675 2676 0
2677 2629 664 0
2647 40 2629 0
2647 2629 2677 0
670 2647 2677 0
2678 2675 676 0
2677 664 2675 0
2677 2675 2678 0
670 2677 2678 0
2679 2678 676 0
2652 670 2678 0
2652 2678 2679 0
171 2652 2679 0
2681 2673 172 0
2680 674 2673 0
2680 2673 2681 0
677 2680 2681 0
2682 2670 674 0
2676 170 2670 0
2676 2670 2682 0
676 2676 2682 0
2683 2680 677 0
2682 674 2680 0
2682 2680 2683 0
676 2682 2683 0
2684 2683 677 0
2679 676 2683 0
2679 2683 2684 0
171 2679 2684 0
2686 2681 172 0
2685 677 2681 0
2685 2681 2686 0
678 2685 2686 0
2687 2684 677 0
2664 171 2684 0
2664 2684 2687 0
673 2664 2687 0
2688 2685 678 0
2687 677 2685 0
2687 2685 2688 0
673 2687 2688 0
2689 2688 678 0
2667 673 2688 0
2667 2688 2689 0
43 2667 2689 0
2691 2669 44 0
2690 675 2669 0
2690 2669 2691 0
680 2690 2691 0
2693 2674 675 0
2692 172 2674 0
2692 2674 2693 0
679 2692 2693 0
2694 2690 680 0
2693 675 2690 0
2693 2690 2694 0
679 2693 2694 0
2696 2694 680 0
2695 679 2694 0
2695 2694 2696 0
173 2695 2696 0
2698 2686 172 0
2697 678 2686 0
2697 2686 2698 0
681 2697 2698 0
2699 2689 678 0
2601 43 2689 0
2601 2689 2699 0
658 2601 2699 0
2700 2697 681 0
2699 678 2697 0
2699 2697 2700 0
658 2699 2700 0
2701 2700 681 0
2606 658 2700 0
2606 2700 2701 0
169 2606 2701 0
2703 2695 173 0
2702 679 2695 0
2702 2695 2703 0
682 2702 2703 0
2704 2692 679 0
2698 172 2692 0
2698 2692 2704 0
681 2698 2704 0
2705 2702 682 0
2704 679 2702 0
2704 2702 2705 0
681 2704 2705 0
2706 2705 682 0
2701 681 2705 0
2701 2705 2706 0
169 2701 2706 0
2708 2703 173 0
2707 682 2703 0
2707 2703 2708 0
683 2707 2708 0
2709 2706 682 0
2620 169 2706 0
2620 2706 2709 0
663 2620 2709 0
2710 2707 683 0
2709 682 2707 0
2709 2707 2710 0
663 2709 2710 0
2711 2710 683 0
2625 663 2710 0
2625 2710 2711 0
10 2625 2711 0
3702 2640 3701 0
3703 668 2640 0
3703 2640 3702 0
3704 2645 668 0
2712 44 2645 0
2712 2645 3704 0
3705 2712 3704 0
3704 668 3703 0
2714 2691 44 0
2713 680 2691 0
2713 2691 2714 0
685 2713 2714 0
2716 2696 680 0
2715 173 2696 0
2715 2696 2716 0
684 2715 2716 0
2717 2713 685 0
2716 680 2713 0
2716 2713 2717 0
684 2716 2717 0
2719 2717 685 0
2718 684 2717 0
2718 2717 2719 0
175 2718 2719 0
2721 2708 173 0
2720 683 2708 0
2720 2708 2721 0
687 2720 2721 0
2723 2711 683 0
2722 10 2711 0
2722 2711 2723 0
686 2722 2723 0
2724 2720 687 0
2723 683 2720 0
2723 2720 2724 0
686 2723 2724 0
2726 2724 687 0
2725 686 2724 0
2725 2724 2726 0
174 2725 2726 0
2728 2718 175 0
2727 684 2718 0
2727 2718 2728 0
688 2727 2728 0
2729 2715 684 0
2721 173 2715 0
2721 2715 2729 0
687 2721 2729 0
2730 2727 688 0
2729 684 2727 0
2729 2727 2730 0
687 2729 2730 0
2731 2730 688 0
2726 687 2730 0
2726 2730 2731 0
174 2726 2731 0
2733 2728 175 0
2732 688 2728 0
2732 2728 2733 0
690 2732 2733 0
2735 2731 688 0
2734 174 2731 0
2734 2731 2735 0
689 2734 2735 0
2736 2732 690 0
2735 688 2732 0
2735 2732 2736 0
689 2735 2736 0
2738 2736 690 0
2737 689 2736 0
2737 2736 2738 0
45 2737 2738 0
2739 2712 3705 0
2714 44 2712 0
2714 2712 2739 0
685 2714 2739 0
2740 3706 3707 0
2739 3705 3706 0
2739 3706 2740 0
685 2739 2740 0
2741 2740 3707 0
2719 685 2740 0
2719 2740 2741 0
175 2719 2741 0
2742 3708 3709 0
2741 3707 3708 0
2741 3708 2742 0
175 2741 2742 0
2743 2742 3709 0
2733 175 2742 0
2733 2742 2743 0
690 2733 2743 0
2743 3709 3710 0
2743 3710 3711 0
690 2743 3711 0
2738 690 3711 0
2738 3711 3712 0
45 2738 3712 0
3713 45 3712 0
2744 156 3686 0
2744 3686 3714 0
691 2744 3714 0
691 3714 3715 0
3716 691 3715 0
2746 2428 156 0
2745 611 2428 0
2745 2428 2746 0
692 2745 2746 0
2747 2425 611 0
2436 3 2425 0
2436 2425 2747 0
615 2436 2747 0
2748 2745 692 0
2747 611 2745 0
2747 2745 2748 0
615 2747 2748 0
2749 2748 692 0
2441 615 2748 0
2441 2748 2749 0
158 2441 2749 0
2750 691 3716 0
2750 3716 3717 0
693 2750 3717 0
2751 2744 691 0
2746 156 2744 0
2746 2744 2751 0
692 2746 2751 0
2752 2750 693 0
2751 691 2750 0
2751 2750 2752 0
692 2751 2752 0
2753 2752 693 0
2749 692 2752 0
2749 2752 2753 0
158 2749 2753 0
3718 693 3717 0
2754 2753 693 0
2455 158 2753 0
2455 2753 2754 0
620 2455 2754 0
2754 693 3718 0
2754 3718 3719 0
620 2754 3719 0
2460 620 3719 0
2460 3719 3720 0
41 2460 3720 0
41 3720 3721 0
2510 41 3721 0
2510 3721 3722 0
634 2510 3722 0
634 3722 3723 0
3691 634 3723 0
608 3675 3724 0
608 3724 3725 0
3677 608 3725 0
2755 3726 3727 0
3728 3726 2755 0
3729 3728 2755 0
2757 2755 3727 0
2756 3729 2755 0
2756 2755 2757 0
694 2756 2757 0
2758 3730 3731 0
2757 3727 3730 0
2757 3730 2758 0
694 2757 2758 0
2760 2758 3731 0
2759 694 2758 0
2759 2758 2760 0
47 2759 2760 0
2761 3732 3733 0
2761 3733 3734 0
177 2761 3734 0
2763 3735 3736 0
2762 3737 3735 0
2762 3735 2763 0
176 2762 2763 0
2765 2761 177 0
2764 3732 2761 0
2764 2761 2765 0
695 2764 2765 0
2766 3738 3732 0
3739 3738 2766 0
3736 3739 2766 0
2767 2764 695 0
2766 3732 2764 0
2766 2764 2767 0
3736 2766 2767 0
2768 2767 695 0
2763 3736 2767 0
2763 2767 2768 0
176 2763 2768 0
2770 2765 177 0
2769 695 2765 0
2769 2765 2770 0
697 2769 2770 0
2772 2768 695 0
2771 176 2768 0
2771 2768 2772 0
696 2771 2772 0
2773 2769 697 0
2772 695 2769 0
2772 2769 2773 0
696 2772 2773 0
2775 2773 697 0
2774 696 2773 0
2774 2773 2775 0
46 2774 2775 0
2777 2759 47 0
2776 694 2759 0
2776 2759 2777 0
699 2776 2777 0
2779 2756 694 0
2778 3729 2756 0
2778 2756 2779 0
698 2778 2779 0
2780 2776 699 0
2779 694 2776 0
2779 2776 2780 0
698 2779 2780 0
2782 2780 699 0
2781 698 2780 0
2781 2780 2782 0
178 2781 2782 0
2783 3740 3729 0
3741 3740 2783 0
700 3741 2783 0
3742 3741 700 0
2784 3742 700 0
3734 3742 2784 0
177 3734 2784 0
2786 2781 178 0
2785 698 2781 0
2785 2781 2786 0
701 2785 2786 0
2787 2778 698 0
2783 3729 2778 0
2783 2778 2787 0
700 2783 2787 0
2788 2785 701 0
2787 698 2785 0
2787 2785 2788 0
700 2787 2788 0
2789 2788 701 0
2784 700 2788 0
2784 2788 2789 0
177 2784 2789 0
2791 2786 178 0
2790 701 2786 0
2790 2786 2791 0
702 2790 2791 0
2792 2789 701 0
2770 177 2789 0
2770 2789 2792 0
697 2770 2792 0
2793 2790 702 0
2792 701 2790 0
2792 2790 2793 0
697 2792 2793 0
2794 2793 702 0
2775 697 2793 0
2775 2793 2794 0
46 2775 2794 0
2796 2777 47 0
2795 699 2777 0
2795 2777 2796 0
704 2795 2796 0
2798 2782 699 0
2797 178 2782 0
2797 2782 2798 0
703 2797 2798 0
2799 2795 704 0
2798 699 2795 0
2798 2795 2799 0
703 2798 2799 0
2801 2799 704 0
2800 703 2799 0
2800 2799 2801 0
180 2800 2801 0
2803 2791 178 0
2802 702 2791 0
2802 2791 2803 0
706 2802 2803 0
2805 2794 702 0
2804 46 2794 0
2804 2794 2805 0
705 2804 2805 0
2806 2802 706 0
2805 702 2802 0
2805 2802 2806 0
705 2805 2806 0
2808 2806 706 0
2807 705 2806 0
2807 2806 2808 0
179 2807 2808 0
2810 2800 180 0
2809 703 2800 0
2809 2800 2810 0
707 2809 2810 0
2811 2797 703 0
2803 178 2797 0
2803 2797 2811 0
706 2803 2811 0
2812 2809 707 0
2811 703 2809 0
2811 2809 2812 0
706 2811 2812 0
2813 2812 707 0
2808 706 2812 0
2808 2812 2813 0
179 2808 2813 0
2815 2810 180 0
2814 707 2810 0
2814 2810 2815 0
709 2814 2815 0
2817 2813 707 0
2816 179 2813 0
2816 2813 2817 0
708 2816 2817 0
2818 2814 709 0
2817 707 2814 0
2817 2814 2818 0
708 2817 2818 0
2820 2818 709 0
2819 708 2818 0
2819 2818 2820 0
11 2819 2820 0
2822 3743 3744 0
2821 3745 3743 0
2821 3743 2822 0
182 2821 2822 0
181 3746 3747 0
2823 2821 182 0
3748 3745 2821 0
3748 2821 2823 0
710 3748 2823 0
2824 3748 710 0
3749 3748 2824 0
3750 3749 2824 0
2825 2824 710 0
3747 3750 2824 0
3747 2824 2825 0
181 3747 2825 0
2827 2823 182 0
2826 710 2823 0
2826 2823 2827 0
712 2826 2827 0
2829 2825 710 0
2828 181 2825 0
2828 2825 2829 0
711 2828 2829 0
2830 2826 712 0
2829 710 2826 0
2829 2826 2830 0
711 2829 2830 0
2832 2830 712 0
2831 711 2830 0
2831 2830 2832 0
48 2831 2832 0
2833 3751 3752 0
3713 3751 2833 0
45 3713 2833 0
2835 2831 48 0
2834 711 2831 0
2834 2831 2835 0
714 2834 2835 0
2837 2828 711 0
2836 181 2828 0
2836 2828 2837 0
713 2836 2837 0
2838 2834 714 0
2837 711 2834 0
2837 2834 2838 0
713 2837 2838 0
2840 2838 714 0
2839 713 2838 0
2839 2838 2840 0
183 2839 2840 0
2841 3746 181 0
3753 3746 2841 0
3754 3753 2841 0
2843 2839 183 0
2842 713 2839 0
2842 2839 2843 0
715 2842 2843 0
2844 2836 713 0
2841 181 2836 0
2841 2836 2844 0
3754 2841 2844 0
2845 2842 715 0
2844 713 2842 0
2844 2842 2845 0
3754 2844 2845 0
2846 2845 715 0
3755 3754 2845 0
3755 2845 2846 0
3756 3755 2846 0
2848 2843 183 0
2847 715 2843 0
2847 2843 2848 0
716 2847 2848 0
2849 2846 715 0
3757 3756 2846 0
3757 2846 2849 0
3752 3757 2849 0
2850 2847 716 0
2849 715 2847 0
2849 2847 2850 0
3752 2849 2850 0
2851 2850 716 0
2833 3752 2850 0
2833 2850 2851 0
45 2833 2851 0
2853 2835 48 0
2852 714 2835 0
2852 2835 2853 0
718 2852 2853 0
2855 2840 714 0
2854 183 2840 0
2854 2840 2855 0
717 2854 2855 0
2856 2852 718 0
2855 714 2852 0
2855 2852 2856 0
717 2855 2856 0
2858 2856 718 0
2857 717 2856 0
2857 2856 2858 0
184 2857 2858 0
2860 2848 183 0
2859 716 2848 0
2859 2848 2860 0
719 2859 2860 0
2861 2851 716 0
2737 45 2851 0
2737 2851 2861 0
689 2737 2861 0
2862 2859 719 0
2861 716 2859 0
2861 2859 2862 0
689 2861 2862 0
2863 2862 719 0
2734 689 2862 0
2734 2862 2863 0
174 2734 2863 0
2865 2857 184 0
2864 717 2857 0
2864 2857 2865 0
720 2864 2865 0
2866 2854 717 0
2860 183 2854 0
2860 2854 2866 0
719 2860 2866 0
2867 2864 720 0
2866 717 2864 0
2866 2864 2867 0
719 2866 2867 0
2868 2867 720 0
2863 719 2867 0
2863 2867 2868 0
174 2863 2868 0
2870 2865 184 0
2869 720 2865 0
2869 2865 2870 0
721 2869 2870 0
2871 2868 720 0
2725 174 2868 0
2725 2868 2871 0
686 2725 2871 0
2872 2869 721 0
2871 720 2869 0
2871 2869 2872 0
686 2871 2872 0
2873 2872 721 0
2722 686 2872 0
2722 2872 2873 0
10 2722 2873 0
2875 2819 11 0
2874 708 2819 0
2874 2819 2875 0
723 2874 2875 0
2877 2816 708 0
2876 179 2816 0
2876 2816 2877 0
722 2876 2877 0
2878 2874 723 0
2877 708 2874 0
2877 2874 2878 0
722 2877 2878 0
2880 2878 723 0
2879 722 2878 0
2879 2878 2880 0
186 2879 2880 0
2882 2807 179 0
2881 705 2807 0
2881 2807 2882 0
725 2881 2882 0
2884 2804 705 0
2883 46 2804 0
2883 2804 2884 0
724 2883 2884 0
2885 2881 725 0
2884 705 2881 0
2884 2881 2885 0
724 2884 2885 0
2887 2885 725 0
2886 724 2885 0
2886 2885 2887 0
185 2886 2887 0
2889 2879 186 0
2888 722 2879 0
2888 2879 2889 0
726 2888 2889 0
2890 2876 722 0
2882 179 2876 0
2882 2876 2890 0
725 2882 2890 0
2891 2888 726 0
2890 722 2888 0
2890 2888 2891 0
725 2890 2891 0
2892 2891 726 0
2887 725 2891 0
2887 2891 2892 0
185 2887 2892 0
2894 2889 186 0
2893 726 2889 0
2893 2889 2894 0
728 2893 2894 0
2896 2892 726 0
2895 185 2892 0
2895 2892 2896 0
727 2895 2896 0
2897 2893 728 0
2896 726 2893 0
2896 2893 2897 0
727 2896 2897 0
2899 2897 728 0
2898 727 2897 0
2898 2897 2899 0
49 2898 2899 0
2901 2774 46 0
2900 696 2774 0
2900 2774 2901 0
730 2900 2901 0
2903 2771 696 0
2902 176 2771 0
2902 2771 2903 0
729 2902 2903 0
2904 2900 730 0
2903 696 2900 0
2903 2900 2904 0
729 2903 2904 0
2906 2904 730 0
2905 729 2904 0
2905 2904 2906 0
187 2905 2906 0
2908 2762 176 0
2907 3737 2762 0
2907 2762 2908 0
731 2907 2908 0
2909 2907 731 0
3758 3737 2907 0
3758 2907 2909 0
3744 3758 2909 0
2910 2909 731 0
2822 3744 2909 0
2822 2909 2910 0
182 2822 2910 0
2912 2905 187 0
2911 729 2905 0
2911 2905 2912 0
732 2911 2912 0
2913 2902 729 0
2908 176 2902 0
2908 2902 2913 0
731 2908 2913 0
2914 2911 732 0
2913 729 2911 0
2913 2911 2914 0
731 2913 2914 0
2915 2914 732 0
2910 731 2914 0
2910 2914 2915 0
182 2910 2915 0
2917 2912 187 0
2916 732 2912 0
2916 2912 2917 0
733 2916 2917 0
2918 2915 732 0
2827 182 2915 0
2827 2915 2918 0
712 2827 2918 0
2919 2916 733 0
2918 732 2916 0
2918 2916 2919 0
712 2918 2919 0
2920 2919 733 0
2832 712 2919 0
2832 2919 2920 0
48 2832 2920 0
2922 2898 49 0
2921 727 2898 0
2921 2898 2922 0
735 2921 2922 0
2924 2895 727 0
2923 185 2895 0
2923 2895 2924 0
734 2923 2924 0
2925 2921 735 0
2924 727 2921 0
2924 2921 2925 0
734 2924 2925 0
2927 2925 735 0
2926 734 2925 0
2926 2925 2927 0
188 2926 2927 0
2929 2886 185 0
2928 724 2886 0
2928 2886 2929 0
736 2928 2929 0
2930 2883 724 0
2901 46 2883 0
2901 2883 2930 0
730 2901 2930 0
2931 2928 736 0
2930 724 2928 0
2930 2928 2931 0
730 2930 2931 0
2932 2931 736 0
2906 730 2931 0
2906 2931 2932 0
187 2906 2932 0
2934 2926 188 0
2933 734 2926 0
2933 2926 2934 0
737 2933 2934 0
2935 2923 734 0
2929 185 2923 0
2929 2923 2935 0
736 2929 2935 0
2936 2933 737 0
2935 734 2933 0
2935 2933 2936 0
736 2935 2936 0
2937 2936 737 0
2932 736 2936 0
2932 2936 2937 0
187 2932 2937 0
2939 2934 188 0
2938 737 2934 0
2938 2934 2939 0
738 2938 2939 0
2940 2937 737 0
2917 187 2937 0
2917 2937 2940 0
733 2917 2940 0
2941 2938 738 0
2940 737 2938 0
2940 2938 2941 0
733 2940 2941 0
2942 2941 738 0
2920 733 2941 0
2920 2941 2942 0
48 2920 2942 0
2944 2922 49 0
2943 735 2922 0
2943 2922 2944 0
740 2943 2944 0
2946 2927 735 0
2945 188 2927 0
2945 2927 2946 0
739 2945 2946 0
2947 2943 740 0
2946 735 2943 0
2946 2943 2947 0
739 2946 2947 0
2949 2947 740 0
2948 739 2947 0
2948 2947 2949 0
189 2948 2949 0
2951 2939 188 0
2950 738 2939 0
2950 2939 2951 0
741 2950 2951 0
2952 2942 738 0
2853 48 2942 0
2853 2942 2952 0
718 2853 2952 0
2953 2950 741 0
2952 738 2950 0
2952 2950 2953 0
718 2952 2953 0
2954 2953 741 0
2858 718 2953 0
2858 2953 2954 0
184 2858 2954 0
2956 2948 189 0
2955 739 2948 0
2955 2948 2956 0
742 2955 2956 0
2957 2945 739 0
2951 188 2945 0
2951 2945 2957 0
741 2951 2957 0
2958 2955 742 0
2957 739 2955 0
2957 2955 2958 0
741 2957 2958 0
2959 2958 742 0
2954 741 2958 0
2954 2958 2959 0
184 2954 2959 0
2961 2956 189 0
2960 742 2956 0
2960 2956 2961 0
743 2960 2961 0
2962 2959 742 0
2870 184 2959 0
2870 2959 2962 0
721 2870 2962 0
2963 2960 743 0
2962 742 2960 0
2962 2960 2963 0
721 2962 2963 0
2964 2963 743 0
2873 721 2963 0
2873 2963 2964 0
10 2873 2964 0
2966 2875 11 0
2965 723 2875 0
2965 2875 2966 0
745 2965 2966 0
2968 2880 723 0
2967 186 2880 0
2967 2880 2968 0
744 2967 2968 0
2969 2965 745 0
2968 723 2965 0
2968 2965 2969 0
744 2968 2969 0
2971 2969 745 0
2970 744 2969 0
2970 2969 2971 0
191 2970 2971 0
2973 2894 186 0
2972 728 2894 0
2972 2894 2973 0
747 2972 2973 0
2975 2899 728 0
2974 49 2899 0
2974 2899 2975 0
746 2974 2975 0
2976 2972 747 0
2975 728 2972 0
2975 2972 2976 0
746 2975 2976 0
2978 2976 747 0
2977 746 2976 0
2977 2976 2978 0
190 2977 2978 0
2980 2970 191 0
2979 744 2970 0
2979 2970 2980 0
748 2979 2980 0
2981 2967 744 0
2973 186 2967 0
2973 2967 2981 0
747 2973 2981 0
2982 2979 748 0
2981 744 2979 0
2981 2979 2982 0
747 2981 2982 0
2983 2982 748 0
2978 747 2982 0
2978 2982 2983 0
190 2978 2983 0
2985 2980 191 0
2984 748 2980 0
2984 2980 2985 0
750 2984 2985 0
2987 2983 748 0
2986 190 2983 0
2986 2983 2987 0
749 2986 2987 0
2988 2984 750 0
2987 748 2984 0
2987 2984 2988 0
749 2987 2988 0
2990 2988 750 0
2989 749 2988 0
2989 2988 2990 0
50 2989 2990 0
2992 2944 49 0
2991 740 2944 0
2991 2944 2992 0
752 2991 2992 0
2994 2949 740 0
2993 189 2949 0
2993 2949 2994 0
751 2993 2994 0
2995 2991 752 0
2994 740 2991 0
2994 2991 2995 0
751 2994 2995 0
2997 2995 752 0
2996 751 2995 0
2996 2995 2997 0
192 2996 2997 0
2999 2961 189 0
2998 743 2961 0
2998 2961 2999 0
753 2998 2999 0
3000 2964 743 0
2624 10 2964 0
2624 2964 3000 0
662 2624 3000 0
3001 2998 753 0
3000 743 2998 0
3000 2998 3001 0
662 3000 3001 0
3002 3001 753 0
2621 662 3001 0
2621 3001 3002 0
168 2621 3002 0
3004 2996 192 0
3003 751 2996 0
3003 2996 3004 0
754 3003 3004 0
3005 2993 751 0
2999 189 2993 0
2999 2993 3005 0
753 2999 3005 0
3006 3003 754 0
3005 751 3003 0
3005 3003 3006 0
753 3005 3006 0
3007 3006 754 0
3002 753 3006 0
3002 3006 3007 0
168 3002 3007 0
3009 3004 192 0
3008 754 3004 0
3008 3004 3009 0
755 3008 3009 0
3010 3007 754 0
2612 168 3007 0
2612 3007 3010 0
659 2612 3010 0
3011 3008 755 0
3010 754 3008 0
3010 3008 3011 0
659 3010 3011 0
3012 3011 755 0
2609 659 3011 0
2609 3011 3012 0
42 2609 3012 0
3014 2989 50 0
3013 749 2989 0
3013 2989 3014 0
757 3013 3014 0
3016 2986 749 0
3015 190 2986 0
3015 2986 3016 0
756 3015 3016 0
3017 3013 757 0
3016 749 3013 0
3016 3013 3017 0
756 3016 3017 0
3019 3017 757 0
3018 756 3017 0
3018 3017 3019 0
193 3018 3019 0
3021 2977 190 0
3020 746 2977 0
3020 2977 3021 0
758 3020 3021 0
3022 2974 746 0
2992 49 2974 0
2992 2974 3022 0
752 2992 3022 0
3023 3020 758 0
3022 746 3020 0
3022 3020 3023 0
752 3022 3023 0
3024 3023 758 0
2997 752 3023 0
2997 3023 3024 0
192 2997 3024 0
3026 3018 193 0
3025 756 3018 0
3025 3018 3026 0
759 3025 3026 0
3027 3015 756 0
3021 190 3015 0
3021 3015 3027 0
758 3021 3027 0
3028 3025 759 0
3027 756 3025 0
3027 3025 3028 0
758 3027 3028 0
3029 3028 759 0
3024 758 3028 0
3024 3028 3029 0
192 3024 3029 0
3031 3026 193 0
3030 759 3026 0
3030 3026 3031 0
760 3030 3031 0
3032 3029 759 0
3009 192 3029 0
3009 3029 3032 0
755 3009 3032 0
3033 3030 760 0
3032 759 3030 0
3032 3030 3033 0
755 3032 3033 0
3034 3033 760 0
3012 755 3033 0
3012 3033 3034 0
42 3012 3034 0
3036 3014 50 0
3035 757 3014 0
3035 3014 3036 0
762 3035 3036 0
3038 3019 757 0
3037 193 3019 0
3037 3019 3038 0
761 3037 3038 0
3039 3035 762 0
3038 757 3035 0
3038 3035 3039 0
761 3038 3039 0
3041 3039 762 0
3040 761 3039 0
3040 3039 3041 0
194 3040 3041 0
3043 3031 193 0
3042 760 3031 0
3042 3031 3043 0
763 3042 3043 0
3044 3034 760 0
2576 42 3034 0
2576 3034 3044 0
650 2576 3044 0
3045 3042 763 0
3044 760 3042 0
3044 3042 3045 0
650 3044 3045 0
3046 3045 763 0
2573 650 3045 0
2573 3045 3046 0
165 2573 3046 0
3048 3040 194 0
3047 761 3040 0
3047 3040 3048 0
764 3047 3048 0
3049 3037 761 0
3043 193 3037 0
3043 3037 3049 0
763 3043 3049 0
3050 3047 764 0
3049 761 3047 0
3049 3047 3050 0
763 3049 3050 0
3051 3050 764 0
3046 763 3050 0
3046 3050 3051 0
165 3046 3051 0
3053 3048 194 0
3052 764 3048 0
3052 3048 3053 0
765 3052 3053 0
3054 3051 764 0
2564 165 3051 0
2564 3051 3054 0
647 2564 3054 0
3055 3052 765 0
3054 764 3052 0
3054 3052 3055 0
647 3054 3055 0
3056 3055 765 0
2561 647 3055 0
2561 3055 3056 0
0 2561 3056 0
3759 2760 3731 0
3057 47 2760 0
3057 2760 3759 0
3760 3057 3759 0
3059 2796 47 0
3058 704 2796 0
3058 2796 3059 0
767 3058 3059 0
3061 2801 704 0
3060 180 2801 0
3060 2801 3061 0
766 3060 3061 0
3062 3058 767 0
3061 704 3058 0
3061 3058 3062 0
766 3061 3062 0
3064 3062 767 0
3063 766 3062 0
3063 3062 3064 0
196 3063 3064 0
3066 2815 180 0
3065 709 2815 0
3065 2815 3066 0
769 3065 3066 0
3068 2820 709 0
3067 11 2820 0
3067 2820 3068 0
768 3067 3068 0
3069 3065 769 0
3068 709 3065 0
3068 3065 3069 0
768 3068 3069 0
3071 3069 769 0
3070 768 3069 0
3070 3069 3071 0
195 3070 3071 0
3073 3063 196 0
3072 766 3063 0
3072 3063 3073 0
770 3072 3073 0
3074 3060 766 0
3066 180 3060 0
3066 3060 3074 0
769 3066 3074 0
3075 3072 770 0
3074 766 3072 0
3074 3072 3075 0
769 3074 3075 0
3076 3075 770 0
3071 769 3075 0
3071 3075 3076 0
195 3071 3076 0
3078 3073 196 0
3077 770 3073 0
3077 3073 3078 0
772 3077 3078 0
3080 3076 770 0
3079 195 3076 0
3079 3076 3080 0
771 3079 3080 0
3081 3077 772 0
3080 770 3077 0
3080 3077 3081 0
771 3080 3081 0
3083 3081 772 0
3082 771 3081 0
3082 3081 3083 0
51 3082 3083 0
3084 3057 3760 0
3059 47 3057 0
3059 3057 3084 0
767 3059 3084 0
3085 3761 3762 0
3084 3760 3761 0
3084 3761 3085 0
767 3084 3085 0
3086 3085 3762 0
3064 767 3085 0
3064 3085 3086 0
196 3064 3086 0
773 3763 3764 0
3765 3763 773 0
3087 3765 773 0
3086 3762 3765 0
3086 3765 3087 0
196 3086 3087 0
3088 773 3764 0
3088 3764 3766 0
774 3088 3766 0
3089 3087 773 0
3078 196 3087 0
3078 3087 3089 0
772 3078 3089 0
3090 3088 774 0
3089 773 3088 0
3089 3088 3090 0
772 3089 3090 0
3091 3090 774 0
3083 772 3090 0
3083 3090 3091 0
51 3083 3091 0
3092 774 3766 0
3092 3766 3767 0
3768 3092 3767 0
3094 3091 774 0
3093 51 3091 0
3093 3091 3094 0
775 3093 3094 0
3095 3092 3768 0
3094 774 3092 0
3094 3092 3095 0
775 3094 3095 0
3769 3095 3768 0
3096 775 3095 0
3096 3095 3769 0
3770 3096 3769 0
3098 2966 11 0
3097 745 2966 0
3097 2966 3098 0
777 3097 3098 0
3100 2971 745 0
3099 191 2971 0
3099 2971 3100 0
776 3099 3100 0
3101 3097 777 0
3100 745 3097 0
3100 3097 3101 0
776 3100 3101 0
3103 3101 777 0
3102 776 3101 0
3102 3101 3103 0
198 3102 3103 0
3105 2985 191 0
3104 750 2985 0
3104 2985 3105 0
779 3104 3105 0
3107 2990 750 0
3106 50 2990 0
3106 2990 3107 0
778 3106 3107 0
3108 3104 779 0
3107 750 3104 0
3107 3104 3108 0
778 3107 3108 0
3110 3108 779 0
3109 778 3108 0
3109 3108 3110 0
197 3109 3110 0
3112 3102 198 0
3111 776 3102 0
3111 3102 3112 0
780 3111 3112 0
3113 3099 776 0
3105 191 3099 0
3105 3099 3113 0
779 3105 3113 0
3114 3111 780 0
3113 776 3111 0
3113 3111 3114 0
779 3113 3114 0
3115 3114 780 0
3110 779 3114 0
3110 3114 3115 0
197 3110 3115 0
3117 3112 198 0
3116 780 3112 0
3116 3112 3117 0
782 3116 3117 0
3119 3115 780 0
3118 197 3115 0
3118 3115 3119 0
781 3118 3119 0
3120 3116 782 0
3119 780 3116 0
3119 3116 3120 0
781 3119 3120 0
3122 3120 782 0
3121 781 3120 0
3121 3120 3122 0
53 3121 3122 0
3124 3036 50 0
3123 762 3036 0
3123 3036 3124 0
784 3123 3124 0
3126 3041 762 0
3125 194 3041 0
3125 3041 3126 0
783 3125 3126 0
3127 3123 784 0
3126 762 3123 0
3126 3123 3127 0
783 3126 3127 0
3129 3127 784 0
3128 783 3127 0
3128 3127 3129 0
200 3128 3129 0
3131 3053 194 0
3130 765 3053 0
3130 3053 3131 0
786 3130 3131 0
3133 3056 765 0
3132 0 3056 0
3132 3056 3133 0
785 3132 3133 0
3134 3130 786 0
3133 765 3130 0
3133 3130 3134 0
785 3133 3134 0
3136 3134 786 0
3135 785 3134 0
3135 3134 3136 0
199 3135 3136 0
3138 3128 200 0
3137 783 3128 0
3137 3128 3138 0
787 3137 3138 0
3139 3125 783 0
3131 194 3125 0
3131 3125 3139 0
786 3131 3139 0
3140 3137 787 0
3139 783 3137 0
3139 3137 3140 0
786 3139 3140 0
3141 3140 787 0
3136 786 3140 0
3136 3140 3141 0
199 3136 3141 0
3143 3138 200 0
3142 787 3138 0
3142 3138 3143 0
789 3142 3143 0
3145 3141 787 0
3144 199 3141 0
3144 3141 3145 0
788 3144 3145 0
3146 3142 789 0
3145 787 3142 0
3145 3142 3146 0
788 3145 3146 0
3148 3146 789 0
3147 788 3146 0
3147 3146 3148 0
52 3147 3148 0
3150 3121 53 0
3149 781 3121 0
3149 3121 3150 0
791 3149 3150 0
3152 3118 781 0
3151 197 3118 0
3151 3118 3152 0
790 3151 3152 0
3153 3149 791 0
3152 781 3149 0
3152 3149 3153 0
790 3152 3153 0
3155 3153 791 0
3154 790 3153 0
3154 3153 3155 0
201 3154 3155 0
3157 3109 197 0
3156 778 3109 0
3156 3109 3157 0
792 3156 3157 0
3158 3106 778 0
3124 50 3106 0
3124 3106 3158 0
784 3124 3158 0
3159 3156 792 0
3158 778 3156 0
3158 3156 3159 0
784 3158 3159 0
3160 3159 792 0
3129 784 3159 0
3129 3159 3160 0
200 3129 3160 0
3162 3154 201 0
3161 790 3154 0
3161 3154 3162 0
793 3161 3162 0
3163 3151 790 0
3157 197 3151 0
3157 3151 3163 0
792 3157 3163 0
3164 3161 793 0
3163 790 3161 0
3163 3161 3164 0
792 3163 3164 0
3165 3164 793 0
3160 792 3164 0
3160 3164 3165 0
200 3160 3165 0
3167 3162 201 0
3166 793 3162 0
3166 3162 3167 0
794 3166 3167 0
3168 3165 793 0
3143 200 3165 0
3143 3165 3168 0
789 3143 3168 0
3169 3166 794 0
3168 793 3166 0
3168 3166 3169 0
789 3168 3169 0
3170 3169 794 0
3148 789 3169 0
3148 3169 3170 0
52 3148 3170 0
3172 3150 53 0
3171 791 3150 0
3171 3150 3172 0
796 3171 3172 0
3174 3155 791 0
3173 201 3155 0
3173 3155 3174 0
795 3173 3174 0
3175 3171 796 0
3174 791 3171 0
3174 3171 3175 0
795 3174 3175 0
3177 3175 796 0
3176 795 3175 0
3176 3175 3177 0
203 3176 3177 0
3179 3167 201 0
3178 794 3167 0
3178 3167 3179 0
798 3178 3179 0
3181 3170 794 0
3180 52 3170 0
3180 3170 3181 0
797 3180 3181 0
3182 3178 798 0
3181 794 3178 0
3181 3178 3182 0
797 3181 3182 0
3184 3182 798 0
3183 797 3182 0
3183 3182 3184 0
202 3183 3184 0
3186 3176 203 0
3185 795 3176 0
3185 3176 3186 0
799 3185 3186 0
3187 3173 795 0
3179 201 3173 0
3179 3173 3187 0
798 3179 3187 0
3188 3185 799 0
3187 795 3185 0
3187 3185 3188 0
798 3187 3188 0
3189 3188 799 0
3184 798 3188 0
3184 3188 3189 0
202 3184 3189 0
3191 3186 203 0
3190 799 3186 0
3190 3186 3191 0
801 3190 3191 0
3193 3189 799 0
3192 202 3189 0
3192 3189 3193 0
800 3192 3193 0
3194 3190 801 0
3193 799 3190 0
3193 3190 3194 0
800 3193 3194 0
3196 3194 801 0
3195 800 3194 0
3195 3194 3196 0
12 3195 3196 0
3771 3096 3770 0
3197 775 3096 0
3197 3096 3771 0
803 3197 3771 0
3199 3093 775 0
3198 51 3093 0
3198 3093 3199 0
802 3198 3199 0
3200 3197 803 0
3199 775 3197 0
3199 3197 3200 0
802 3199 3200 0
3202 3200 803 0
3201 802 3200 0
3201 3200 3202 0
204 3201 3202 0
803 3771 3772 0
803 3772 3773 0
3203 3773 3774 0
3202 803 3773 0
3202 3773 3203 0
204 3202 3203 0
3205 3203 3774 0
3204 204 3203 0
3204 3203 3205 0
804 3204 3205 0
3205 3774 3775 0
3205 3775 3776 0
804 3205 3776 0
3777 804 3776 0
3207 3082 51 0
3206 771 3082 0
3206 3082 3207 0
806 3206 3207 0
3209 3079 771 0
3208 195 3079 0
3208 3079 3209 0
805 3208 3209 0
3210 3206 806 0
3209 771 3206 0
3209 3206 3210 0
805 3209 3210 0
3212 3210 806 0
3211 805 3210 0
3211 3210 3212 0
205 3211 3212 0
3214 3070 195 0
3213 768 3070 0
3213 3070 3214 0
807 3213 3214 0
3215 3067 768 0
3098 11 3067 0
3098 3067 3215 0
777 3098 3215 0
3216 3213 807 0
3215 768 3213 0
3215 3213 3216 0
777 3215 3216 0
3217 3216 807 0
3103 777 3216 0
3103 3216 3217 0
198 3103 3217 0
3219 3211 205 0
3218 805 3211 0
3218 3211 3219 0
808 3218 3219 0
3220 3208 805 0
3214 195 3208 0
3214 3208 3220 0
807 3214 3220 0
3221 3218 808 0
3220 805 3218 0
3220 3218 3221 0
807 3220 3221 0
3222 3221 808 0
3217 807 3221 0
3217 3221 3222 0
198 3217 3222 0
3224 3219 205 0
3223 808 3219 0
3223 3219 3224 0
809 3223 3224 0
3225 3222 808 0
3117 198 3222 0
3117 3222 3225 0
782 3117 3225 0
3226 3223 809 0
3225 808 3223 0
3225 3223 3226 0
782 3225 3226 0
3227 3226 809 0
3122 782 3226 0
3122 3226 3227 0
53 3122 3227 0
3229 3777 3778 0
3228 804 3777 0
3228 3777 3229 0
811 3228 3229 0
3231 3204 804 0
3230 204 3204 0
3230 3204 3231 0
810 3230 3231 0
3232 3228 811 0
3231 804 3228 0
3231 3228 3232 0
810 3231 3232 0
3234 3232 811 0
3233 810 3232 0
3233 3232 3234 0
206 3233 3234 0
3236 3201 204 0
3235 802 3201 0
3235 3201 3236 0
812 3235 3236 0
3237 3198 802 0
3207 51 3198 0
3207 3198 3237 0
806 3207 3237 0
3238 3235 812 0
3237 802 3235 0
3237 3235 3238 0
806 3237 3238 0
3239 3238 812 0
3212 806 3238 0
3212 3238 3239 0
205 3212 3239 0
3241 3233 206 0
3240 810 3233 0
3240 3233 3241 0
813 3240 3241 0
3242 3230 810 0
3236 204 3230 0
3236 3230 3242 0
812 3236 3242 0
3243 3240 813 0
3242 810 3240 0
3242 3240 3243 0
812 3242 3243 0
3244 3243 813 0
3239 812 3243 0
3239 3243 3244 0
205 3239 3244 0
3246 3241 206 0
3245 813 3241 0
3245 3241 3246 0
814 3245 3246 0
3247 3244 813 0
3224 205 3244 0
3224 3244 3247 0
809 3224 3247 0
3248 3245 814 0
3247 813 3245 0
3247 3245 3248 0
809 3247 3248 0
3249 3248 814 0
3227 809 3248 0
3227 3248 3249 0
53 3227 3249 0
3779 3229 3778 0
3250 811 3229 0
3250 3229 3779 0
3780 3250 3779 0
3252 3234 811 0
3251 206 3234 0
3251 3234 3252 0
815 3251 3252 0
3253 3250 3780 0
3252 811 3250 0
3252 3250 3253 0
815 3252 3253 0
3255 3253 3780 0
3254 815 3253 0
3254 3253 3255 0
207 3254 3255 0
3257 3246 206 0
3256 814 3246 0
3256 3246 3257 0
816 3256 3257 0
3258 3249 814 0
3172 53 3249 0
3172 3249 3258 0
796 3172 3258 0
3259 3256 816 0
3258 814 3256 0
3258 3256 3259 0
796 3258 3259 0
3260 3259 816 0
3177 796 3259 0
3177 3259 3260 0
203 3177 3260 0
3262 3254 207 0
3261 815 3254 0
3261 3254 3262 0
817 3261 3262 0
3263 3251 815 0
3257 206 3251 0
3257 3251 3263 0
816 3257 3263 0
3264 3261 817 0
3263 815 3261 0
3263 3261 3264 0
816 3263 3264 0
3265 3264 817 0
3260 816 3264 0
3260 3264 3265 0
203 3260 3265 0
3267 3262 207 0
3266 817 3262 0
3266 3262 3267 0
818 3266 3267 0
3268 3265 817 0
3191 203 3265 0
3191 3265 3268 0
801 3191 3268 0
3269 3266 818 0
3268 817 3266 0
3268 3266 3269 0
801 3268 3269 0
3270 3269 818 0
3196 801 3269 0
3196 3269 3270 0
12 3196 3270 0
3781 3255 3780 0
3782 207 3255 0
3782 3255 3781 0
3783 3267 207 0
3271 818 3267 0
3271 3267 3783 0
3784 3271 3783 0
3273 3270 818 0
3272 12 3270 0
3272 3270 3273 0
819 3272 3273 0
3785 3271 3784 0
3273 818 3271 0
