#!ascii - generated by CreateLabelFiles project 
2306 4347
-4.2637 65.7121 21.8767 0
-4.2753 65.267 21.4654 0
-4.82317 63.6234 20.717 0
-4.5516 62.9422 20.4799 0
-5.05302 64.3009 20.97 0
-4.63016 64.5006 21.0007 0
-4.08928 64.6173 21.1854 0
-4.06259 63.0341 20.6065 0
-3.80291 63.8401 21.02 0
-3.52475 63.1389 20.796 0
-3.20027 62.6126 20.4405 0
-3.42773 62.0735 19.8359 0
-5.26319 50.757 30.7569 0
-6.58633 52.0646 31.2327 0
-5.89676 51.4969 30.9399 0
-6.03141 50.851 30.6946 0
-6.72622 51.0966 30.4244 0
-6.07815 50.4333 30.2122 0
-8.05633 53.0201 32.0406 0
-7.35215 52.4774 31.6792 0
-8.76346 53.5354 32.4601 0
-8.633 53.1203 31.7742 0
-8.54003 52.751 31.1512 0
-7.31377 51.7308 30.6231 0
-7.38517 51.3151 30.1478 0
-7.30406 52.0948 31.1366 0
-7.90821 52.2722 30.8767 0
-8.50896 52.436 30.5814 0
-7.97931 51.5243 29.9027 0
-7.43488 50.8925 29.6761 0
-8.52115 52.1236 30.0918 0
-8.57781 51.7412 29.664 0
-8.64046 51.3523 29.2291 0
-6.92369 50.2329 29.5584 0
-7.79155 50.0737 29.0525 0
-7.60453 50.4564 29.3949 0
-8.20748 50.6957 29.1639 0
-8.67046 51.1913 28.6465 0
-8.70348 51.0125 27.9669 0
-2.04969 89.2897 23.2793 0
-1.38851 89.4865 23.6625 0
-1.40926 88.693 23.7756 0
-0.834435 88.7874 24.2253 0
-1.03345 87.9904 24.8741 0
-1.19994 87.1426 25.3736 0
-1.84569 86.1421 24.9981 0
-1.32179 86.206 25.6853 0
-1.43193 85.1638 26.0238 0
-1.51636 84.0171 26.3485 0
-1.46463 82.8861 26.5196 0
-1.09314 81.7953 26.3906 0
-0.193548 81.549 26.5823 0
0.215894 80.4391 26.6345 0
2.31522 79.0504 27.6482 0
3.26238 78.7882 27.0998 0
1.2407 78.7542 27.2599 0
0.628806 79.4956 27.0481 0
11.5553 74.5046 24.1549 0
11.8575 74.3523 25.1942 0
11.615 73.7057 25.9823 0
5.42953 78.1564 24.9777 0
6.487 78.1612 25.2044 0
7.48973 77.4602 24.66 0
3.19499 78.4219 25.7922 0
5.43051 77.5148 23.9282 0
4.35538 78.5578 25.9396 0
11.2476 75.1892 24.4323 0
10.67 75.4619 24.2672 0
8.50462 77.5896 24.6486 0
9.38556 76.6412 24.2982 0
10.1233 76.5789 24.3944 0
-1.99248 89.8976 23.1542 0
-2.18529 90.4548 23.0662 0
-2.49379 90.947 22.9235 0
-2.75098 91.4158 22.7113 0
4.31617 70.4088 16.4011 0
4.38241 71.6771 16.7162 0
2.41976 77.688 16.2283 0
3.88155 73.3422 16.9861 0
3.38246 74.838 16.9607 0
2.87619 76.2783 16.5056 0
0.651966 81.9118 18.9665 0
0.77042 82.5202 19.3731 0
0.222454 82.8215 19.6532 0
2.65529 78.5118 16.2876 0
2.18685 79.3697 16.5391 0
1.58564 80.2075 17.204 0
1.75515 80.868 17.5979 0
1.24152 81.5272 18.2169 0
-3.14379 91.8993 22.487 0
-3.64787 91.6399 22.0116 0
-3.83965 92.9512 21.8973 0
-3.56008 92.4094 22.2859 0
-4.06482 92.6634 21.219 0
-3.82842 95.2781 18.4735 0
-4.29208 94.475 19.0376 0
-4.32976 93.6094 19.2702 0
-4.30547 92.9808 19.8542 0
-4.14555 93.1775 20.6097 0
-1.32763 96.5341 17.0345 0
-2.02831 95.8077 17.0213 0
-0.732762 96.1933 17.2368 0
-0.172375 96.8994 17.2809 0
0.301635 96.6747 17.2119 0
-3.51607 95.1791 18.025 0
-3.10015 95.0684 17.6935 0
-2.50248 95.988 17.2395 0
0.681378 96.3129 17.0925 0
1.03433 95.9146 16.9484 0
-0.877202 94.7063 14.1448 0
-0.0803671 94.7807 15.6516 0
-0.865435 94.7166 15.0457 0
0.75465 95.2349 16.5241 0
1.00897 95.5655 16.7577 0
0.453138 94.9127 16.2272 0
-1.29695 94.7429 13.2961 0
-2.04303 94.7674 12.585 0
-2.47884 93.9206 11.8351 0
-3.28347 93.9713 11.1837 0
-4.08762 93.8986 10.5983 0
-4.45444 93.1034 10.0556 0
-4.8606 92.2687 9.55567 0
-5.21977 92.8662 9.55701 0
-6.0001 92.604 9.11248 0
-6.78605 92.319 8.66279 0
-6.96856 92.4089 8.06004 0
-6.84051 92.0549 7.47519 0
-6.29873 91.9265 6.68452 0
-5.01598 91.8203 6.23214 0
-5.58445 92.0167 5.98729 0
-3.58953 92.0206 6.07852 0
-4.00355 92.4865 6.06578 0
-2.23714 92.1835 6.05972 0
-2.67562 92.6685 5.98521 0
0.388365 83.3028 19.8259 0
-0.14654 83.6629 19.5188 0
-0.682066 84.1279 18.7648 0
-0.507176 84.7837 18.5548 0
-0.968714 85.1464 17.8802 0
-1.39202 85.5031 17.2281 0
-1.77729 85.8315 16.5946 0
-2.10461 85.9862 16.0088 0
-1.84664 86.3923 15.8261 0
-2.07637 86.2968 15.2376 0
-2.0978 85.9586 14.5498 0
-1.55819 85.8374 14.2253 0
-1.21258 85.6779 12.2955 0
-1.34636 85.8157 11.661 0
-1.75267 85.3369 12.7017 0
-1.64098 85.5656 13.4668 0
-1.44411 86.1348 10.9803 0
-0.828388 86.7637 10.4929 0
-0.965018 87.305 9.97558 0
-0.540834 88.3582 9.66964 0
-0.544742 88.8624 8.99514 0
-0.53394 89.3067 8.25902 0
-1.2199 88.9444 8.19736 0
-0.552575 89.7142 7.64648 0
-0.569737 90.0678 7.08743 0
-0.804371 90.9152 6.63721 0
-0.0260769 91.136 6.94881 0
-0.101572 91.681 6.62 0
-0.956528 91.3956 6.52816 0
-1.72797 90.9914 6.43996 0
-1.13727 92.0696 6.35979 0
-1.34786 92.824 6.16699 0
8.82064 65.1506 21.6845 0
8.26175 65.9955 20.5856 0
9.06169 66.3802 20.6097 0
9.02958 65.6421 21.1408 0
8.96827 65.1937 24.2013 0
9.37382 65.4672 23.5807 0
8.9718 65.1044 22.872 0
9.33823 65.283 22.2468 0
8.60103 64.6228 26.3811 0
8.52911 64.3979 26.555 0
8.89879 64.7348 25.4591 0
9.27463 65.1666 24.6898 0
5.29266 68.1096 16.1887 0
6.06854 67.4443 16.3926 0
5.22588 68.8048 15.9617 0
9.13964 66.784 20.0645 0
8.43751 66.7056 19.2877 0
7.63942 66.7542 18.466 0
6.76573 66.7898 17.5276 0
5.99112 66.9119 16.7901 0
11.2667 72.7978 27.3406 0
10.9188 71.9482 28.4427 0
10.9954 71.8523 28.8908 0
10.1804 71.3231 30.1584 0
9.51446 70.7001 30.8162 0
9.57705 70.6262 31.4074 0
9.05306 69.7863 32.5879 0
8.82111 68.8363 33.0027 0
8.61404 67.8265 33.8758 0
8.09966 67.0968 34.5334 0
4.45164 63.2419 35.3135 0
3.78773 62.4777 34.4142 0
5.14415 63.9293 35.4585 0
5.69124 64.6821 35.6481 0
5.54208 64.5269 35.1264 0
6.18139 65.3441 35.4778 0
6.62028 66.0299 35.2586 0
6.43397 65.8958 34.7616 0
7.32082 66.5739 34.9345 0
2.87908 62.0529 34.263 0
2.505 62.4201 34.9336 0
1.24262 61.8389 34.9598 0
0.519293 61.1509 34.0098 0
0.00627999 61.5063 34.674 0
-1.0962 61.4985 34.0776 0
-2.41956 61.1458 34.0711 0
-3.54304 60.822 34.3132 0
-4.32401 60.9398 33.553 0
-5.21621 61.4511 33.5323 0
-5.23325 61.9729 34.2675 0
-5.79876 62.2824 34.4284 0
-6.56796 62.076 33.8378 0
-8.15023 61.8917 35.6032 0
-8.10384 62.2748 36.1647 0
-8.74514 60.8815 36.293 0
-8.59275 61.1151 36.8045 0
-6.89442 62.2343 34.298 0
-7.16838 62.4457 35.0819 0
-8.02806 61.5748 35.0471 0
-8.51434 61.3056 37.4038 0
-8.45259 61.4559 38.007 0
-8.58141 60.3417 38.0055 0
-8.50521 58.8816 37.2628 0
-8.28909 59.2042 37.8459 0
-7.7305 58.0563 37.55 0
-7.29952 58.228 38.0194 0
-6.66315 57.2875 37.2502 0
-6.09475 57.4282 37.4173 0
-3.81597 54.8871 35.3291 0
-5.55024 57.2176 37.6777 0
-4.41014 55.8672 36.6312 0
8.05296 64.0475 26.5027 0
7.68228 63.8216 26.1946 0
6.13047 63.4356 25.7815 0
7.24032 63.5581 25.5543 0
6.91369 63.2967 24.8496 0
6.62424 62.9762 24.0115 0
6.35238 62.5796 23.2267 0
5.30505 62.5207 23.0587 0
-1.12433 61.6666 19.1831 0
-0.337993 61.6128 19.2757 0
2.86883 60.7461 19.8965 0
0.236955 60.9056 18.9909 0
1.09778 60.981 19.1704 0
1.98459 60.8848 19.5046 0
6.07038 62.1084 22.4433 0
5.74915 61.563 21.6818 0
4.922 60.6481 20.2226 0
5.3515 61.104 20.9555 0
3.43508 60.0302 19.7866 0
4.47164 59.9943 19.9413 0
-2.33391 61.8844 19.6045 0
-2.92053 61.7526 19.5058 0
-1.8179 61.6412 19.1055 0
-2.93596 53.0243 33.5686 0
-2.73048 53.6878 34.5284 0
-2.32844 52.7667 33.777 0
-3.93157 51.3767 31.7778 0
-3.87819 50.8856 31.3362 0
-3.84029 50.3992 30.8763 0
-4.54389 50.5946 30.8155 0
-2.76791 52.33 32.8476 0
-3.33347 52.5381 32.6369 0
-3.31865 51.7715 32.2278 0
-3.30991 51.171 31.8295 0
-8.29324 52.1639 25.7834 0
-8.04276 53.3096 25.0325 0
-7.71297 54.5781 24.2055 0
-7.87259 56.457 23.8697 0
-7.4775 56.7653 23.319 0
-7.28576 58.0303 23.0145 0
-7.75691 60.244 22.6713 0
-7.19521 59.1668 22.7117 0
-7.45442 60.3171 22.2459 0
-7.70965 61.5383 21.9034 0
-7.6842 62.554 21.5811 0
-7.29386 62.1819 21.1088 0
-6.79396 62.6679 21.0105 0
-6.31606 62.995 20.8791 0
-6.12987 62.4466 20.4198 0
-5.54256 62.6874 20.4254 0
-5.28863 62.0655 19.9448 0
-4.76434 62.3688 19.9695 0
-4.29853 62.5094 20.0205 0
-4.0013 62.0501 19.5965 0
-3.50784 61.7209 19.2579 0
-4.62654 49.968 30.5625 0
-5.36807 50.156 30.4679 0
-5.41074 49.7493 29.9865 0
-6.1372 50.0256 29.7181 0
-6.33575 49.6214 29.3844 0
-7.13981 49.8134 29.2764 0
-7.28946 49.6341 28.8634 0
-7.77032 50.1048 28.3565 0
-8.19065 50.5547 27.7622 0
-8.62657 50.8864 27.2264 0
-8.29484 51.0427 26.4348 0
503 2042 2043 0
503 2043 2044 0
128 503 2044 0
504 2045 2046 0
2044 2045 504 0
128 2044 504 0
506 504 2046 0
505 128 504 0
505 504 506 0
8 505 506 0
506 2046 2047 0
506 2047 2048 0
8 506 2048 0
508 2048 2049 0
507 8 2048 0
507 2048 508 0
129 507 508 0
509 2050 2051 0
508 2049 2050 0
508 2050 509 0
129 508 509 0
511 509 2051 0
510 129 509 0
510 509 511 0
34 510 511 0
512 2052 2053 0
511 2051 2052 0
511 2052 512 0
34 511 512 0
513 2053 2054 0
513 2054 2055 0
131 513 2055 0
515 512 2053 0
514 34 512 0
514 512 515 0
130 514 515 0
516 513 131 0
515 2053 513 0
515 513 516 0
130 515 516 0
518 516 131 0
517 130 516 0
517 516 518 0
2 517 518 0
519 2056 2057 0
2058 2056 519 0
132 2058 519 0
131 2055 2059 0
520 2058 132 0
2059 2058 520 0
131 2059 520 0
521 520 132 0
518 131 520 0
518 520 521 0
2 518 521 0
522 2060 2061 0
522 2061 2062 0
10 522 2062 0
523 2063 2064 0
523 2064 2065 0
36 523 2065 0
2066 519 2057 0
524 132 519 0
524 519 2066 0
134 524 2066 0
526 521 132 0
525 2 521 0
525 521 526 0
133 525 526 0
527 524 134 0
526 132 524 0
526 524 527 0
133 526 527 0
529 527 134 0
528 133 527 0
528 527 529 0
35 528 529 0
530 523 36 0
2067 2063 523 0
2067 523 530 0
135 2067 530 0
531 2068 2063 0
2066 2068 531 0
134 2066 531 0
532 2067 135 0
531 2063 2067 0
531 2067 532 0
134 531 532 0
533 532 135 0
529 134 532 0
529 532 533 0
35 529 533 0
535 530 36 0
534 135 530 0
534 530 535 0
137 534 535 0
537 533 135 0
536 35 533 0
536 533 537 0
136 536 537 0
538 534 137 0
537 135 534 0
537 534 538 0
136 537 538 0
540 538 137 0
539 136 538 0
539 538 540 0
9 539 540 0
542 522 10 0
541 2060 522 0
541 522 542 0
139 541 542 0
543 2069 2060 0
2070 2069 543 0
138 2070 543 0
544 541 139 0
543 2060 541 0
543 541 544 0
138 543 544 0
546 544 139 0
545 138 544 0
545 544 546 0
37 545 546 0
547 2071 2072 0
2065 2071 547 0
36 2065 547 0
549 545 37 0
548 138 545 0
548 545 549 0
140 548 549 0
550 2070 138 0
2073 2070 550 0
2072 2073 550 0
551 548 140 0
550 138 548 0
550 548 551 0
2072 550 551 0
552 551 140 0
547 2072 551 0
547 551 552 0
36 547 552 0
554 549 37 0
553 140 549 0
553 549 554 0
141 553 554 0
555 552 140 0
535 36 552 0
535 552 555 0
137 535 555 0
556 553 141 0
555 140 553 0
555 553 556 0
137 555 556 0
557 556 141 0
540 137 556 0
540 556 557 0
9 540 557 0
559 542 10 0
558 139 542 0
558 542 559 0
143 558 559 0
561 546 139 0
560 37 546 0
560 546 561 0
142 560 561 0
562 558 143 0
561 139 558 0
561 558 562 0
142 561 562 0
564 562 143 0
563 142 562 0
563 562 564 0
39 563 564 0
566 554 37 0
565 141 554 0
565 554 566 0
145 565 566 0
568 557 141 0
567 9 557 0
567 557 568 0
144 567 568 0
569 565 145 0
568 141 565 0
568 565 569 0
144 568 569 0
571 569 145 0
570 144 569 0
570 569 571 0
38 570 571 0
573 563 39 0
572 142 563 0
572 563 573 0
146 572 573 0
574 560 142 0
566 37 560 0
566 560 574 0
145 566 574 0
575 572 146 0
574 142 572 0
574 572 575 0
145 574 575 0
576 575 146 0
571 145 575 0
571 575 576 0
38 571 576 0
578 573 39 0
577 146 573 0
577 573 578 0
148 577 578 0
580 576 146 0
579 38 576 0
579 576 580 0
147 579 580 0
581 577 148 0
580 146 577 0
580 577 581 0
147 580 581 0
583 581 148 0
582 147 581 0
582 581 583 0
0 582 583 0
585 582 0 0
584 147 582 0
584 582 585 0
150 584 585 0
587 579 147 0
586 38 579 0
586 579 587 0
149 586 587 0
588 584 150 0
587 147 584 0
587 584 588 0
149 587 588 0
590 588 150 0
589 149 588 0
589 588 590 0
41 589 590 0
592 570 38 0
591 144 570 0
591 570 592 0
152 591 592 0
594 567 144 0
593 9 567 0
593 567 594 0
151 593 594 0
595 591 152 0
594 144 591 0
594 591 595 0
151 594 595 0
597 595 152 0
596 151 595 0
596 595 597 0
40 596 597 0
599 589 41 0
598 149 589 0
598 589 599 0
153 598 599 0
600 586 149 0
592 38 586 0
592 586 600 0
152 592 600 0
601 598 153 0
600 149 598 0
600 598 601 0
152 600 601 0
602 601 153 0
597 152 601 0
597 601 602 0
40 597 602 0
604 599 41 0
603 153 599 0
603 599 604 0
155 603 604 0
606 602 153 0
605 40 602 0
605 602 606 0
154 605 606 0
607 603 155 0
606 153 603 0
606 603 607 0
154 606 607 0
609 607 155 0
608 154 607 0
608 607 609 0
12 608 609 0
611 539 9 0
610 136 539 0
610 539 611 0
157 610 611 0
613 536 136 0
612 35 536 0
612 536 613 0
156 612 613 0
614 610 157 0
613 136 610 0
613 610 614 0
156 613 614 0
616 614 157 0
615 156 614 0
615 614 616 0
43 615 616 0
618 528 35 0
617 133 528 0
617 528 618 0
159 617 618 0
620 525 133 0
619 2 525 0
619 525 620 0
158 619 620 0
621 617 159 0
620 133 617 0
620 617 621 0
158 620 621 0
623 621 159 0
622 158 621 0
622 621 623 0
42 622 623 0
625 615 43 0
624 156 615 0
624 615 625 0
160 624 625 0
626 612 156 0
618 35 612 0
618 612 626 0
159 618 626 0
627 624 160 0
626 156 624 0
626 624 627 0
159 626 627 0
628 627 160 0
623 159 627 0
623 627 628 0
42 623 628 0
630 625 43 0
629 160 625 0
629 625 630 0
162 629 630 0
632 628 160 0
631 42 628 0
631 628 632 0
161 631 632 0
633 629 162 0
632 160 629 0
632 629 633 0
161 632 633 0
635 633 162 0
634 161 633 0
634 633 635 0
11 634 635 0
637 608 12 0
636 154 608 0
636 608 637 0
164 636 637 0
639 605 154 0
638 40 605 0
638 605 639 0
163 638 639 0
640 636 164 0
639 154 636 0
639 636 640 0
163 639 640 0
642 640 164 0
641 163 640 0
641 640 642 0
44 641 642 0
644 596 40 0
643 151 596 0
643 596 644 0
165 643 644 0
645 593 151 0
611 9 593 0
611 593 645 0
157 611 645 0
646 643 165 0
645 151 643 0
645 643 646 0
157 645 646 0
647 646 165 0
616 157 646 0
616 646 647 0
43 616 647 0
649 641 44 0
648 163 641 0
648 641 649 0
166 648 649 0
650 638 163 0
644 40 638 0
644 638 650 0
165 644 650 0
651 648 166 0
650 163 648 0
650 648 651 0
165 650 651 0
652 651 166 0
647 165 651 0
647 651 652 0
43 647 652 0
654 649 44 0
653 166 649 0
653 649 654 0
167 653 654 0
655 652 166 0
630 43 652 0
630 652 655 0
162 630 655 0
656 653 167 0
655 166 653 0
655 653 656 0
162 655 656 0
657 656 167 0
635 162 656 0
635 656 657 0
11 635 657 0
659 637 12 0
658 164 637 0
658 637 659 0
169 658 659 0
661 642 164 0
660 44 642 0
660 642 661 0
168 660 661 0
662 658 169 0
661 164 658 0
661 658 662 0
168 661 662 0
664 662 169 0
663 168 662 0
663 662 664 0
46 663 664 0
666 654 44 0
665 167 654 0
665 654 666 0
171 665 666 0
668 657 167 0
667 11 657 0
667 657 668 0
170 667 668 0
669 665 171 0
668 167 665 0
668 665 669 0
170 668 669 0
671 669 171 0
670 170 669 0
670 669 671 0
45 670 671 0
673 663 46 0
672 168 663 0
672 663 673 0
172 672 673 0
674 660 168 0
666 44 660 0
666 660 674 0
171 666 674 0
675 672 172 0
674 168 672 0
674 672 675 0
171 674 675 0
676 675 172 0
671 171 675 0
671 675 676 0
45 671 676 0
678 673 46 0
677 172 673 0
677 673 678 0
174 677 678 0
680 676 172 0
679 45 676 0
679 676 680 0
173 679 680 0
681 677 174 0
680 172 677 0
680 677 681 0
173 680 681 0
683 681 174 0
682 173 681 0
682 681 683 0
4 682 683 0
685 517 2 0
684 130 517 0
684 517 685 0
176 684 685 0
687 514 130 0
686 34 514 0
686 514 687 0
175 686 687 0
688 684 176 0
687 130 684 0
687 684 688 0
175 687 688 0
690 688 176 0
689 175 688 0
689 688 690 0
48 689 690 0
692 510 34 0
691 129 510 0
691 510 692 0
178 691 692 0
694 507 129 0
693 8 507 0
693 507 694 0
177 693 694 0
695 691 178 0
694 129 691 0
694 691 695 0
177 694 695 0
697 695 178 0
696 177 695 0
696 695 697 0
47 696 697 0
699 689 48 0
698 175 689 0
698 689 699 0
179 698 699 0
700 686 175 0
692 34 686 0
692 686 700 0
178 692 700 0
701 698 179 0
700 175 698 0
700 698 701 0
178 700 701 0
702 701 179 0
697 178 701 0
697 701 702 0
47 697 702 0
704 699 48 0
703 179 699 0
703 699 704 0
181 703 704 0
706 702 179 0
705 47 702 0
705 702 706 0
180 705 706 0
707 703 181 0
706 179 703 0
706 703 707 0
180 706 707 0
709 707 181 0
708 180 707 0
708 707 709 0
14 708 709 0
711 505 8 0
710 128 505 0
710 505 711 0
183 710 711 0
713 503 128 0
712 2042 503 0
712 503 713 0
182 712 713 0
714 710 183 0
713 128 710 0
713 710 714 0
182 713 714 0
716 714 183 0
715 182 714 0
715 714 716 0
50 715 716 0
718 2074 2042 0
717 2075 2074 0
717 2074 718 0
185 717 718 0
720 2076 2075 0
719 2077 2076 0
719 2076 720 0
184 719 720 0
721 717 185 0
720 2075 717 0
720 717 721 0
184 720 721 0
723 721 185 0
722 184 721 0
722 721 723 0
49 722 723 0
725 715 50 0
724 182 715 0
724 715 725 0
186 724 725 0
726 712 182 0
718 2042 712 0
718 712 726 0
185 718 726 0
727 724 186 0
726 182 724 0
726 724 727 0
185 726 727 0
728 727 186 0
723 185 727 0
723 727 728 0
49 723 728 0
730 725 50 0
729 186 725 0
729 725 730 0
188 729 730 0
732 728 186 0
731 49 728 0
731 728 732 0
187 731 732 0
733 729 188 0
732 186 729 0
732 729 733 0
187 732 733 0
735 733 188 0
734 187 733 0
734 733 735 0
13 734 735 0
737 708 14 0
736 180 708 0
736 708 737 0
190 736 737 0
739 705 180 0
738 47 705 0
738 705 739 0
189 738 739 0
740 736 190 0
739 180 736 0
739 736 740 0
189 739 740 0
742 740 190 0
741 189 740 0
741 740 742 0
51 741 742 0
744 696 47 0
743 177 696 0
743 696 744 0
191 743 744 0
745 693 177 0
711 8 693 0
711 693 745 0
183 711 745 0
746 743 191 0
745 177 743 0
745 743 746 0
183 745 746 0
747 746 191 0
716 183 746 0
716 746 747 0
50 716 747 0
749 741 51 0
748 189 741 0
748 741 749 0
192 748 749 0
750 738 189 0
744 47 738 0
744 738 750 0
191 744 750 0
751 748 192 0
750 189 748 0
750 748 751 0
191 750 751 0
752 751 192 0
747 191 751 0
747 751 752 0
50 747 752 0
754 749 51 0
753 192 749 0
753 749 754 0
193 753 754 0
755 752 192 0
730 50 752 0
730 752 755 0
188 730 755 0
756 753 193 0
755 192 753 0
755 753 756 0
188 755 756 0
757 756 193 0
735 188 756 0
735 756 757 0
13 735 757 0
759 737 14 0
758 190 737 0
758 737 759 0
195 758 759 0
761 742 190 0
760 51 742 0
760 742 761 0
194 760 761 0
762 758 195 0
761 190 758 0
761 758 762 0
194 761 762 0
764 762 195 0
763 194 762 0
763 762 764 0
53 763 764 0
766 754 51 0
765 193 754 0
765 754 766 0
197 765 766 0
768 757 193 0
767 13 757 0
767 757 768 0
196 767 768 0
769 765 197 0
768 193 765 0
768 765 769 0
196 768 769 0
771 769 197 0
770 196 769 0
770 769 771 0
52 770 771 0
773 763 53 0
772 194 763 0
772 763 773 0
198 772 773 0
774 760 194 0
766 51 760 0
766 760 774 0
197 766 774 0
775 772 198 0
774 194 772 0
774 772 775 0
197 774 775 0
776 775 198 0
771 197 775 0
771 775 776 0
52 771 776 0
778 773 53 0
777 198 773 0
777 773 778 0
200 777 778 0
780 776 198 0
779 52 776 0
779 776 780 0
199 779 780 0
781 777 200 0
780 198 777 0
780 777 781 0
199 780 781 0
783 781 200 0
782 199 781 0
782 781 783 0
3 782 783 0
785 682 4 0
784 173 682 0
784 682 785 0
202 784 785 0
787 679 173 0
786 45 679 0
786 679 787 0
201 786 787 0
788 784 202 0
787 173 784 0
787 784 788 0
201 787 788 0
790 788 202 0
789 201 788 0
789 788 790 0
55 789 790 0
792 670 45 0
791 170 670 0
791 670 792 0
204 791 792 0
794 667 170 0
793 11 667 0
793 667 794 0
203 793 794 0
795 791 204 0
794 170 791 0
794 791 795 0
203 794 795 0
797 795 204 0
796 203 795 0
796 795 797 0
54 796 797 0
799 789 55 0
798 201 789 0
798 789 799 0
205 798 799 0
800 786 201 0
792 45 786 0
792 786 800 0
204 792 800 0
801 798 205 0
800 201 798 0
800 798 801 0
204 800 801 0
802 801 205 0
797 204 801 0
797 801 802 0
54 797 802 0
804 799 55 0
803 205 799 0
803 799 804 0
207 803 804 0
806 802 205 0
805 54 802 0
805 802 806 0
206 805 806 0
807 803 207 0
806 205 803 0
806 803 807 0
206 806 807 0
809 807 207 0
808 206 807 0
808 807 809 0
15 808 809 0
811 634 11 0
810 161 634 0
810 634 811 0
209 810 811 0
813 631 161 0
812 42 631 0
812 631 813 0
208 812 813 0
814 810 209 0
813 161 810 0
813 810 814 0
208 813 814 0
816 814 209 0
815 208 814 0
815 814 816 0
56 815 816 0
818 622 42 0
817 158 622 0
817 622 818 0
210 817 818 0
819 619 158 0
685 2 619 0
685 619 819 0
176 685 819 0
820 817 210 0
819 158 817 0
819 817 820 0
176 819 820 0
821 820 210 0
690 176 820 0
690 820 821 0
48 690 821 0
823 815 56 0
822 208 815 0
822 815 823 0
211 822 823 0
824 812 208 0
818 42 812 0
818 812 824 0
210 818 824 0
825 822 211 0
824 208 822 0
824 822 825 0
210 824 825 0
826 825 211 0
821 210 825 0
821 825 826 0
48 821 826 0
828 823 56 0
827 211 823 0
827 823 828 0
212 827 828 0
829 826 211 0
704 48 826 0
704 826 829 0
181 704 829 0
830 827 212 0
829 211 827 0
829 827 830 0
181 829 830 0
831 830 212 0
709 181 830 0
709 830 831 0
14 709 831 0
833 808 15 0
832 206 808 0
832 808 833 0
214 832 833 0
835 805 206 0
834 54 805 0
834 805 835 0
213 834 835 0
836 832 214 0
835 206 832 0
835 832 836 0
213 835 836 0
838 836 214 0
837 213 836 0
837 836 838 0
57 837 838 0
840 796 54 0
839 203 796 0
839 796 840 0
215 839 840 0
841 793 203 0
811 11 793 0
811 793 841 0
209 811 841 0
842 839 215 0
841 203 839 0
841 839 842 0
209 841 842 0
843 842 215 0
816 209 842 0
816 842 843 0
56 816 843 0
845 837 57 0
844 213 837 0
844 837 845 0
216 844 845 0
846 834 213 0
840 54 834 0
840 834 846 0
215 840 846 0
847 844 216 0
846 213 844 0
846 844 847 0
215 846 847 0
848 847 216 0
843 215 847 0
843 847 848 0
56 843 848 0
850 845 57 0
849 216 845 0
849 845 850 0
217 849 850 0
851 848 216 0
828 56 848 0
828 848 851 0
212 828 851 0
852 849 217 0
851 216 849 0
851 849 852 0
212 851 852 0
853 852 217 0
831 212 852 0
831 852 853 0
14 831 853 0
855 833 15 0
854 214 833 0
854 833 855 0
219 854 855 0
857 838 214 0
856 57 838 0
856 838 857 0
218 856 857 0
858 854 219 0
857 214 854 0
857 854 858 0
218 857 858 0
860 858 219 0
859 218 858 0
859 858 860 0
58 859 860 0
862 850 57 0
861 217 850 0
861 850 862 0
220 861 862 0
863 853 217 0
759 14 853 0
759 853 863 0
195 759 863 0
864 861 220 0
863 217 861 0
863 861 864 0
195 863 864 0
865 864 220 0
764 195 864 0
764 864 865 0
53 764 865 0
867 859 58 0
866 218 859 0
866 859 867 0
221 866 867 0
868 856 218 0
862 57 856 0
862 856 868 0
220 862 868 0
869 866 221 0
868 218 866 0
868 866 869 0
220 868 869 0
870 869 221 0
865 220 869 0
865 869 870 0
53 865 870 0
872 867 58 0
871 221 867 0
871 867 872 0
222 871 872 0
873 870 221 0
778 53 870 0
778 870 873 0
200 778 873 0
874 871 222 0
873 221 871 0
873 871 874 0
200 873 874 0
875 874 222 0
783 200 874 0
783 874 875 0
3 783 875 0
877 785 4 0
876 202 785 0
876 785 877 0
224 876 877 0
879 790 202 0
878 55 790 0
878 790 879 0
223 878 879 0
880 876 224 0
879 202 876 0
879 876 880 0
223 879 880 0
2078 880 224 0
881 223 880 0
881 880 2078 0
2079 881 2078 0
883 804 55 0
882 207 804 0
882 804 883 0
226 882 883 0
885 809 207 0
884 15 809 0
884 809 885 0
225 884 885 0
886 882 226 0
885 207 882 0
885 882 886 0
225 885 886 0
888 886 226 0
887 225 886 0
887 886 888 0
2080 887 888 0
2081 881 2079 0
889 223 881 0
889 881 2081 0
2082 889 2081 0
890 878 223 0
883 55 878 0
883 878 890 0
226 883 890 0
891 889 2082 0
890 223 889 0
890 889 891 0
226 890 891 0
2083 891 2082 0
888 226 891 0
888 891 2083 0
2080 888 2083 0
893 855 15 0
892 219 855 0
892 855 893 0
228 892 893 0
895 860 219 0
894 58 860 0
894 860 895 0
227 894 895 0
896 892 228 0
895 219 892 0
895 892 896 0
227 895 896 0
898 896 228 0
897 227 896 0
897 896 898 0
60 897 898 0
900 872 58 0
899 222 872 0
899 872 900 0
230 899 900 0
902 875 222 0
901 3 875 0
901 875 902 0
229 901 902 0
903 899 230 0
902 222 899 0
902 899 903 0
229 902 903 0
905 903 230 0
904 229 903 0
904 903 905 0
59 904 905 0
907 897 60 0
906 227 897 0
906 897 907 0
231 906 907 0
908 894 227 0
900 58 894 0
900 894 908 0
230 900 908 0
909 906 231 0
908 227 906 0
908 906 909 0
230 908 909 0
910 909 231 0
905 230 909 0
905 909 910 0
59 905 910 0
912 907 60 0
911 231 907 0
911 907 912 0
2084 911 912 0
914 910 231 0
913 59 910 0
913 910 914 0
232 913 914 0
915 911 2084 0
914 231 911 0
914 911 915 0
232 914 915 0
2085 915 2084 0
2086 232 915 0
2086 915 2085 0
917 887 2080 0
916 225 887 0
916 887 917 0
233 916 917 0
918 884 225 0
893 15 884 0
893 884 918 0
228 893 918 0
919 916 233 0
918 225 916 0
918 916 919 0
228 918 919 0
920 919 233 0
898 228 919 0
898 919 920 0
60 898 920 0
917 2080 2087 0
917 2087 2088 0
233 917 2088 0
233 2088 2089 0
921 2089 2090 0
920 233 2089 0
920 2089 921 0
60 920 921 0
2091 921 2090 0
912 60 921 0
912 921 2091 0
2084 912 2091 0
922 2092 2077 0
2093 2092 922 0
235 2093 922 0
923 2094 2095 0
2096 2094 923 0
234 2096 923 0
924 2093 235 0
923 2095 2093 0
923 2093 924 0
234 923 924 0
926 924 235 0
925 234 924 0
925 924 926 0
62 925 926 0
236 2097 2098 0
236 2098 2099 0
928 2099 2100 0
927 236 2099 0
927 2099 928 0
61 927 928 0
930 925 62 0
929 234 925 0
929 925 930 0
237 929 930 0
931 2096 234 0
2101 2096 931 0
2100 2101 931 0
932 929 237 0
931 234 929 0
931 929 932 0
2100 931 932 0
933 932 237 0
928 2100 932 0
928 932 933 0
61 928 933 0
935 930 62 0
934 237 930 0
934 930 935 0
239 934 935 0
937 933 237 0
936 61 933 0
936 933 937 0
238 936 937 0
938 934 239 0
937 237 934 0
937 934 938 0
238 937 938 0
940 938 239 0
939 238 938 0
939 938 940 0
17 939 940 0
941 2102 2103 0
2104 2102 941 0
240 2104 941 0
942 2104 240 0
2105 2104 942 0
2106 2105 942 0
944 942 240 0
943 2106 942 0
943 942 944 0
16 943 944 0
946 939 17 0
945 238 939 0
945 939 946 0
242 945 946 0
948 936 238 0
947 61 936 0
947 936 948 0
241 947 948 0
949 945 242 0
948 238 945 0
948 945 949 0
241 948 949 0
951 949 242 0
950 241 949 0
950 949 951 0
63 950 951 0
953 927 61 0
952 236 927 0
952 927 953 0
243 952 953 0
2107 2097 236 0
2108 952 243 0
2107 236 952 0
2107 952 2108 0
954 2108 243 0
2109 2108 954 0
2103 2109 954 0
956 950 63 0
955 241 950 0
955 950 956 0
244 955 956 0
957 947 241 0
953 61 947 0
953 947 957 0
243 953 957 0
958 955 244 0
957 241 955 0
957 955 958 0
243 957 958 0
959 958 244 0
954 243 958 0
954 958 959 0
2103 954 959 0
961 956 63 0
960 244 956 0
960 956 961 0
245 960 961 0
962 959 244 0
941 2103 959 0
941 959 962 0
240 941 962 0
963 960 245 0
962 244 960 0
962 960 963 0
240 962 963 0
964 963 245 0
944 240 963 0
944 963 964 0
16 944 964 0
966 946 17 0
965 242 946 0
965 946 966 0
247 965 966 0
968 951 242 0
967 63 951 0
967 951 968 0
246 967 968 0
969 965 247 0
968 242 965 0
968 965 969 0
246 968 969 0
971 969 247 0
970 246 969 0
970 969 971 0
65 970 971 0
973 961 63 0
972 245 961 0
972 961 973 0
249 972 973 0
975 964 245 0
974 16 964 0
974 964 975 0
248 974 975 0
976 972 249 0
975 245 972 0
975 972 976 0
248 975 976 0
978 976 249 0
977 248 976 0
977 976 978 0
64 977 978 0
980 970 65 0
979 246 970 0
979 970 980 0
250 979 980 0
981 967 246 0
973 63 967 0
973 967 981 0
249 973 981 0
982 979 250 0
981 246 979 0
981 979 982 0
249 981 982 0
983 982 250 0
978 249 982 0
978 982 983 0
64 978 983 0
985 980 65 0
984 250 980 0
984 980 985 0
252 984 985 0
987 983 250 0
986 64 983 0
986 983 987 0
251 986 987 0
988 984 252 0
987 250 984 0
987 984 988 0
251 987 988 0
990 988 252 0
989 251 988 0
989 988 990 0
5 989 990 0
992 989 5 0
991 251 989 0
991 989 992 0
254 991 992 0
994 986 251 0
993 64 986 0
993 986 994 0
253 993 994 0
995 991 254 0
994 251 991 0
994 991 995 0
253 994 995 0
997 995 254 0
996 253 995 0
996 995 997 0
67 996 997 0
999 977 64 0
998 248 977 0
998 977 999 0
256 998 999 0
1001 974 248 0
1000 16 974 0
1000 974 1001 0
255 1000 1001 0
1002 998 256 0
1001 248 998 0
1001 998 1002 0
255 1001 1002 0
1004 1002 256 0
1003 255 1002 0
1003 1002 1004 0
66 1003 1004 0
1006 996 67 0
1005 253 996 0
1005 996 1006 0
257 1005 1006 0
1007 993 253 0
999 64 993 0
999 993 1007 0
256 999 1007 0
1008 1005 257 0
1007 253 1005 0
1007 1005 1008 0
256 1007 1008 0
1009 1008 257 0
1004 256 1008 0
1004 1008 1009 0
66 1004 1009 0
1011 1006 67 0
1010 257 1006 0
1010 1006 1011 0
259 1010 1011 0
1013 1009 257 0
1012 66 1009 0
1012 1009 1013 0
258 1012 1013 0
1014 1010 259 0
1013 257 1010 0
1013 1010 1014 0
258 1013 1014 0
1016 1014 259 0
1015 258 1014 0
1015 1014 1016 0
18 1015 1016 0
1017 943 16 0
2110 2106 943 0
2110 943 1017 0
2111 2110 1017 0
1019 1015 18 0
1018 258 1015 0
1018 1015 1019 0
2112 1018 1019 0
1021 1012 258 0
1020 66 1012 0
1020 1012 1021 0
2113 1020 1021 0
2114 1018 2112 0
1021 258 1018 0
1021 1018 2114 0
2113 1021 2114 0
1023 1003 66 0
1022 255 1003 0
1022 1003 1023 0
2115 1022 1023 0
1024 1000 255 0
1017 16 1000 0
1017 1000 1024 0
2111 1017 1024 0
2116 1022 2115 0
1024 255 1022 0
1024 1022 2116 0
2111 1024 2116 0
2117 1020 2113 0
1023 66 1020 0
1023 1020 2117 0
2115 1023 2117 0
1025 1019 18 0
2118 2112 1019 0
2118 1019 1025 0
2119 2118 1025 0
1027 992 5 0
1026 254 992 0
1026 992 1027 0
261 1026 1027 0
1029 997 254 0
1028 67 997 0
1028 997 1029 0
260 1028 1029 0
1030 1026 261 0
1029 254 1026 0
1029 1026 1030 0
260 1029 1030 0
1032 1030 261 0
1031 260 1030 0
1031 1030 1032 0
69 1031 1032 0
1034 1011 67 0
1033 259 1011 0
1033 1011 1034 0
263 1033 1034 0
1036 1016 259 0
1035 18 1016 0
1035 1016 1036 0
262 1035 1036 0
1037 1033 263 0
1036 259 1033 0
1036 1033 1037 0
262 1036 1037 0
1039 1037 263 0
1038 262 1037 0
1038 1037 1039 0
68 1038 1039 0
1041 1031 69 0
1040 260 1031 0
1040 1031 1041 0
264 1040 1041 0
1042 1028 260 0
1034 67 1028 0
1034 1028 1042 0
263 1034 1042 0
1043 1040 264 0
1042 260 1040 0
1042 1040 1043 0
263 1042 1043 0
1044 1043 264 0
1039 263 1043 0
1039 1043 1044 0
68 1039 1044 0
1046 1041 69 0
1045 264 1041 0
1045 1041 1046 0
266 1045 1046 0
1048 1044 264 0
1047 68 1044 0
1047 1044 1048 0
265 1047 1048 0
1049 1045 266 0
1048 264 1045 0
1048 1045 1049 0
265 1048 1049 0
1051 1049 266 0
1050 265 1049 0
1050 1049 1051 0
19 1050 1051 0
1052 1025 18 0
2120 2119 1025 0
2120 1025 1052 0
267 2120 1052 0
2121 2120 267 0
1053 2121 267 0
2122 2121 1053 0
2123 2122 1053 0
1055 1050 19 0
1054 265 1050 0
1054 1050 1055 0
269 1054 1055 0
1057 1047 265 0
1056 68 1047 0
1056 1047 1057 0
268 1056 1057 0
1058 1054 269 0
1057 265 1054 0
1057 1054 1058 0
268 1057 1058 0
1060 1058 269 0
1059 268 1058 0
1059 1058 1060 0
70 1059 1060 0
1062 1038 68 0
1061 262 1038 0
1061 1038 1062 0
270 1061 1062 0
1063 1035 262 0
1052 18 1035 0
1052 1035 1063 0
267 1052 1063 0
1064 1061 270 0
1063 262 1061 0
1063 1061 1064 0
267 1063 1064 0
1065 1064 270 0
1053 267 1064 0
1053 1064 1065 0
2123 1053 1065 0
1067 1059 70 0
1066 268 1059 0
1066 1059 1067 0
271 1066 1067 0
1068 1056 268 0
1062 68 1056 0
1062 1056 1068 0
270 1062 1068 0
1069 1066 271 0
1068 268 1066 0
1068 1066 1069 0
270 1068 1069 0
2124 1069 271 0
1065 270 1069 0
1065 1069 2124 0
2123 1065 2124 0
1071 1067 70 0
1070 271 1067 0
1070 1067 1071 0
272 1070 1071 0
1072 2124 271 0
2125 2124 1072 0
2126 2125 1072 0
1073 1070 272 0
1072 271 1070 0
1072 1070 1073 0
2126 1072 1073 0
1074 1073 272 0
2127 2126 1073 0
2127 1073 1074 0
2128 2127 1074 0
1076 1055 19 0
1075 269 1055 0
1075 1055 1076 0
274 1075 1076 0
1078 1060 269 0
1077 70 1060 0
1077 1060 1078 0
273 1077 1078 0
1079 1075 274 0
1078 269 1075 0
1078 1075 1079 0
273 1078 1079 0
1081 1079 274 0
1080 273 1079 0
1080 1079 1081 0
71 1080 1081 0
1083 1071 70 0
1082 272 1071 0
1082 1071 1083 0
275 1082 1083 0
1084 1074 272 0
2129 2128 1074 0
2129 1074 1084 0
2130 2129 1084 0
1085 1082 275 0
1084 272 1082 0
1084 1082 1085 0
2130 1084 1085 0
2131 1085 275 0
2132 2130 1085 0
2132 1085 2131 0
1087 1080 71 0
1086 273 1080 0
1086 1080 1087 0
2133 1086 1087 0
1088 1077 273 0
1083 70 1077 0
1083 1077 1088 0
275 1083 1088 0
1089 1086 2133 0
1088 273 1086 0
1088 1086 1089 0
275 1088 1089 0
2134 1089 2133 0
2131 275 1089 0
2131 1089 2134 0
2135 1087 71 0
2136 2133 1087 0
2136 1087 2135 0
1090 232 2086 0
1090 2086 2137 0
2138 1090 2137 0
1092 913 232 0
1091 59 913 0
1091 913 1092 0
276 1091 1092 0
1093 1090 2138 0
1092 232 1090 0
1092 1090 1093 0
276 1092 1093 0
2139 1093 2138 0
1094 276 1093 0
1094 1093 2139 0
73 1094 2139 0
1096 904 59 0
1095 229 904 0
1095 904 1096 0
278 1095 1096 0
1098 901 229 0
1097 3 901 0
1097 901 1098 0
277 1097 1098 0
1099 1095 278 0
1098 229 1095 0
1098 1095 1099 0
277 1098 1099 0
1101 1099 278 0
1100 277 1099 0
1100 1099 1101 0
72 1100 1101 0
1103 1094 73 0
1102 276 1094 0
1102 1094 1103 0
279 1102 1103 0
1104 1091 276 0
1096 59 1091 0
1096 1091 1104 0
278 1096 1104 0
1105 1102 279 0
1104 276 1102 0
1104 1102 1105 0
278 1104 1105 0
1106 1105 279 0
1101 278 1105 0
1101 1105 1106 0
72 1101 1106 0
1108 1103 73 0
1107 279 1103 0
1107 1103 1108 0
281 1107 1108 0
1110 1106 279 0
1109 72 1106 0
1109 1106 1110 0
280 1109 1110 0
1111 1107 281 0
1110 279 1107 0
1110 1107 1111 0
280 1110 1111 0
1113 1111 281 0
1112 280 1111 0
1112 1111 1113 0
20 1112 1113 0
73 2139 2140 0
73 2140 2141 0
1108 73 2141 0
1108 2141 2142 0
281 1108 2142 0
281 2142 2143 0
1113 281 2143 0
1113 2143 2144 0
20 1113 2144 0
1114 20 2144 0
1114 2144 2145 0
2146 1114 2145 0
1116 782 3 0
1115 199 782 0
1115 782 1116 0
283 1115 1116 0
1118 779 199 0
1117 52 779 0
1117 779 1118 0
282 1117 1118 0
1119 1115 283 0
1118 199 1115 0
1118 1115 1119 0
282 1118 1119 0
1121 1119 283 0
1120 282 1119 0
1120 1119 1121 0
75 1120 1121 0
1123 770 52 0
1122 196 770 0
1122 770 1123 0
285 1122 1123 0
1125 767 196 0
1124 13 767 0
1124 767 1125 0
284 1124 1125 0
1126 1122 285 0
1125 196 1122 0
1125 1122 1126 0
284 1125 1126 0
1128 1126 285 0
1127 284 1126 0
1127 1126 1128 0
74 1127 1128 0
1130 1120 75 0
1129 282 1120 0
1129 1120 1130 0
286 1129 1130 0
1131 1117 282 0
1123 52 1117 0
1123 1117 1131 0
285 1123 1131 0
1132 1129 286 0
1131 282 1129 0
1131 1129 1132 0
285 1131 1132 0
1133 1132 286 0
1128 285 1132 0
1128 1132 1133 0
74 1128 1133 0
1135 1130 75 0
1134 286 1130 0
1134 1130 1135 0
288 1134 1135 0
1137 1133 286 0
1136 74 1133 0
1136 1133 1137 0
287 1136 1137 0
1138 1134 288 0
1137 286 1134 0
1137 1134 1138 0
287 1137 1138 0
1140 1138 288 0
1139 287 1138 0
1139 1138 1140 0
21 1139 1140 0
1142 734 13 0
1141 187 734 0
1141 734 1142 0
290 1141 1142 0
1144 731 187 0
1143 49 731 0
1143 731 1144 0
289 1143 1144 0
1145 1141 290 0
1144 187 1141 0
1144 1141 1145 0
289 1144 1145 0
1147 1145 290 0
1146 289 1145 0
1146 1145 1147 0
76 1146 1147 0
1149 722 49 0
1148 184 722 0
1148 722 1149 0
291 1148 1149 0
1150 719 184 0
922 2077 719 0
922 719 1150 0
235 922 1150 0
1151 1148 291 0
1150 184 1148 0
1150 1148 1151 0
235 1150 1151 0
1152 1151 291 0
926 235 1151 0
926 1151 1152 0
62 926 1152 0
1154 1146 76 0
1153 289 1146 0
1153 1146 1154 0
292 1153 1154 0
1155 1143 289 0
1149 49 1143 0
1149 1143 1155 0
291 1149 1155 0
1156 1153 292 0
1155 289 1153 0
1155 1153 1156 0
291 1155 1156 0
1157 1156 292 0
1152 291 1156 0
1152 1156 1157 0
62 1152 1157 0
1159 1154 76 0
1158 292 1154 0
1158 1154 1159 0
293 1158 1159 0
1160 1157 292 0
935 62 1157 0
935 1157 1160 0
239 935 1160 0
1161 1158 293 0
1160 292 1158 0
1160 1158 1161 0
239 1160 1161 0
1162 1161 293 0
940 239 1161 0
940 1161 1162 0
17 940 1162 0
1164 1139 21 0
1163 287 1139 0
1163 1139 1164 0
295 1163 1164 0
1166 1136 287 0
1165 74 1136 0
1165 1136 1166 0
294 1165 1166 0
1167 1163 295 0
1166 287 1163 0
1166 1163 1167 0
294 1166 1167 0
1169 1167 295 0
1168 294 1167 0
1168 1167 1169 0
77 1168 1169 0
1171 1127 74 0
1170 284 1127 0
1170 1127 1171 0
296 1170 1171 0
1172 1124 284 0
1142 13 1124 0
1142 1124 1172 0
290 1142 1172 0
1173 1170 296 0
1172 284 1170 0
1172 1170 1173 0
290 1172 1173 0
1174 1173 296 0
1147 290 1173 0
1147 1173 1174 0
76 1147 1174 0
1176 1168 77 0
1175 294 1168 0
1175 1168 1176 0
297 1175 1176 0
1177 1165 294 0
1171 74 1165 0
1171 1165 1177 0
296 1171 1177 0
1178 1175 297 0
1177 294 1175 0
1177 1175 1178 0
296 1177 1178 0
1179 1178 297 0
1174 296 1178 0
1174 1178 1179 0
76 1174 1179 0
1181 1176 77 0
1180 297 1176 0
1180 1176 1181 0
298 1180 1181 0
1182 1179 297 0
1159 76 1179 0
1159 1179 1182 0
293 1159 1182 0
1183 1180 298 0
1182 297 1180 0
1182 1180 1183 0
293 1182 1183 0
1184 1183 298 0
1162 293 1183 0
1162 1183 1184 0
17 1162 1184 0
1186 1164 21 0
1185 295 1164 0
1185 1164 1186 0
300 1185 1186 0
1188 1169 295 0
1187 77 1169 0
1187 1169 1188 0
299 1187 1188 0
1189 1185 300 0
1188 295 1185 0
1188 1185 1189 0
299 1188 1189 0
1191 1189 300 0
1190 299 1189 0
1190 1189 1191 0
78 1190 1191 0
1193 1181 77 0
1192 298 1181 0
1192 1181 1193 0
301 1192 1193 0
1194 1184 298 0
966 17 1184 0
966 1184 1194 0
247 966 1194 0
1195 1192 301 0
1194 298 1192 0
1194 1192 1195 0
247 1194 1195 0
1196 1195 301 0
971 247 1195 0
971 1195 1196 0
65 971 1196 0
1198 1190 78 0
1197 299 1190 0
1197 1190 1198 0
302 1197 1198 0
1199 1187 299 0
1193 77 1187 0
1193 1187 1199 0
301 1193 1199 0
1200 1197 302 0
1199 299 1197 0
1199 1197 1200 0
301 1199 1200 0
1201 1200 302 0
1196 301 1200 0
1196 1200 1201 0
65 1196 1201 0
1203 1198 78 0
1202 302 1198 0
1202 1198 1203 0
303 1202 1203 0
1204 1201 302 0
985 65 1201 0
985 1201 1204 0
252 985 1204 0
1205 1202 303 0
1204 302 1202 0
1204 1202 1205 0
252 1204 1205 0
1206 1205 303 0
990 252 1205 0
990 1205 1206 0
5 990 1206 0
305 2147 2148 0
1208 1114 2146 0
1207 20 1114 0
1207 1114 1208 0
304 1207 1208 0
1209 2147 305 0
1208 2146 2147 0
1208 2147 1209 0
304 1208 1209 0
1211 1209 305 0
1210 304 1209 0
1210 1209 1211 0
79 1210 1211 0
1212 2149 2150 0
2151 2149 1212 0
306 2151 1212 0
305 2148 2152 0
1213 2151 306 0
2152 2151 1213 0
305 2152 1213 0
1214 1213 306 0
1211 305 1213 0
1211 1213 1214 0
79 1211 1214 0
1216 1212 2150 0
1215 306 1212 0
1215 1212 1216 0
308 1215 1216 0
1218 1214 306 0
1217 79 1214 0
1217 1214 1218 0
307 1217 1218 0
1219 1215 308 0
1218 306 1215 0
1218 1215 1219 0
307 1218 1219 0
1221 1219 308 0
1220 307 1219 0
1220 1219 1221 0
22 1220 1221 0
1223 1112 20 0
1222 280 1112 0
1222 1112 1223 0
310 1222 1223 0
1225 1109 280 0
1224 72 1109 0
1224 1109 1225 0
309 1224 1225 0
1226 1222 310 0
1225 280 1222 0
1225 1222 1226 0
309 1225 1226 0
1228 1226 310 0
1227 309 1226 0
1227 1226 1228 0
80 1227 1228 0
1230 1100 72 0
1229 277 1100 0
1229 1100 1230 0
311 1229 1230 0
1231 1097 277 0
1116 3 1097 0
1116 1097 1231 0
283 1116 1231 0
1232 1229 311 0
1231 277 1229 0
1231 1229 1232 0
283 1231 1232 0
1233 1232 311 0
1121 283 1232 0
1121 1232 1233 0
75 1121 1233 0
1235 1227 80 0
1234 309 1227 0
1234 1227 1235 0
312 1234 1235 0
1236 1224 309 0
1230 72 1224 0
1230 1224 1236 0
311 1230 1236 0
1237 1234 312 0
1236 309 1234 0
1236 1234 1237 0
311 1236 1237 0
1238 1237 312 0
1233 311 1237 0
1233 1237 1238 0
75 1233 1238 0
1240 1235 80 0
1239 312 1235 0
1239 1235 1240 0
313 1239 1240 0
1241 1238 312 0
1135 75 1238 0
1135 1238 1241 0
288 1135 1241 0
1242 1239 313 0
1241 312 1239 0
1241 1239 1242 0
288 1241 1242 0
1243 1242 313 0
1140 288 1242 0
1140 1242 1243 0
21 1140 1243 0
1245 1220 22 0
1244 307 1220 0
1244 1220 1245 0
315 1244 1245 0
1247 1217 307 0
1246 79 1217 0
1246 1217 1247 0
314 1246 1247 0
1248 1244 315 0
1247 307 1244 0
1247 1244 1248 0
314 1247 1248 0
1250 1248 315 0
1249 314 1248 0
1249 1248 1250 0
81 1249 1250 0
1252 1210 79 0
1251 304 1210 0
1251 1210 1252 0
316 1251 1252 0
1253 1207 304 0
1223 20 1207 0
1223 1207 1253 0
310 1223 1253 0
1254 1251 316 0
1253 304 1251 0
1253 1251 1254 0
310 1253 1254 0
1255 1254 316 0
1228 310 1254 0
1228 1254 1255 0
80 1228 1255 0
1257 1249 81 0
1256 314 1249 0
1256 1249 1257 0
317 1256 1257 0
1258 1246 314 0
1252 79 1246 0
1252 1246 1258 0
316 1252 1258 0
1259 1256 317 0
1258 314 1256 0
1258 1256 1259 0
316 1258 1259 0
1260 1259 317 0
1255 316 1259 0
1255 1259 1260 0
80 1255 1260 0
1262 1257 81 0
1261 317 1257 0
1261 1257 1262 0
318 1261 1262 0
1263 1260 317 0
1240 80 1260 0
1240 1260 1263 0
313 1240 1263 0
1264 1261 318 0
1263 317 1261 0
1263 1261 1264 0
313 1263 1264 0
1265 1264 318 0
1243 313 1264 0
1243 1264 1265 0
21 1243 1265 0
1267 1245 22 0
1266 315 1245 0
1266 1245 1267 0
320 1266 1267 0
1269 1250 315 0
1268 81 1250 0
1268 1250 1269 0
319 1268 1269 0
1270 1266 320 0
1269 315 1266 0
1269 1266 1270 0
319 1269 1270 0
1272 1270 320 0
1271 319 1270 0
1271 1270 1272 0
82 1271 1272 0
1274 1262 81 0
1273 318 1262 0
1273 1262 1274 0
321 1273 1274 0
1275 1265 318 0
1186 21 1265 0
1186 1265 1275 0
300 1186 1275 0
1276 1273 321 0
1275 318 1273 0
1275 1273 1276 0
300 1275 1276 0
1277 1276 321 0
1191 300 1276 0
1191 1276 1277 0
78 1191 1277 0
1279 1271 82 0
1278 319 1271 0
1278 1271 1279 0
322 1278 1279 0
1280 1268 319 0
1274 81 1268 0
1274 1268 1280 0
321 1274 1280 0
1281 1278 322 0
1280 319 1278 0
1280 1278 1281 0
321 1280 1281 0
1282 1281 322 0
1277 321 1281 0
1277 1281 1282 0
78 1277 1282 0
1284 1279 82 0
1283 322 1279 0
1283 1279 1284 0
323 1283 1284 0
1285 1282 322 0
1203 78 1282 0
1203 1282 1285 0
303 1203 1285 0
1286 1283 323 0
1285 322 1283 0
1285 1283 1286 0
303 1285 1286 0
1287 1286 323 0
1206 303 1286 0
1206 1286 1287 0
5 1206 1287 0
2153 1216 2150 0
1288 308 1216 0
1288 1216 2153 0
325 1288 2153 0
1290 1221 308 0
1289 22 1221 0
1289 1221 1290 0
324 1289 1290 0
1291 1288 325 0
1290 308 1288 0
1290 1288 1291 0
324 1290 1291 0
1293 1291 325 0
1292 324 1291 0
1292 1291 1293 0
83 1292 1293 0
325 2153 2154 0
325 2154 2155 0
1294 2155 2156 0
1293 325 2155 0
1293 2155 1294 0
83 1293 1294 0
2157 1294 2156 0
1295 83 1294 0
1295 1294 2157 0
2158 1295 2157 0
1297 1267 22 0
1296 320 1267 0
1296 1267 1297 0
327 1296 1297 0
1299 1272 320 0
1298 82 1272 0
1298 1272 1299 0
326 1298 1299 0
1300 1296 327 0
1299 320 1296 0
1299 1296 1300 0
326 1299 1300 0
1302 1300 327 0
1301 326 1300 0
1301 1300 1302 0
84 1301 1302 0
1304 1284 82 0
1303 323 1284 0
1303 1284 1304 0
328 1303 1304 0
1305 1287 323 0
1027 5 1287 0
1027 1287 1305 0
261 1027 1305 0
1306 1303 328 0
1305 323 1303 0
1305 1303 1306 0
261 1305 1306 0
1307 1306 328 0
1032 261 1306 0
1032 1306 1307 0
69 1032 1307 0
1309 1301 84 0
1308 326 1301 0
1308 1301 1309 0
329 1308 1309 0
1310 1298 326 0
1304 82 1298 0
1304 1298 1310 0
328 1304 1310 0
1311 1308 329 0
1310 326 1308 0
1310 1308 1311 0
328 1310 1311 0
1312 1311 329 0
1307 328 1311 0
1307 1311 1312 0
69 1307 1312 0
1314 1309 84 0
1313 329 1309 0
1313 1309 1314 0
330 1313 1314 0
1315 1312 329 0
1046 69 1312 0
1046 1312 1315 0
266 1046 1315 0
1316 1313 330 0
1315 329 1313 0
1315 1313 1316 0
266 1315 1316 0
1317 1316 330 0
1051 266 1316 0
1051 1316 1317 0
19 1051 1317 0
2159 1295 2158 0
1318 83 1295 0
1318 1295 2159 0
331 1318 2159 0
1319 2160 2161 0
2159 2160 1319 0
331 2159 1319 0
1321 1319 2161 0
1320 331 1319 0
1320 1319 1321 0
85 1320 1321 0
1323 1292 83 0
1322 324 1292 0
1322 1292 1323 0
332 1322 1323 0
1324 1289 324 0
1297 22 1289 0
1297 1289 1324 0
327 1297 1324 0
1325 1322 332 0
1324 324 1322 0
1324 1322 1325 0
327 1324 1325 0
1326 1325 332 0
1302 327 1325 0
1302 1325 1326 0
84 1302 1326 0
1328 1320 85 0
1327 331 1320 0
1327 1320 1328 0
333 1327 1328 0
1329 1318 331 0
1323 83 1318 0
1323 1318 1329 0
332 1323 1329 0
1330 1327 333 0
1329 331 1327 0
1329 1327 1330 0
332 1329 1330 0
1331 1330 333 0
1326 332 1330 0
1326 1330 1331 0
84 1326 1331 0
1333 1328 85 0
1332 333 1328 0
1332 1328 1333 0
334 1332 1333 0
1334 1331 333 0
1314 84 1331 0
1314 1331 1334 0
330 1314 1334 0
1335 1332 334 0
1334 333 1332 0
1334 1332 1335 0
330 1334 1335 0
1336 1335 334 0
1317 330 1335 0
1317 1335 1336 0
19 1317 1336 0
1338 1321 2161 0
1337 85 1321 0
1337 1321 1338 0
2162 1337 1338 0
1338 2161 2163 0
1338 2163 2164 0
2162 1338 2164 0
1340 1333 85 0
1339 334 1333 0
1339 1333 1340 0
335 1339 1340 0
1341 1336 334 0
1076 19 1336 0
1076 1336 1341 0
274 1076 1341 0
1342 1339 335 0
1341 334 1339 0
1341 1339 1342 0
274 1341 1342 0
1343 1342 335 0
1081 274 1342 0
1081 1342 1343 0
71 1081 1343 0
1344 1337 2162 0
1340 85 1337 0
1340 1337 1344 0
335 1340 1344 0
1344 2162 2165 0
1344 2165 2166 0
335 1344 2166 0
1345 2166 2167 0
1343 335 2166 0
1343 2166 1345 0
71 1343 1345 0
2168 1345 2167 0
2135 71 1345 0
2135 1345 2168 0
1347 585 0 0
1346 150 585 0
1346 585 1347 0
337 1346 1347 0
1349 590 150 0
1348 41 590 0
1348 590 1349 0
336 1348 1349 0
1350 1346 337 0
1349 150 1346 0
1349 1346 1350 0
336 1349 1350 0
1352 1350 337 0
1351 336 1350 0
1351 1350 1352 0
87 1351 1352 0
1354 604 41 0
1353 155 604 0
1353 604 1354 0
339 1353 1354 0
1356 609 155 0
1355 12 609 0
1355 609 1356 0
338 1355 1356 0
1357 1353 339 0
1356 155 1353 0
1356 1353 1357 0
338 1356 1357 0
1359 1357 339 0
1358 338 1357 0
1358 1357 1359 0
86 1358 1359 0
1361 1351 87 0
1360 336 1351 0
1360 1351 1361 0
340 1360 1361 0
1362 1348 336 0
1354 41 1348 0
1354 1348 1362 0
339 1354 1362 0
1363 1360 340 0
1362 336 1360 0
1362 1360 1363 0
339 1362 1363 0
1364 1363 340 0
1359 339 1363 0
1359 1363 1364 0
86 1359 1364 0
1366 1361 87 0
1365 340 1361 0
1365 1361 1366 0
342 1365 1366 0
1368 1364 340 0
1367 86 1364 0
1367 1364 1368 0
341 1367 1368 0
1369 1365 342 0
1368 340 1365 0
1368 1365 1369 0
341 1368 1369 0
1371 1369 342 0
1370 341 1369 0
1370 1369 1371 0
23 1370 1371 0
1373 659 12 0
1372 169 659 0
1372 659 1373 0
344 1372 1373 0
1375 664 169 0
1374 46 664 0
1374 664 1375 0
343 1374 1375 0
1376 1372 344 0
1375 169 1372 0
1375 1372 1376 0
343 1375 1376 0
1378 1376 344 0
1377 343 1376 0
1377 1376 1378 0
89 1377 1378 0
1380 678 46 0
1379 174 678 0
1379 678 1380 0
346 1379 1380 0
1382 683 174 0
1381 4 683 0
1381 683 1382 0
345 1381 1382 0
1383 1379 346 0
1382 174 1379 0
1382 1379 1383 0
345 1382 1383 0
1385 1383 346 0
1384 345 1383 0
1384 1383 1385 0
88 1384 1385 0
1387 1377 89 0
1386 343 1377 0
1386 1377 1387 0
347 1386 1387 0
1388 1374 343 0
1380 46 1374 0
1380 1374 1388 0
346 1380 1388 0
1389 1386 347 0
1388 343 1386 0
1388 1386 1389 0
346 1388 1389 0
1390 1389 347 0
1385 346 1389 0
1385 1389 1390 0
88 1385 1390 0
1392 1387 89 0
1391 347 1387 0
1391 1387 1392 0
2169 1391 1392 0
2170 1390 347 0
1393 88 1390 0
1393 1390 2170 0
2171 1393 2170 0
2172 1391 2169 0
2170 347 1391 0
2170 1391 2172 0
1395 1370 23 0
1394 341 1370 0
1394 1370 1395 0
349 1394 1395 0
1397 1367 341 0
1396 86 1367 0
1396 1367 1397 0
348 1396 1397 0
1398 1394 349 0
1397 341 1394 0
1397 1394 1398 0
348 1397 1398 0
1400 1398 349 0
1399 348 1398 0
1399 1398 1400 0
2173 1399 1400 0
1402 1358 86 0
1401 338 1358 0
1401 1358 1402 0
350 1401 1402 0
1403 1355 338 0
1373 12 1355 0
1373 1355 1403 0
344 1373 1403 0
1404 1401 350 0
1403 338 1401 0
1403 1401 1404 0
344 1403 1404 0
1405 1404 350 0
1378 344 1404 0
1378 1404 1405 0
89 1378 1405 0
1407 1399 2173 0
1406 348 1399 0
1406 1399 1407 0
351 1406 1407 0
1408 1396 348 0
1402 86 1396 0
1402 1396 1408 0
350 1402 1408 0
1409 1406 351 0
1408 348 1406 0
1408 1406 1409 0
350 1408 1409 0
1410 1409 351 0
1405 350 1409 0
1405 1409 1410 0
89 1405 1410 0
2174 1407 2173 0
2175 351 1407 0
2175 1407 2174 0
1411 1410 351 0
1392 89 1410 0
1392 1410 1411 0
2169 1392 1411 0
1411 351 2175 0
1411 2175 2176 0
2169 1411 2176 0
1412 1395 23 0
2177 349 1395 0
2177 1395 1412 0
2178 2177 1412 0
2179 1400 349 0
2180 2173 1400 0
2180 1400 2179 0
2179 349 2177 0
1413 877 4 0
2181 224 877 0
2181 877 1413 0
2182 2181 1413 0
2183 2078 224 0
2183 224 2181 0
2184 1393 2171 0
2185 88 1393 0
2185 1393 2184 0
2186 1384 88 0
2187 345 1384 0
2187 1384 2186 0
2188 1381 345 0
1413 4 1381 0
1413 1381 2188 0
2182 1413 2188 0
2188 345 2187 0
2186 88 2185 0
1414 10 2062 0
1414 2062 2189 0
352 1414 2189 0
352 2189 2190 0
1416 2190 2191 0
1415 352 2190 0
1415 2190 1416 0
90 1415 1416 0
1416 2191 2192 0
1416 2192 2193 0
90 1416 2193 0
1418 2193 2194 0
1417 90 2193 0
1417 2193 1418 0
353 1417 1418 0
1418 2194 2195 0
1418 2195 2196 0
353 1418 2196 0
1419 353 2196 0
1419 2196 2197 0
25 1419 2197 0
1421 559 10 0
1420 143 559 0
1420 559 1421 0
355 1420 1421 0
1423 564 143 0
1422 39 564 0
1422 564 1423 0
354 1422 1423 0
1424 1420 355 0
1423 143 1420 0
1423 1420 1424 0
354 1423 1424 0
1426 1424 355 0
1425 354 1424 0
1425 1424 1426 0
92 1425 1426 0
1428 578 39 0
1427 148 578 0
1427 578 1428 0
357 1427 1428 0
1430 583 148 0
1429 0 583 0
1429 583 1430 0
356 1429 1430 0
1431 1427 357 0
1430 148 1427 0
1430 1427 1431 0
356 1430 1431 0
1433 1431 357 0
1432 356 1431 0
1432 1431 1433 0
91 1432 1433 0
1435 1425 92 0
1434 354 1425 0
1434 1425 1435 0
358 1434 1435 0
1436 1422 354 0
1428 39 1422 0
1428 1422 1436 0
357 1428 1436 0
1437 1434 358 0
1436 354 1434 0
1436 1434 1437 0
357 1436 1437 0
1438 1437 358 0
1433 357 1437 0
1433 1437 1438 0
91 1433 1438 0
1440 1435 92 0
1439 358 1435 0
1439 1435 1440 0
360 1439 1440 0
1442 1438 358 0
1441 91 1438 0
1441 1438 1442 0
359 1441 1442 0
1443 1439 360 0
1442 358 1439 0
1442 1439 1443 0
359 1442 1443 0
1445 1443 360 0
1444 359 1443 0
1444 1443 1445 0
24 1444 1445 0
1447 1419 25 0
1446 353 1419 0
1446 1419 1447 0
362 1446 1447 0
1449 1417 353 0
1448 90 1417 0
1448 1417 1449 0
361 1448 1449 0
1450 1446 362 0
1449 353 1446 0
1449 1446 1450 0
361 1449 1450 0
1452 1450 362 0
1451 361 1450 0
1451 1450 1452 0
93 1451 1452 0
1454 1415 90 0
1453 352 1415 0
1453 1415 1454 0
363 1453 1454 0
1455 1414 352 0
1421 10 1414 0
1421 1414 1455 0
355 1421 1455 0
1456 1453 363 0
1455 352 1453 0
