#!ascii - generated by CreateLabelFiles project 
2697 5079
11.4813 24.8692 35.3085 0
10.9415 25.1199 34.5502 0
10.4766 25.248 33.6717 0
8.62245 23.9689 34.9088 0
8.43009 23.8827 35.3221 0
8.99741 24.2951 34.0947 0
8.79627 24.1628 34.5285 0
7.97036 24.2846 34.0586 0
7.26677 24.7831 33.2688 0
7.14775 24.3517 33.5941 0
9.47057 24.6817 33.3465 0
9.22101 24.3972 33.6684 0
9.72024 25.0322 33.0595 0
8.88731 24.9847 32.5542 0
8.09758 24.8898 32.0211 0
7.50041 24.9551 32.8608 0
6.79222 24.7521 32.3465 0
8.33168 24.7418 33.294 0
7.80183 24.8512 32.4284 0
7.41434 24.833 31.4603 0
6.4364 24.3539 31.1771 0
6.08684 24.3672 31.6897 0
6.63895 24.7217 30.6789 0
5.83256 24.3779 29.7653 0
5.23053 24.0096 29.0191 0
2.56489 14.0474 35.2146 0
2.52943 13.3431 34.1824 0
2.94913 16.0941 36.4238 0
2.6724 15.212 35.9459 0
2.26664 15.6318 35.2571 0
2.30528 16.8115 35.0831 0
1.84832 15.8915 34.4791 0
4.17567 17.8264 36.9151 0
3.49024 16.9859 36.6882 0
5.94475 19.0547 37.1016 0
5.05722 18.5018 37.0065 0
4.47917 18.8733 36.6322 0
4.95191 19.6568 36.239 0
4.11201 19.1113 36.0858 0
2.69117 17.5555 35.5328 0
2.55241 17.8314 34.8301 0
2.99827 17.2553 36.1672 0
3.33432 18.3257 35.8482 0
3.89819 19.2853 35.4488 0
3.25125 18.6454 34.1907 0
2.56357 18.1294 34.0653 0
4.48979 19.9602 34.9325 0
3.90377 19.339 34.5321 0
4.1087 19.2578 33.3014 0
4.17853 20.0883 33.0758 0
3.58534 19.5712 32.6122 0
7.48077 20.0354 37.6246 0
6.7629 19.5042 37.3183 0
9.0633 21.1102 38.5053 0
8.21008 20.5981 38.0602 0
7.87961 20.8316 37.5363 0
8.23061 21.6711 37.4827 0
7.5122 21.0196 36.9659 0
9.96122 21.3829 38.9117 0
10.9055 21.8993 38.5382 0
9.06222 21.977 37.9374 0
8.5979 22.1743 37.3571 0
9.52067 21.6421 38.4199 0
9.97082 21.9812 38.2801 0
10.4254 22.2618 38.0106 0
8.96461 22.6447 37.1843 0
8.13469 22.2986 36.6749 0
9.90333 22.6286 37.495 0
9.36664 22.821 36.8368 0
8.81297 23.0757 36.1774 0
4.6018 20.761 33.6808 0
4.10102 20.9351 32.9165 0
5.3163 20.4194 35.0662 0
4.97456 20.6035 34.4019 0
5.30101 21.1465 33.9319 0
5.92071 21.7143 34.3051 0
5.62404 21.6903 33.4435 0
5.95338 20.029 36.3184 0
5.57421 20.2547 35.7123 0
6.39552 19.7458 36.8129 0
6.82766 20.4523 36.5159 0
7.09255 21.2165 36.3668 0
6.20032 21.6841 35.0714 0
6.52338 22.2494 34.6997 0
5.95582 20.9399 35.3404 0
6.6583 21.4581 35.7384 0
7.36059 21.9592 36.1918 0
7.26192 22.6074 35.1414 0
6.90694 22.7211 34.274 0
7.66647 22.445 35.9464 0
8.01245 22.9331 35.67 0
8.24438 23.4353 35.5221 0
3.88502 21.7948 32.6598 0
3.21114 21.3273 32.1663 0
5.48726 22.5128 33.3071 0
4.69138 22.2069 33.0002 0
3.95156 22.4738 32.2769 0
4.28823 22.7546 31.7617 0
3.83242 22.1912 31.2353 0
7.01188 23.3278 34.0561 0
6.24822 22.95 33.6841 0
7.72367 23.6157 34.6588 0
7.02194 23.85 33.8878 0
6.34192 24.1655 33.1804 0
4.83993 23.2717 32.2942 0
4.52532 23.0004 30.9784 0
5.36995 23.3604 33.1582 0
5.5859 23.7824 32.7513 0
5.74606 24.2691 32.3416 0
4.76856 23.219 30.1568 0
4.38744 22.6992 29.647 0
5.37859 23.6754 30.9549 0
4.98898 23.5958 29.539 0
4.90427 23.3868 28.4723 0
2.22005 13.616 33.092 0
3.67448 13.1058 32.4786 0
1.47423 15.8585 33.5857 0
1.35302 14.5477 33.3287 0
2.26183 13.8083 32.2111 0
2.79505 14.2822 31.4418 0
4.33832 14.0057 30.5577 0
2.67228 18.5018 33.3421 0
1.99299 17.2976 33.6297 0
2.73368 20.0214 31.9686 0
2.87137 19.234 32.5243 0
2.17526 18.715 32.3496 0
1.67951 18.5713 31.1235 0
1.45041 17.7772 31.5795 0
1.65508 15.1406 31.8912 0
3.39592 14.7934 30.7455 0
1.31083 16.0982 32.776 0
1.43147 16.6988 32.0395 0
2.40468 16.6451 30.8634 0
3.9744 15.3531 30.2181 0
4.93561 15.0576 29.3166 0
3.02175 16.8188 30.2741 0
3.41358 16.018 30.4171 0
4.63462 15.8875 29.9331 0
5.32515 16.3473 29.8681 0
5.92088 16.0996 29.2886 0
3.10269 21.1892 31.268 0
2.70798 20.7626 31.7224 0
3.91224 21.8966 30.1264 0
3.65509 21.5034 30.8268 0
3.46686 20.8769 30.5213 0
3.48373 20.7055 29.8446 0
3.45799 20.1943 30.2182 0
4.45336 22.4736 28.7058 0
4.16646 22.2137 29.4131 0
4.7234 22.7803 28.1176 0
4.67933 22.1962 28.1158 0
4.75031 21.5746 28.284 0
3.75538 21.1268 29.2875 0
3.5338 20.504 29.2475 0
3.99797 21.7136 29.365 0
4.39932 21.3417 28.8732 0
4.78854 20.9512 28.513 0
3.95254 20.0213 29.0867 0
3.73558 19.8351 29.4938 0
4.55841 20.2839 28.7573 0
4.39893 19.6379 29.1072 0
4.47767 19.1468 30.0924 0
4.69486 16.8814 29.9235 0
6.00002 16.7333 29.8049 0
2.79409 17.722 29.9676 0
3.41545 17.086 29.9625 0
4.15878 17.2379 30.0071 0
4.0882 17.7482 29.8121 0
4.77722 17.2796 30.2229 0
2.39538 19.2302 30.8912 0
2.34383 18.4158 30.1822 0
2.56688 20.0218 31.4328 0
2.99937 19.7041 30.6518 0
3.42008 19.5166 29.9318 0
3.51996 18.304 29.4605 0
4.01762 18.0464 30.0374 0
2.96708 18.3225 29.7326 0
3.48055 18.9107 29.723 0
3.65604 19.3672 29.8203 0
4.15861 18.4933 30.3082 0
4.42349 17.8158 30.7145 0
3.92172 19.1408 29.7258 0
4.14349 18.872 30.4805 0
4.50624 18.68 31.0766 0
6.43701 16.9482 29.7238 0
6.71114 17.2772 29.2024 0
5.29777 17.3199 30.3455 0
5.7 17.1545 30.0452 0
6.86938 17.1011 29.6945 0
7.05734 17.4843 29.5597 0
6.99735 18.2356 28.7145 0
4.73244 17.893 31.2971 0
5.00926 17.537 30.7417 0
4.80911 18.2091 31.4461 0
5.19642 17.8227 31.6425 0
5.82065 17.7052 31.6216 0
6.53995 17.4113 30.1789 0
7.43123 17.9481 29.4188 0
5.71175 17.3976 30.5861 0
6.07311 17.5963 30.9271 0
6.77537 17.8062 31.0007 0
8.19322 18.3508 29.0242 0
8.10496 18.9302 27.8414 0
7.82615 17.9011 30.071 0
8.95156 18.5273 28.5604 0
8.9828 18.373 27.1721 0
4.5433 10.7609 40.4168 0
4.63155 10.6726 41.7861 0
5.23785 11.7331 37.7563 0
4.87596 11.2166 39.0179 0
5.95502 10.5521 38.5315 0
7.06359 10.4874 36.3614 0
7.04468 10.1182 37.8959 0
5.21506 12.1957 35.558 0
5.24339 11.9831 36.6216 0
5.04731 12.9213 32.9942 0
5.21712 12.6497 34.4356 0
6.52136 12.3628 33.4995 0
5.76564 12.4591 30.8747 0
6.5168 12.2109 32.4932 0
6.92678 10.8909 35.0761 0
7.4533 10.5668 33.9843 0
6.19082 11.3975 36.0291 0
6.69209 11.6851 33.9141 0
6.17723 11.9843 31.9148 0
6.36809 11.3366 32.7038 0
7.15706 10.4899 33.4994 0
4.72217 11.8059 30.3456 0
5.65619 11.7819 31.6698 0
5.21956 11.6304 31.6032 0
3.29504 11.3465 30.6591 0
4.53964 11.5048 31.9491 0
7.0445 8.96964 36.0015 0
6.67001 8.78372 36.2881 0
5.24994 9.65845 41.8381 0
6.57401 9.52138 39.5793 0
7.71042 9.91757 37.0499 0
7.50263 9.19335 35.7319 0
6.6081 9.76811 34.8133 0
8.46371 9.00177 37.8518 0
7.72108 9.59368 36.2567 0
7.603 10.0285 34.6329 0
6.41699 10.2923 33.6267 0
5.64152 10.3738 34.0566 0
7.11734 10.3268 33.2053 0
5.54198 10.9171 32.81 0
3.81072 11.4494 32.2735 0
5.42266 9.31164 35.6808 0
4.02606 10.8591 33.6159 0
4.84667 10.139 34.6164 0
1.89785 11.5952 31.6015 0
3.04857 11.3939 32.6989 0
2.30419 11.2794 33.1077 0
0.472989 11.4808 32.4413 0
1.46217 10.7243 33.4376 0
3.49605 9.43599 35.5952 0
2.91289 8.97883 36.0035 0
4.10494 9.90265 35.1831 0
2.42812 10.0422 34.5098 0
0.725821 10.1634 33.7981 0
1.19318 8.98816 35.3867 0
2.20753 8.15265 36.2727 0
-0.958367 10.1881 33.054 0
0.0852982 9.66409 34.2779 0
-0.491143 9.09594 34.7133 0
-1.89834 9.12374 33.7179 0
-0.876008 8.32911 34.9132 0
5.25077 13.4398 30.0558 0
5.02402 12.9707 31.3881 0
5.34451 14.6121 28.588 0
5.19078 14.1061 29.2929 0
5.61863 14.0221 28.0941 0
4.76247 14.627 26.8733 0
5.03861 13.8914 27.4543 0
5.26767 15.5367 27.8435 0
5.15726 15.185 28.0688 0
6.06921 16.5962 28.0501 0
5.59267 15.9663 27.939 0
4.70776 16.2308 26.3593 0
3.41237 17.014 24.8287 0
3.37987 16.7873 25.2106 0
3.96984 15.4797 26.3295 0
3.11292 15.2705 25.7835 0
5.14222 15.3351 26.9814 0
3.72341 16.146 25.7502 0
1.96912 16.8878 24.5213 0
1.321 15.5092 24.952 0
1.90299 14.9082 25.6207 0
0.72239 16.0293 23.389 0
0.857022 15.9713 24.2533 0
-0.337962 15.2395 23.6837 0
-1.54643 14.1012 22.292 0
-1.33689 14.4105 23.2648 0
6.35803 18.0922 27.8152 0
6.49088 17.3257 28.0473 0
6.593 19.1338 27.0148 0
6.21087 18.9014 27.5236 0
5.18528 18.0824 25.7032 0
4.28399 17.1269 23.5597 0
3.8867 17.205 23.8584 0
7.66367 18.7869 26.1911 0
7.22721 19.2058 26.5147 0
8.41176 17.4266 25.7973 0
8.09939 18.3209 26.0019 0
6.97119 17.4602 24.6529 0
6.63076 16.5329 23.3218 0
6.08121 16.7725 23.261 0
4.87149 17.0278 23.2944 0
3.43342 15.8794 21.7349 0
5.98545 18.2202 24.9747 0
5.48934 16.9605 23.1888 0
4.79109 16.081 21.5634 0
2.84672 15.1037 20.108 0
2.14434 15.3873 19.8196 0
4.14581 15.1697 20.1581 0
3.4858 15.0987 20.1093 0
2.39824 14.0752 18.8938 0
1.9659 12.5917 18.0072 0
1.43232 12.7329 18.1308 0
-1.48609 13.5178 21.1718 0
-2.28904 12.5789 21.0464 0
0.790103 15.8296 22.4214 0
-0.446871 14.7591 21.6556 0
-1.10587 13.0103 19.9783 0
-0.555666 12.7921 19.1653 0
-1.29057 11.4101 19.255 0
3.51946 17.1793 24.5206 0
1.8495 17.1548 23.1574 0
5.14408 17.1126 26.2829 0
3.67578 17.1743 24.2467 0
2.30774 16.4885 22.2132 0
0.330842 14.223 19.5102 0
-0.0643559 12.6994 18.5455 0
1.0653 15.5301 21.2703 0
1.32708 15.4473 20.5466 0
1.62205 15.5855 19.9706 0
0.468811 12.6484 18.3626 0
-0.157411 11.413 18.4887 0
1.17669 14.1942 18.779 0
0.952337 12.6855 18.2983 0
0.901313 11.5597 17.9978 0
-2.49333 11.0483 20.1851 0
-2.82868 11.8795 21.2529 0
-1.28236 10.2742 19.0864 0
-1.84037 10.3666 19.5843 0
-2.29679 9.78399 20.0387 0
-1.93138 8.6932 20.1449 0
-2.59779 9.23217 20.6172 0
-0.0761052 10.4118 18.455 0
-0.680651 10.3961 18.7423 0
0.893551 10.5766 17.7217 0
0.482676 10.4609 18.2655 0
0.0246057 9.40755 18.4867 0
0.398468 8.83343 18.8774 0
-0.1937 8.94054 19.0891 0
-1.51406 8.74898 19.6698 0
-1.55708 8.26541 20.5403 0
-1.18496 9.36176 19.0905 0
-1.00368 8.7562 19.2056 0
-0.561609 8.42119 19.6992 0
-1.00665 7.99886 21.1653 0
-1.59516 7.76876 21.4144 0
0.15682 8.5936 20.8224 0
-0.482892 8.25919 20.9338 0
-0.398694 7.86428 21.934 0
0.250254 7.82581 22.7851 0
-0.480383 7.50481 22.9379 0
-2.99145 9.68791 32.4799 0
-3.36842 9.03858 32.7236 0
-2.06198 10.7557 31.9044 0
-2.59306 10.1957 32.2021 0
-3.97205 9.92292 31.2133 0
-4.87167 10.025 29.9436 0
-5.18288 9.42171 30.3025 0
-0.675041 11.8398 31.2984 0
-1.35443 11.4371 31.6191 0
0.659206 11.5938 30.3304 0
-0.0252379 11.7533 30.8118 0
-1.94155 11.9145 29.9391 0
-2.95638 12.0171 28.701 0
-3.62924 11.5233 28.9447 0
-4.46484 10.3878 29.465 0
-5.74462 9.54153 28.4922 0
-3.07 10.8866 30.4579 0
-4.08847 10.9549 29.1376 0
-5.08957 11.075 28.0406 0
-6.53002 9.1614 27.181 0
-6.44522 8.61317 27.6271 0
-5.61557 10.8114 26.8515 0
-6.04376 10.0221 27.0913 0
-6.40948 8.7925 26.3318 0
-6.20898 8.48498 25.5192 0
-6.48863 7.88611 25.8231 0
2.22179 11.5528 29.3428 0
1.35751 11.367 29.736 0
4.00056 12.2747 29.1606 0
3.1416 11.8505 29.0822 0
1.34358 12.0589 28.2055 0
0.633576 12.8576 27.2705 0
-0.435217 12.462 27.4359 0
5.19452 12.7256 29.387 0
4.74293 12.5842 29.1935 0
5.60076 12.8842 30.2093 0
4.98128 13.0831 28.0353 0
3.97 13.7293 27.0945 0
1.7178 13.2933 27.1097 0
-0.035897 13.6636 26.4164 0
3.28606 12.7397 27.9005 0
2.7396 13.606 27.0516 0
2.38657 14.3693 26.3172 0
-0.694439 14.3564 25.6025 0
-1.54329 13.4109 25.4464 0
0.548255 14.7103 25.564 0
-1.11215 14.5383 24.4992 0
-2.04509 13.4718 23.2897 0
-5.71974 9.08648 24.9823 0
-5.72542 8.19984 24.6152 0
-4.81101 11.1763 26.4059 0
-5.57447 10.0995 25.4832 0
-5.29614 9.63525 24.4323 0
-4.80042 10.2259 24.0523 0
-5.00088 9.29166 23.5414 0
-2.19026 12.0153 28.351 0
-3.71513 12.1592 27.4799 0
-0.530046 11.7617 29.1356 0
-1.44766 12.2863 27.9311 0
-2.30479 12.7792 26.6821 0
-4.54498 11.3377 24.7322 0
-4.17017 10.9085 23.7746 0
-4.22965 11.7936 26.0864 0
-3.54968 12.0757 25.6377 0
-2.56409 12.7765 25.5177 0
-3.35045 11.5805 23.52 0
-3.71797 10.5324 22.8814 0
-2.67029 12.6701 24.3972 0
-2.69534 12.5353 23.3931 0
-2.84013 12.3484 22.3298 0
-5.14102 7.63193 23.7066 0
-5.41066 6.96457 24.1877 0
-4.3546 8.70837 22.7652 0
-4.82444 8.06265 23.1567 0
-4.54428 6.49992 22.8011 0
-3.6873 6.27465 22.7733 0
-3.99958 5.71434 23.4511 0
-3.66352 10.3773 21.9566 0
-3.67432 9.40215 22.4583 0
-3.38543 11.194 21.5292 0
-3.30044 9.93915 21.2345 0
-2.94666 8.74664 21.2734 0
-3.28398 6.80673 22.0504 0
-2.72754 6.43755 22.9689 0
-3.51605 8.11494 22.1656 0
-3.08632 7.82427 21.7018 0
-2.30134 7.71746 21.6386 0
-1.93717 6.73683 23.0778 0
-2.1927 6.13723 23.8294 0
-1.72056 7.28453 22.2755 0
-1.17799 7.19186 23.0807 0
-0.58636 6.9728 23.8192 0
-4.59644 8.54686 31.7388 0
-3.63568 8.13855 32.859 0
-5.88457 8.41817 29.3593 0
-5.44963 8.72649 30.606 0
-5.70898 7.95968 30.8439 0
-6.21342 7.00398 29.9136 0
-5.92671 7.26308 31.1297 0
-6.47806 7.60833 27.0813 0
-6.25737 8.05877 28.1214 0
-6.28681 6.8298 25.425 0
-6.6406 7.25463 26.1289 0
-6.4666 6.37262 26.4731 0
-6.3162 5.0899 26.0956 0
-6.34132 5.54216 26.7833 0
-6.11757 6.39814 28.6472 0
-6.46808 6.02274 29.0746 0
-6.21432 7.25156 28.3948 0
-6.24369 5.95371 27.6467 0
-6.50329 4.89541 27.1666 0
-6.79396 5.18223 28.5131 0
-6.86818 5.79648 29.6004 0
-6.71031 3.87696 26.8266 0
-6.74836 4.4192 27.5955 0
-6.94292 4.07674 28.1123 0
-6.7987 2.91369 27.824 0
-7.08732 3.57282 28.5649 0
-5.04485 5.34807 24.0982 0
-5.7219 6.16406 24.609 0
-3.36654 5.11445 24.3421 0
-4.19323 5.00794 24.1878 0
-4.46406 4.264 24.77 0
-3.66452 3.91076 25.6269 0
-4.57755 3.69822 25.2737 0
-1.60959 6.03096 24.6727 0
-2.48865 5.49571 24.5713 0
0.115146 6.43424 24.3941 0
-0.779989 6.47845 24.7035 0
-0.966043 6.09403 25.5002 0
-0.288682 5.52509 26.094 0
-1.12604 5.70852 26.1991 0
-2.84257 4.68862 26.1201 0
-2.91556 4.10919 26.6436 0
-2.69219 5.02938 25.3377 0
-1.98789 5.18933 26.1669 0
-1.34981 5.4728 26.9701 0
-2.22656 4.36494 27.4702 0
-2.95214 3.55304 27.1424 0
-0.78149 5.64884 27.7666 0
-1.54992 5.25224 27.7052 0
-1.56975 4.72806 28.275 0
-0.891352 4.92673 29.0637 0
-1.56568 4.28978 28.8534 0
-5.95844 2.44815 27.442 0
-6.19581 1.89369 28.0111 0
-6.50029 3.29659 26.1905 0
-6.1196 2.91909 26.8668 0
-5.36051 1.75341 27.2172 0
-4.7075 1.56136 27.2973 0
-4.71941 1.49598 28.1208 0
-6.23541 4.46581 25.4113 0
-6.36205 3.88466 25.8076 0
-6.0623 5.26287 25.0208 0
-5.5875 3.72952 25.0173 0
-4.73959 2.75649 25.5218 0
-4.74026 1.66167 26.5553 0
-3.86844 2.25299 27.8251 0
-5.77273 2.44326 25.8323 0
-4.77548 2.21334 26.0126 0
-3.81186 2.74933 26.5976 0
-3.00687 2.82134 28.2503 0
-2.933 2.56716 28.8639 0
-2.99975 3.10318 27.6636 0
-2.22668 3.53804 28.6075 0
-1.39179 3.79602 29.3871 0
-5.45029 0.965817 28.5349 0
-6.25822 1.34493 28.659 0
-3.54818 1.52088 28.9595 0
-4.49634 1.0147 28.6593 0
-4.39187 0.569345 29.1878 0
-3.41323 0.373511 29.9139 0
-4.31147 0.0576228 29.6868 0
-1.91369 2.67524 29.7199 0
-2.73992 2.11259 29.3962 0
-0.521962 3.98137 30.1536 0
-1.18674 3.32659 29.929 0
-0.977213 2.85455 30.4261 0
-0.0562404 2.99826 31.0856 0
-0.790071 2.38174 30.9195 0
-2.4725 1.08833 30.388 0
-2.5412 0.523461 30.8494 0
-2.5368 1.60069 29.8949 0
-1.61583 1.75386 30.7586 0
-0.686541 1.96275 31.3933 0
-1.64552 0.766731 31.7307 0
-2.56445 -0.0282801 31.3208 0
0.223489 2.17403 31.9833 0
-0.67254 1.51978 31.8645 0
-0.654767 1.0891 32.3918 0
0.407702 1.45393 33.0761 0
-0.629371 0.653976 32.906 0
1.30366 2.24618 33.2252 0
1.04396 2.8327 32.087 0
1.18509 2.55088 32.6522 0
0.564299 3.64456 31.2679 0
0.077823 4.64219 30.4025 0
0.331671 4.14176 30.8298 0
1.1293 4.30223 31.4797 0
1.75624 3.51199 32.2507 0
-0.229252 5.46362 29.2561 0
-0.107051 5.08666 29.8452 0
-0.029793 5.90596 27.7962 0
-0.169478 5.74028 28.5719 0
0.450247 5.79707 29.3447 0
1.17166 5.96654 29.3446 0
0.523983 5.30405 25.9197 0
0.242339 5.55491 26.8773 0
0.923108 6.65711 24.2243 0
0.761702 5.87956 25.0006 0
1.31231 5.77108 25.7871 0
2.0956 6.26563 25.6825 0
1.80188 6.09248 26.6792 0
1.3082 6.06416 28.521 0
1.87691 6.13284 29.3245 0
0.741005 6.03212 27.7343 0
1.51551 6.16325 27.6556 0
2.27239 6.38723 27.6179 0
2.47338 6.18396 30.0902 0
2.77172 6.43213 28.4858 0
0.643014 5.21833 30.6128 0
0.879914 8.27158 22.7479 0
0.934121 7.6701 23.603 0
0.968057 8.62784 20.5895 0
0.790798 8.70371 21.824 0
1.62291 8.53298 22.4927 0
2.39658 8.33571 22.1612 0
2.47681 8.33994 23.246 0
0.87821 8.58505 18.6152 0
0.972216 8.57979 19.5234 0
1.35894 10.6338 17.3048 0
1.06677 9.54109 17.8728 0
1.38103 8.48589 18.4447 0
1.96173 8.61231 18.3609 0
2.01148 8.17754 19.2895 0
2.32357 8.24529 21.1455 0
3.14624 8.41695 21.9242 0
1.63674 8.38099 20.3397 0
2.13111 8.09088 20.2577 0
2.59398 7.74788 20.1727 0
3.76518 8.36091 21.9733 0
4.06319 8.72015 22.6242 0
3.07782 7.43138 20.1206 0
3.417 7.81893 21.0618 0
4.2951 8.15544 21.8999 0
4.76639 7.93319 21.7813 0
5.34824 8.86193 22.3989 0
2.59627 12.5754 17.9895 0
1.82088 11.4099 17.4607 0
4.86205 15.5561 20.1871 0
3.72405 14.1178 19.128 0
3.35216 12.9605 18.2234 0
4.09689 13.463 18.5144 0
2.94805 11.608 17.4764 0
7.13783 16.261 23.2961 0
6.19974 16.0564 21.866 0
8.72688 16.4501 25.5786 0
7.94632 16.38 24.5194 0
7.64009 16.137 23.1342 0
8.15937 15.9704 23.0553 0
7.31316 15.798 21.7369 0
5.1425 15.3226 19.0826 0
4.82567 13.9352 18.6733 0
5.6218 15.8098 20.3592 0
6.27087 15.6351 20.4188 0
6.92996 15.4147 20.6489 0
5.48379 14.2473 18.832 0
4.44518 12.4206 18.1796 0
7.51871 15.5583 20.4314 0
6.50763 14.9802 19.8257 0
6.06727 14.358 18.9455 0
6.59599 13.9116 19.0283 0
5.65288 12.5479 18.1993 0
4.25438 7.18071 20.8733 0
5.21954 7.66669 21.7031 0
2.76886 7.53242 18.8869 0
3.44742 7.14045 19.8952 0
3.89374 7.02698 19.7089 0
3.42428 7.07735 18.5936 0
1.90393 9.34721 17.1641 0
2.2873 8.38405 17.9579 0
1.8055 10.368 17.1408 0
2.24385 10.2267 17.0119 0
2.68765 10.3207 16.9352 0
2.9687 8.10419 17.3304 0
3.33437 7.99213 17.149 0
2.62974 8.22507 17.7031 0
2.6716 9.16734 16.7243 0
3.21215 10.4827 16.9397 0
3.76168 9.19625 16.6293 0
3.76583 7.79479 17.0236 0
4.01308 10.8146 17.233 0
4.66413 10.8638 17.3385 0
5.2126 10.7204 17.3418 0
4.28591 6.72175 18.4713 0
5.76779 10.5316 17.0555 0
4.78759 9.0059 16.5215 0
5.27705 6.90786 17.6205 0
5.0352 7.16371 26.42 0
2.39002 6.73527 24.8533 0
2.9175 6.66513 25.6509 0
1.72672 7.10279 24.1699 0
2.51166 7.47896 24.0555 0
3.30049 7.98182 23.8883 0
3.75524 7.05123 25.5889 0
4.08767 7.59684 24.6088 0
4.15077 8.50809 23.6138 0
5.03323 8.99644 23.2926 0
5.86214 9.53196 22.9623 0
9.68418 16.2805 27.3088 0
9.3362 16.4718 26.5209 0
10.1896 15.9539 28.674 0
9.80283 15.9005 28.0507 0
9.97335 15.4441 26.785 0
10.2016 14.6053 26.1707 0
9.93065 15.1869 25.4543 0
11.2376 16.1594 29.9604 0
10.772 16.113 29.2887 0
11.6184 16.1673 30.6492 0
10.4927 14.3726 26.8712 0
10.5873 13.9919 25.5424 0
10.5661 15.094 28.169 0
10.9504 14.3485 27.5572 0
10.8352 14.9862 24.1459 0
5.78177 8.14763 16.776 0
6.65782 11.6882 17.9469 0
6.28201 10.2575 16.539 0
6.58378 9.42394 16.5636 0
7.64088 14.7619 19.6061 0
7.10046 13.249 19.0762 0
8.38078 15.8071 21.5821 0
8.0493 15.5913 20.376 0
8.52767 15.459 20.2038 0
9.37545 15.8049 20.7848 0
8.81395 15.012 20.3101 0
8.89317 15.8424 24.0041 0
8.68552 15.9392 22.8306 0
9.11368 15.9064 25.2039 0
9.51844 15.6371 24.7093 0
9.92666 15.4566 24.1615 0
9.72768 16.1061 21.577 0
10.1395 16.0248 21.3187 0
9.22682 16.0699 22.1872 0
9.88121 15.9113 22.7926 0
10.4727 15.7555 23.5173 0
10.8237 16.049 22.0175 0
10.403 15.688 21.1407 0
11.0208 15.9584 22.9303 0
11.3928 15.7071 22.5452 0
11.6142 15.3146 22.1711 0
7.78521 8.70569 16.8132 0
8.52192 7.57945 16.7956 0
7.59856 11.7794 18.2288 0
7.70994 10.2935 17.3885 0
7.38613 12.6803 18.9376 0
8.16394 13.75 19.656 0
8.99593 14.4391 20.0487 0
8.90108 10.8714 18.4637 0
9.47734 11.0628 18.9585 0
8.31799 10.5847 17.9259 0
8.97474 12.6645 19.4424 0
9.85466 14.9524 20.2604 0
10.1738 13.0349 20.4623 0
9.96624 11.1176 19.3887 0
10.5433 15.0237 20.7317 0
11.1528 14.8913 21.2826 0
10.4577 11.1437 19.7893 0
9.9433 9.50305 18.4547 0
-1.39373 7.6351 35.0873 0
-4.05833 7.11792 32.9052 0
-2.70182 7.40711 33.9138 0
-6.31903 6.55748 31.3763 0
-5.34599 6.95864 32.1719 0
-4.74289 6.46146 33.1641 0
-5.07661 5.77103 33.4529 0
-3.83069 5.56155 34.0182 0
-7.06387 5.17777 29.8892 0
-6.77452 5.88805 30.5881 0
-7.17637 3.16626 29.0948 0
-7.23933 4.28055 29.3524 0
-7.28531 4.76801 30.2513 0
-7.45306 4.74916 30.7655 0
-7.20018 5.38166 31.2851 0
-5.9154 5.65413 32.7546 0
-5.1525 5.24957 33.8178 0
-6.49556 5.8185 31.6409 0
-6.67818 5.60785 31.9903 0
-6.9435 5.79526 32.3689 0
-5.4223 5.18495 34.2513 0
-4.31797 4.53552 34.7915 0
-7.41479 6.00442 32.7676 0
-6.41328 5.78522 33.5128 0
-5.75696 5.52965 34.6677 0
-6.12954 5.89817 34.9394 0
-4.90241 4.88043 35.6548 0
-5.99592 0.923512 29.4786 0
-6.79232 2.05903 29.1498 0
-3.87063 -0.172194 30.277 0
-4.82103 0.166702 29.7209 0
-5.57044 0.606207 30.1003 0
-5.34909 0.416602 30.704 0
-6.39928 1.31449 30.6677 0
-2.52847 -0.600052 31.8125 0
-3.34331 -0.855993 30.9008 0
-0.736744 0.167045 33.3417 0
-1.78869 -0.298463 32.6364 0
-2.56809 -1.09309 32.2381 0
-2.55422 -1.34219 32.737 0
-3.30995 -1.6127 31.9249 0
-4.95088 -0.690112 30.7456 0
-5.85724 -0.0570548 31.2131 0
-3.92313 -0.821784 30.7932 0
-4.37892 -1.31296 31.3057 0
-4.42557 -1.48047 31.8374 0
-6.12087 -0.159369 31.7148 0
-6.62883 1.08969 31.6894 0
-4.55658 -1.43737 32.3753 0
-5.58014 -1.05067 31.8304 0
-6.27519 -0.0137717 32.3243 0
-6.7148 0.109108 32.8814 0
-7.35397 1.15358 32.7184 0
-7.25623 6.2048 34.1145 0
-6.55412 6.18324 35.056 0
-7.83857 5.42395 32.1665 0
-7.90828 6.12311 33.1657 0
-8.16281 5.68165 33.5274 0
-8.37378 5.01398 33.0225 0
-8.33169 5.11192 33.9458 0
-7.40498 3.7801 30.5247 0
-7.67412 4.69715 31.2565 0
-7.20314 2.83292 29.7391 0
-7.0558 2.46188 30.5745 0
-7.11306 2.32018 31.1765 0
-8.42526 4.88838 32.1253 0
-8.89986 4.47655 32.6195 0
-8.06208 4.81213 31.6806 0
-7.74311 3.63269 31.6262 0
-7.41323 2.40494 31.5872 0
-8.66204 3.36133 32.5477 0
-9.38497 4.0833 33.1534 0
-7.75098 2.48063 32.0365 0
-8.15449 2.48595 32.5072 0
-8.60054 2.46591 32.9791 0
-7.00042 6.39228 35.1508 0
-5.50566 5.73243 35.825 0
-8.91572 5.03874 34.2822 0
-7.86659 5.75173 34.6281 0
-7.42345 6.43863 35.249 0
-7.92846 6.45351 35.38 0
-6.3666 6.5161 35.8136 0
-9.91512 4.07277 33.5352 0
-9.48173 4.60332 33.8871 0
-9.13637 2.28743 33.3896 0
-9.67175 3.35323 33.407 0
-10.4323 4.03192 33.9454 0
-10.5162 3.71347 34.5853 0
-10.2325 4.38262 34.809 0
-9.05759 5.78098 35.0525 0
-8.37575 6.50353 35.4948 0
-9.60693 5.07987 34.584 0
-9.88567 4.90496 35.0676 0
-10.0429 4.67639 35.6104 0
-8.68316 6.39206 35.9242 0
-7.30967 6.94501 36.0001 0
-10.2483 4.62069 35.9438 0
-9.54607 5.46529 36.0196 0
-9.00874 6.38129 36.3967 0
-9.07243 6.32308 36.7217 0
-8.05223 7.03593 36.7717 0
-3.61589 4.00092 35.8069 0
-4.12787 4.43509 36.5608 0
-4.33399 4.88716 36.6908 0
-4.44209 5.50287 36.3959 0
-4.68377 6.06488 36.2808 0
-5.16122 6.74827 36.458 0
-5.58335 7.13096 36.5788 0
-3.87349 7.94857 36.5954 0
-5.723 7.22872 36.6049 0
-6.02884 7.28586 36.8904 0
-6.41524 7.5065 37.045 0
-6.29307 7.44429 37.3519 0
-4.55672 8.57681 37.2722 0
-3.26776 10.5124 38.3123 0
0.329907 0.627109 33.9688 0
-4.66714 11.7946 40.6723 0
-6.17433 11.2325 41.5093 0
-4.77616 9.36357 38.1859 0
-4.28151 11.4101 39.4741 0
-7.60925 6.7246 37.4136 0
-5.96207 7.49163 37.7063 0
-5.57951 7.59356 38.133 0
-6.87504 6.54517 38.0455 0
-5.59575 7.84564 38.7575 0
-6.07182 11.4212 40.2946 0
-6.50242 11.0554 40.7328 0
-5.23018 11.4292 39.9213 0
-5.00518 9.75769 39.3093 0
-5.57541 8.11202 39.3055 0
-5.61216 9.86447 40.2519 0
-6.78127 10.6143 41.1648 0
-6.38274 6.82734 39.1192 0
-5.52386 8.29522 39.6786 0
-5.40631 8.46285 40.0102 0
-5.86507 7.09912 39.9661 0
-5.27439 8.30679 40.3855 0
-8.43939 10.4232 44.9579 0
-6.17193 10.7645 43.8296 0
-6.72018 10.6985 42.4504 0
-6.47209 10.3423 42.2892 0
-5.83137 10.404 43.0649 0
-6.95843 10.2579 41.6005 0
-6.13093 9.36545 41.0404 0
-5.1653 8.09106 40.7502 0
-8.2249 10.2851 44.0752 0
-9.89945 9.79646 44.7371 0
-10.2211 9.31539 43.5534 0
-10.5427 9.75866 44.6928 0
-5.49919 9.5214 42.2741 0
-6.60989 10.2961 43.1679 0
-5.76429 6.90457 40.74 0
-5.07618 7.98877 41.1644 0
-4.92962 7.94103 41.6736 0
-5.46472 6.62872 41.6075 0
-4.84963 7.91713 42.2229 0
-8.80982 9.7327 42.7567 0
-9.78365 9.07287 42.5578 0
-7.73651 10.1074 43.0793 0
-6.3257 9.6358 43.026 0
-5.00374 8.1083 42.6332 0
-8.37142 8.46568 42.0497 0
-10.3556 8.42466 42.8863 0
-4.88376 6.5874 42.5034 0
-5.55732 8.01458 42.62 0
-6.28678 7.94612 42.7057 0
-4.8966 6.76653 43.3213 0
-7.19013 7.24692 42.9265 0
-9.72971 5.44286 36.6032 0
-8.86523 6.18336 37.0982 0
-10.58 4.02422 35.6945 0
-10.4329 4.65904 36.1835 0
-10.3774 4.53468 36.4638 0
-10.8634 3.66962 36.3018 0
-10.225 4.30839 36.7357 0
-10.4752 2.87233 34.4252 0
-10.6228 3.42037 35.1579 0
-8.34665 1.17278 33.6048 0
-9.62706 2.08095 33.8269 0
-10.0033 1.80815 34.1996 0
-9.29215 1.04522 34.2531 0
-10.4278 1.57603 34.5646 0
-11.3213 3.14334 35.8964 0
-11.241 2.86541 36.1505 0
-10.9497 3.34643 35.5024 0
-11.362 2.44754 35.3086 0
-10.9125 1.44176 35.0219 0
-11.6164 1.96881 36.0106 0
-11.1305 2.55182 36.4374 0
-10.1952 0.556369 34.8523 0
-11.2631 1.28242 35.4817 0
-11.2878 1.06076 35.8157 0
-10.8056 -0.017854 35.5563 0
-11.2759 0.775387 36.1726 0
-6.04464 -0.680243 33.0801 0
-7.10348 0.301915 33.445 0
-3.54641 -1.8084 32.9705 0
-4.82325 -1.42593 32.9063 0
-5.16298 -1.26128 33.4762 0
-4.16065 -1.70333 34.0343 0
-5.53627 -1.0845 34.0516 0
-1.7295 -1.30542 33.3581 0
-2.46308 -1.80612 33.0676 0
-0.795248 -0.320167 33.7177 0
-0.743327 -0.871321 34.0341 0
-0.761872 -1.23218 34.4503 0
-2.92833 -1.94919 34.1323 0
-3.26412 -2.01092 34.6147 0
-2.6749 -1.87877 33.5737 0
-1.89503 -1.83982 34.2457 0
-1.03142 -1.38456 35.0117 0
-2.43512 -1.98002 35.3117 0
-3.69153 -2.08434 35.0752 0
-1.21876 -1.6093 35.5061 0
-1.37409 -1.87603 35.8726 0
-1.64277 -2.1725 36.245 0
-9.61007 -0.394522 35.1541 0
-9.78976 -0.735607 35.4591 0
-8.78169 0.375033 34.6983 0
-9.19583 0.0522465 34.9838 0
-8.20485 -0.395654 35.1638 0
-6.8437 -0.104141 35.518 0
-7.18673 -0.538215 35.6745 0
-8.02864 0.828105 34.2796 0
-8.40752 0.595765 34.4939 0
-7.58226 0.606435 33.8583 0
-6.83382 -0.0665855 34.1607 0
-5.93274 -0.589643 34.5492 0
-6.60489 -0.149772 35.2763 0
-5.65083 -0.440704 35.7424 0
-7.54306 0.131982 34.8356 0
-6.28876 -0.129597 35.0544 0
-5.04677 -1.10922 35.0393 0
-4.35898 -0.9765 35.9665 0
-4.69086 -0.767446 36.2497 0
-4.0422 -1.6129 35.5048 0
-3.00533 -1.78222 36.0624 0
-1.97831 -2.10071 36.59 0
-8.99957 -1.32309 35.5104 0
-10.059 -1.05637 35.8325 0
-6.287 -0.57935 36.3107 0
-7.62011 -0.887819 35.9522 0
-7.97392 -1.27718 36.2289 0
-7.1152 -1.2612 36.8137 0
-8.31529 -1.70404 36.4381 0
-3.73387 -1.05379 36.7639 0
-4.95538 -0.504691 36.565 0
-5.81991 -0.93585 37.2162 0
-6.20565 -1.23369 37.4534 0
-5.38343 -0.78092 36.8696 0
-5.33402 -1.13177 38.0497 0
-6.53585 -1.58249 37.622 0
-4.85606 5.1547 42.7832 0
-4.71806 4.85254 43.1265 0
-5.658 5.13625 41.8234 0
-5.43261 5.16962 42.2949 0
-5.62121 3.7516 42.0176 0
-6.58541 3.02206 41.7969 0
-5.93563 2.86845 42.2557 0
-6.41763 5.50595 40.9783 0
-6.0655 5.30718 41.4208 0
-6.76361 5.77112 40.1316 0
-6.69545 5.6296 40.5625 0
-7.36759 4.45844 40.4056 0
-8.23188 3.514 39.875 0
-7.94989 3.35654 40.3018 0
-7.14502 3.08288 41.2205 0
-7.52702 2.26284 41.4849 0
-6.67414 4.10577 41.2138 0
-7.62474 3.25965 40.824 0
-8.46314 2.42257 40.391 0
-8.29667 1.40033 41.0393 0
-7.6739 1.34133 41.6092 0
-9.17822 1.51404 39.882 0
-8.83827 1.43832 40.433 0
-8.97295 0.515405 40.5318 0
-9.61987 -0.270529 39.9383 0
-9.12179 -0.2725 40.5738 0
-7.19687 5.81044 39.2309 0
-6.93232 5.8291 39.6846 0
-7.69907 5.70743 38.4626 0
-7.42936 5.72662 38.8258 0
-8.37089 4.68855 38.6324 0
-9.28746 3.69761 38.1049 0
-8.91507 3.58998 38.4744 0
-8.27872 5.83559 37.7482 0
-7.94693 5.69203 38.0563 0
-8.62712 6.03482 37.455 0
-9.3163 5.07041 37.2272 0
-10.0421 4.07843 37.0145 0
-9.51604 3.76646 37.756 0
-10.1231 2.79129 37.6382 0
-8.76561 4.74292 37.9193 0
-9.76236 3.8939 37.395 0
-10.6004 3.15367 36.9035 0
-10.6605 2.12423 37.173 0
-10.3447 1.93593 37.5521 0
-10.9485 2.32158 36.7866 0
-11.198 1.48403 36.7089 0
-10.9823 0.599154 36.6045 0
-10.1255 -0.292856 39.4072 0
-10.2713 -1.01594 39.3815 0
-9.54982 1.56631 39.3412 0
-9.88678 0.575103 39.3562 0
-10.5758 -0.277019 38.9106 0
-11.007 -0.245007 38.3822 0
-11.2432 -1.07448 38.5066 0
-8.48733 3.56367 39.4049 0
-9.03222 2.54682 39.3586 0
-7.87265 4.66676 39.543 0
-8.69311 3.5625 38.9175 0
-9.47071 2.50505 38.3622 0
-10.6453 0.63253 38.2967 0
-10.8019 0.00394304 37.8865 0
-9.84304 1.57756 38.8235 0
-10.0356 1.57468 38.3179 0
-10.0529 1.75406 37.9045 0
-10.7787 0.234452 37.475 0
-10.6808 -0.584302 37.4651 0
-10.6264 1.05893 37.4724 0
-10.7771 0.421566 37.0333 0
-10.7044 -0.357036 36.4482 0
-10.7186 -1.69064 38.9552 0
-10.1985 -1.6637 39.3692 0
-11.1542 -1.60274 38.1161 0
-11.2435 -1.77253 38.5442 0
-10.6501 -2.2502 38.512 0
-9.59977 -2.52476 38.034 0
-9.83026 -2.80131 38.3795 0
-10.308 -1.22735 36.9325 0
-10.7346 -1.34795 37.5767 0
-10.2126 -1.19795 36.3355 0
-9.57121 -1.89374 36.3143 0
-8.68106 -1.99298 36.7516 0
-9.33795 -2.29348 37.6262 0
-8.24628 -2.70524 37.5905 0
-10.2534 -1.8484 37.6759 0
-9.03219 -1.9974 37.3683 0
-7.80115 -2.0225 37.2185 0
-7.00396 -2.14615 37.9374 0
-7.29024 -2.63418 38.0679 0
-6.81729 -1.75314 37.7912 0
-5.87576 -1.38966 38.4243 0
-4.29253 3.53022 43.1359 0
-4.02132 4.87863 43.8621 0
-6.19424 2.09479 42.5909 0
-5.18601 2.76381 42.7857 0
-4.46087 2.53807 43.43 0
-4.55457 1.48513 43.7961 0
-3.5005 2.10495 44.1771 0
-8.25443 0.590702 42.0755 0
-7.45469 1.43807 42.5109 0
-9.4497 -0.901583 40.6694 0
-8.84508 -0.18996 41.3335 0
-8.61937 -0.0993603 42.2113 0
-8.61257 -0.952917 42.1156 0
-7.97367 -0.249436 42.8571 0
-5.77287 0.953824 43.5469 0
-5.07345 0.67506 44.3264 0
-6.67643 1.27301 43.0209 0
-7.0103 0.351713 43.3726 0
-7.11444 -0.534567 43.3376 0
-5.52711 -0.107007 44.6204 0
-4.52222 0.448782 45.186 0
-7.39206 -1.33378 43.3534 0
-6.48315 -0.744984 44.0006 0
-6.09463 -0.897202 44.8885 0
-6.65388 -1.77923 44.9179 0
-5.75133 -1.06334 45.8258 0
-9.93244 -2.48218 39.33 0
-9.83447 -1.64703 40.0104 0
-8.6178 -3.36517 38.0983 0
-9.68701 -3.06288 38.7847 0
-9.47538 -3.3285 39.2042 0
-8.35057 -3.80559 38.7686 0
-8.97979 -3.16249 39.7188 0
-7.47014 -3.03031 38.2514 0
-7.36303 -4.04997 38.8679 0
-7.59416 -3.45205 38.414 0
-6.72989 -3.48141 38.8447 0
-7.47288 -4.43088 39.1832 0
-7.45822 -2.54428 43.924 0
-7.11292 -2.77767 44.671 0
-8.20296 -1.90403 42.5937 0
-7.73588 -2.18958 43.2037 0
-8.05607 -3.1655 43.0065 0
-8.27338 -3.80165 42.0133 0
-7.98311 -4.14873 42.637 0
-8.86113 -1.58903 41.2896 0
-8.34388 -1.72193 41.9253 0
-9.42822 -1.59361 40.7334 0
-9.01455 -2.29772 40.5318 0
-8.47224 -2.97089 40.281 0
-8.42243 -3.33726 41.5151 0
-8.22757 -4.40947 41.1059 0
-8.55669 -2.52365 41.7443 0
-8.49382 -3.10591 40.9444 0
-8.2478 -3.80179 40.02 0
-7.67002 -4.81163 40.2553 0
-7.55013 -5.15678 40.7832 0
-7.43898 -3.73811 44.3614 0
-6.73142 -3.0262 45.3993 0
-8.0841 -5.01264 42.2983 0
-8.06566 -4.42745 43.3448 0
-7.75239 -4.64922 44.0664 0
-7.77333 -5.45262 43.7628 0
-7.46687 -4.79436 44.8675 0
-6.91238 -5.72933 40.4962 0
-7.56854 -5.33508 41.3428 0
-7.54566 -5.91363 42.6428 0
-7.45028 -6.26304 43.3149 0
-7.52266 -5.52294 41.9847 0
-7.36887 -6.33245 43.8767 0
-16.0463 3.12301 53.9852 0
-16.9591 2.42174 52.7062 0
-15.4679 3.14146 53.0311 0
-16.2576 2.7325 52.8146 0
-16.441 2.4055 51.6885 0
-15.8083 2.45226 50.7391 0
-13.5211 8.84816 48.765 0
-13.0745 8.5241 47.4378 0
-13.7324 8.10301 48.851 0
-11.0226 9.56682 44.9973 0
-12.5944 9.00207 46.1787 0
-12.2247 8.2943 46.1069 0
-12.6701 9.64401 46.4265 0
-12.01 9.30058 45.2568 0
-11.0624 8.84038 44.2975 0
-11.185 7.58627 44.7276 0
-11.6969 7.35932 46.265 0
-10.6536 7.79069 43.6864 0
-9.56437 6.32868 43.0198 0
-7.84622 6.5707 44.0605 0
-14.9411 2.80403 50.9718 0
-15.0194 2.47135 49.8602 0
-14.6705 3.37424 53.3369 0
-14.8472 3.1351 52.1187 0
-14.0627 3.15973 51.2249 0
-13.2339 3.19439 51.4898 0
-13.2005 3.12026 50.3416 0
-14.497 3.49076 54.6305 0
-13.5549 3.13022 55.3253 0
-13.2422 3.2573 52.7149 0
-12.3006 2.97957 51.8699 0
-13.8822 3.41435 53.6879 0
-13.3446 3.23349 54.0017 0
-12.6858 2.86728 54.3764 0
-11.4651 2.58151 52.1612 0
-11.2273 2.68981 51.0569 0
-12.2048 2.97398 54.5203 0
-11.6751 2.5255 53.3769 0
-10.5954 2.58069 52.4052 0
-10.0015 2.66713 52.388 0
-9.31272 2.75783 51.5026 0
-10.7395 2.60881 53.4841 0
-9.23947 2.75624 52.5735 0
-12.815 3.72848 55.4818 0
-11.8573 3.18194 54.6236 0
-11.7423 3.5283 54.5013 0
-12.6036 4.72746 55.1164 0
-11.9983 4.19078 53.9674 0
-12.9665 5.33312 56.0124 0
-13.2584 5.7514 55.0962 0
-13.4915 6.23454 53.3908 0
-8.6694 3.10656 52.3899 0
-7.34349 2.99153 51.8416 0
-12.4482 4.82144 52.7978 0
-10.67 3.73057 52.6071 0
-8.37126 3.67684 51.5859 0
-8.64039 3.99161 49.945 0
-6.02807 3.96828 50.3952 0
-13.8591 6.94876 51.7833 0
-13.5057 5.64244 52.3734 0
-14.0515 7.59396 50.3014 0
-13.3126 7.25891 49.2302 0
-11.1296 4.76063 49.7442 0
-8.71791 4.40214 48.3468 0
-12.6498 5.42601 51.2091 0
-12.6368 6.07304 49.6424 0
-12.1719 6.73911 47.9595 0
-8.80804 5.05506 46.7705 0
-6.21678 4.53473 47.0845 0
-10.62 5.97981 46.328 0
-8.37265 5.89386 45.353 0
-5.37521 6.30814 44.82 0
-14.0921 2.76475 49.0864 0
-15.064 2.5386 48.6978 0
-12.0473 3.05382 49.7395 0
-13.1274 3.12871 49.3262 0
-13.0542 3.17324 48.3858 0
-11.8003 3.15344 48.0177 0
-12.9686 3.3114 47.4882 0
-9.92091 2.68316 50.4703 0
-10.9862 2.82935 50.1131 0
-7.518 2.81483 50.9677 0
-8.80314 2.74286 50.7168 0
-8.22163 2.70834 49.9495 0
-6.0336 2.50445 49.3012 0
-7.55742 2.58788 49.1584 0
-10.4565 2.9829 48.4203 0
-10.1891 2.87518 47.6294 0
-10.7469 3.00556 49.2144 0
-9.08712 2.70138 48.795 0
-6.83851 2.26547 48.5233 0
-7.89451 2.15718 47.5321 0
-9.74191 2.64045 46.9853 0
-3.93342 1.95291 48.6967 0
-6.02536 1.79046 48.1009 0
-5.38241 1.2704 48.0678 0
-3.5997 -0.152193 49.0379 0
-4.69838 0.728539 48.225 0
-5.10801 3.23564 50.6515 0
-6.39602 3.03397 50.834 0
-3.60239 3.0819 48.4863 0
-3.85128 3.30487 50.1227 0
-2.19964 2.51333 49.6734 0
-0.877912 1.47716 48.8283 0
-1.59335 1.83069 49.8259 0
-4.06467 3.65344 45.8375 0
-4.11123 3.25352 47.1148 0
-3.72413 4.62145 44.8159 0
-3.19139 2.82666 44.922 0
-2.84951 1.54786 45.0827 0
-1.28326 1.07604 47.4239 0
-1.55918 0.378295 47.6917 0
-2.31752 2.08846 47.2329 0
-2.10296 1.18893 46.1436 0
-3.34946 0.766118 45.5919 0
-3.05399 -0.0590034 47.1052 0
-1.87776 -0.247375 47.947 0
-3.91938 0.161402 46.1754 0
-4.54566 -0.555938 46.4756 0
-5.26184 -1.33112 46.6398 0
-3.10963 -0.937945 49.4068 0
-3.58193 -2.41215 49.276 0
-2.99168 1.40033 49.5153 0
-2.95415 0.581372 49.4829 0
-3.04768 -1.52435 49.2458 0
-3.03316 -1.90597 48.9902 0
-3.99582 -2.97429 48.7939 0
-4.40371 2.39454 49.5306 0
-3.31436 2.04515 49.5469 0
-5.44944 2.68191 50.142 0
-2.9417 2.11447 50.0781 0
-1.58623 1.03495 49.6148 0
-2.27228 -0.901073 48.9904 0
-3.57541 -1.99463 48.7343 0
-2.33238 0.712733 49.6659 0
-1.93763 0.1015 49.2378 0
-1.76637 -0.122483 48.6167 0
-4.06711 -1.93975 48.2359 0
-4.9029 -2.83487 47.9908 0
-2.86093 -1.04714 48.1028 0
-4.65305 -1.60893 47.4466 0
-5.81271 -2.32693 46.426 0
-4.82779 -4.09849 48.9707 0
-4.68116 -3.72864 49.223 0
-5.52396 -4.08487 48.1372 0
-5.14452 -4.07908 48.5214 0
-6.12277 -5.04456 48.2751 0
-7.20653 -5.74102 47.4447 0
-6.96799 -5.94401 48.047 0
-6.00696 -3.3517 46.995 0
-5.77071 -3.7408 47.573 0
-6.37967 -3.22827 46.1763 0
-6.77884 -4.06416 45.915 0
-7.32766 -4.98981 45.5825 0
-7.40386 -5.50829 46.8088 0
-7.80095 -6.46686 46.3591 0
-6.58032 -4.6258 47.1786 0
-7.44981 -5.24884 46.2069 0
-7.39999 -5.67648 45.0701 0
-7.95165 -7.48454 45.867 0
-16.7083 2.0872 49.3509 0
-15.1157 2.72973 47.5742 0
-15.9732 2.33633 48.3839 0
-12.8362 3.56449 46.5792 0
-14.0986 3.16143 46.9853 0
-15.1311 3.08595 46.4815 0
-15.073 3.33925 45.3501 0
-9.11409 2.22238 46.3318 0
-11.3875 3.08463 46.4004 0
-4.38725 -0.324279 48.9854 0
-6.50039 1.00545 47.1531 0
-8.33904 1.40009 46.089 0
-7.79843 0.456028 46.1694 0
-10.2456 1.78999 45.1595 0
-13.8819 3.61996 44.7558 0
-12.6313 3.80724 45.5752 0
-12.3648 3.38133 44.9846 0
-5.39907 -4.89961 49.335 0
-4.15732 -2.91592 49.7428 0
-7.4992 -7.00918 47.8994 0
-6.40206 -6.13442 48.7832 0
-5.935 -6.01662 49.4227 0
-8.02176 -7.8196 46.746 0
-6.09421 -0.835632 48.0965 0
-7.708 -0.699145 46.744 0
-4.58399 -1.54428 49.5031 0
-4.96214 -2.69529 49.9792 0
16.0245 26.5032 33.6979 0
15.8468 26.5977 34.4205 0
16.4622 27.7485 32.0613 0
16.6329 27.1615 32.4653 0
16.8224 26.4679 31.7884 0
16.0666 26.4954 33.0388 0
16.0621 26.1536 32.0639 0
16.4302 26.4963 32.42 0
14.6526 28.8056 30.8638 0
15.271 28.4429 31.3276 0
14.0789 29.1109 30.4508 0
13.3985 30.1685 29.2031 0
13.2154 29.82 30.1542 0
12.2989 29.9142 28.1532 0
12.6581 29.9393 28.8407 0
13.3732 29.6093 30.8975 0
15.9217 28.1722 31.7187 0
11.4452 30.3408 26.6263 0
11.7945 30.0828 27.2799 0
10.6306 29.6736 26.0261 0
11.0096 30.091 25.247 0
11.5016 31.6198 23.043 0
11.5031 31.2976 23.9494 0
11.9062 31.9452 22.5021 0
11.2158 29.6688 24.5167 0
11.4355 30.7277 24.7408 0
15.7613 28.2366 23.1817 0
14.7313 28.8284 23.0288 0
13.7254 29.3982 22.7987 0
12.9198 29.8222 22.1743 0
12.4104 30.5231 21.8959 0
12.0913 31.3437 21.7865 0
16.8022 27.8442 23.381 0
15.1127 22.5492 25.1832 0
14.9822 22.9622 24.9859 0
14.7024 24.7575 24.5301 0
15.2687 24.6691 24.1691 0
14.8297 23.5251 24.8152 0
14.7395 24.1327 24.6881 0
11.5364 29.2566 27.4958 0
16.587 25.347 23.6318 0
17.2066 25.7981 23.6075 0
15.944 24.6418 23.8949 0
16.7288 24.7922 23.5186 0
17.0349 26.3429 23.4169 0
16.47 26.8737 23.2719 0
16.6988 27.3413 22.9751 0
14.4152 22.5469 24.8742 0
14.477 22.1458 25.0511 0
15.2224 22.355 25.358 0
15.1942 26.2432 34.0261 0
14.3015 26.4619 34.8971 0
14.0285 26.3039 35.2344 0
14.7201 26.3879 34.4681 0
13.9024 21.6978 25.1383 0
14.5695 21.8764 25.6035 0
14.1192 21.2639 25.651 0
13.559 21.2477 25.5543 0
14.233 21.1573 26.5996 0
14.3479 21.0428 27.5415 0
13.8114 21.0103 27.4684 0
12.8129 20.7913 27.4299 0
13.3054 20.877 27.434 0
12.0105 19.8247 29.2985 0
12.5797 19.6448 29.2456 0
12.5689 20.1805 28.3969 0
12.9662 20.1568 28.2983 0
11.9239 19.4892 30.2318 0
11.7872 19.1892 31.1438 0
11.258 19.3739 31.1827 0
10.9839 18.9322 31.9973 0
10.4781 19.1173 32.0551 0
10.682 18.461 32.8128 0
9.65506 17.8644 32.9093 0
10.0833 18.0414 33.2132 0
10.5349 17.9634 33.3393 0
9.65485 16.9953 33.1363 0
10.3137 16.5295 33.0752 0
10.4445 16.7191 32.8317 0
11.4911 16.6412 32.3748 0
11.4399 16.9087 31.7814 0
5.54357 12.4886 41.7885 0
5.82494 11.9222 42.1843 0
7.89096 18.8643 38.8064 0
7.68543 18.1751 38.993 0
8.95224 20.1381 39.1124 0
8.56238 19.4159 39.2162 0
9.47045 20.8429 39.0107 0
6.35579 13.4651 41.3881 0
6.44262 14.2233 40.7231 0
6.6074 15.0853 40.0737 0
7.69032 16.5364 39.3988 0
7.49144 15.7995 39.9176 0
7.66384 17.3636 39.2267 0
12.2656 22.1773 38.4867 0
11.8169 21.9226 38.8338 0
13.5873 23.587 37.0427 0
13.2611 23.1753 37.3979 0
12.6792 22.5864 38.1549 0
12.9532 22.914 37.8999 0
13.1108 25.3156 36.1998 0
12.8211 25.1209 36.4351 0
13.2803 25.7577 35.9562 0
13.6674 26.22 35.5731 0
13.4674 24.0453 37.0009 0
13.3614 24.4606 36.9481 0
13.3928 25.1923 36.9292 0
10.45 21.2465 39.4174 0
10.941 21.4897 39.2749 0
11.3791 21.7489 39.1082 0
5.4002 10.9577 42.264 0
8.06343 8.67612 37.3927 0
7.73064 8.29659 37.5019 0
8.48729 8.836 37.3829 0
6.55256 9.47625 41.0335 0
7.88899 9.28662 40.1239 0
6.26492 10.2893 42.1661 0
8.49391 8.77559 39.6049 0
6.21619 8.63569 36.7624 0
5.69329 8.5245 37.2865 0
4.31501 8.7788 36.6448 0
3.76312 8.41586 37.1302 0
1.46713 1.85434 33.6477 0
2.45299 2.65369 33.7918 0
1.99603 3.22156 32.7817 0
2.15912 2.96254 33.3599 0
0.862552 3.24248 31.6647 0
1.45204 3.90313 31.8622 0
2.00564 4.501 32.03 0
1.61756 4.92495 31.6812 0
2.73906 3.79626 32.8675 0
2.33493 4.1089 32.4179 0
1.11284 5.89678 30.1344 0
1.8009 6.05132 30.126 0
2.58615 6.30669 29.3313 0
3.1651 6.29746 30.0999 0
3.03345 6.65949 27.6239 0
3.50888 6.58519 28.4982 0
3.30372 6.41129 29.3163 0
1.3667 5.38656 31.2723 0
1.20016 5.63763 30.7612 0
2.3789 6.05384 30.7446 0
2.99125 6.10847 30.5998 0
5.77844 8.51862 22.4414 0
4.67068 6.91698 20.7788 0
4.16892 6.6895 19.7414 0
6.17457 7.99557 22.5376 0
5.66304 7.24556 21.6113 0
4.51817 6.33207 19.6898 0
4.29608 7.61008 17.0909 0
4.84562 6.52013 18.2712 0
5.27157 8.67763 16.5431 0
4.80092 7.31514 17.4319 0
5.22676 6.08511 18.5151 0
5.61858 5.67144 18.7544 0
4.98255 6.02612 19.5137 0
3.36658 6.78836 26.6264 0
4.18849 7.03154 26.594 0
4.59939 6.91748 27.6049 0
5.42225 7.04337 27.5226 0
5.98244 7.33065 26.1587 0
5.49471 7.61513 25.1647 0
4.61004 7.3783 25.4471 0
5.7833 8.46311 24.0021 0
6.69763 9.07978 23.6723 0
6.50982 9.60417 22.8349 0
11.8656 16.0499 31.2937 0
12.0138 15.245 30.1584 0
11.641 15.2543 29.4763 0
11.4302 14.4018 28.245 0
10.9817 13.8048 26.2596 0
11.3393 13.6681 26.9566 0
11.29 14.3231 24.7613 0
11.9522 14.6235 24.0282 0
11.8364 14.9988 23.0368 0
5.74272 6.32089 17.5867 0
6.16401 7.44396 16.7824 0
6.82898 8.34058 16.5779 0
7.19111 9.99576 17.2156 0
6.85228 6.69558 16.458 0
7.25999 6.73278 16.4687 0
12.0443 15.0563 22.6581 0
7.90088 7.1577 16.558 0
8.39425 9.02979 17.1907 0
8.3817 6.07176 16.5548 0
8.77752 6.22491 16.7045 0
9.06268 7.81204 17.1305 0
8.9643 9.30333 17.6858 0
11.6307 14.7489 21.745 0
9.55208 7.96785 17.43 0
10.3331 9.50284 18.7783 0
11.1794 12.9693 21.2939 0
10.8487 11.0139 20.242 0
9.94714 7.94661 17.7342 0
1.49028 1.44641 34.0634 0
3.12718 7.73896 37.4644 0
1.58642 7.40113 36.5743 0
0.10769 7.41791 35.8541 0
-0.756948 6.94829 35.9777 0
-2.00514 6.61198 34.7966 0
-2.55974 5.55373 34.6676 0
-2.95245 4.72711 34.9047 0
-3.28728 4.22075 35.3088 0
-2.59774 3.89076 36.3525 0
-2.87886 3.84108 36.7661 0
-3.90007 4.04201 36.2232 0
-3.10412 4.15248 37.1577 0
-3.30677 4.59438 37.4135 0
-3.33446 5.2625 37.2275 0
-3.34179 5.83266 37.0355 0
-3.39685 6.48897 37.0183 0
-3.6868 7.15158 37.0953 0
-3.8252 7.81486 36.4596 0
-2.14271 8.62493 36.8729 0
-2.43047 9.07498 37.3909 0
-2.76716 9.71959 37.8901 0
-2.23868 11.1888 39.6835 0
-2.95689 11.4704 39.8973 0
-3.8813 11.1058 38.8803 0
1.40784 0.986503 34.413 0
0.24042 0.218457 34.3992 0
-3.70679 11.792 40.2953 0
-4.00611 11.6063 41.5207 0
-4.94277 11.6415 41.8733 0
-5.5864 11.3644 42.3367 0
-6.24238 10.978 42.8651 0
-8.40205 10.4486 45.9751 0
-9.1094 10.154 45.889 0
-7.63264 10.7376 44.8977 0
-6.71392 10.8873 43.3587 0
-6.77758 10.8582 44.5612 0
-6.62789 10.9044 44.007 0
-9.25633 9.96953 44.7991 0
-9.64214 10.1511 45.8448 0
-10.2984 10.2243 45.7622 0
0.226342 -0.148586 34.8211 0
0.18531 -0.495657 35.2449 0
0.0718706 -0.797495 35.6539 0
0.00131137 -1.1308 36.0311 0
-0.136136 -1.42408 36.3772 0
-0.308237 -1.95199 36.6453 0
-2.34054 -1.83149 36.9267 0
-0.617414 -2.08595 36.9742 0
-2.77856 -1.47436 37.2384 0
-3.25878 -1.24985 37.5801 0
-4.53567 -0.806233 37.4346 0
-3.76928 -1.2725 37.9561 0
-4.20714 -1.15917 38.3207 0
-4.52099 -1.12437 38.5673 0
-4.77925 -1.20277 38.7687 0
-5.18931 -1.35018 39.0749 0
-6.47773 -2.3975 38.7251 0
-5.49854 -1.84978 39.2333 0
-5.72084 -2.29051 39.2836 0
-5.80317 -2.78851 39.2313 0
-7.56065 -3.87692 38.5397 0
-5.87303 -3.38824 39.235 0
-6.76981 -4.47258 39.0687 0
-6.83593 -4.944 39.2437 0
-5.99275 -4.01275 39.3613 0
-6.9154 -5.55801 39.9614 0
-7.6469 -4.49079 39.8689 0
-6.89054 -5.23649 39.6229 0
-6.83252 -5.85208 41.0943 0
-5.87645 -6.07971 40.6036 0
-5.99314 -5.80826 40.2241 0
-6.61544 -6.55709 42.3314 0
-6.73357 -6.16458 41.6592 0
-6.54874 -6.9424 42.9457 0
-6.37718 -7.00761 43.5627 0
-16.4771 2.83914 54.9765 0
-16.8026 2.7436 53.8691 0
-15.8469 3.16111 55.105 0
-15.283 3.39243 54.258 0
-17.479 2.32902 53.7353 0
-17.5823 2.04116 52.5602 0
-17.0569 2.18035 51.5827 0
-16.5573 2.22852 50.5297 0
-13.833 9.22709 50.0243 0
-14.3632 8.85466 50.97 0
-12.9847 9.92319 47.8851 0
-13.3624 9.59051 48.944 0
-10.9485 10.1951 45.7089 0
-11.9046 9.88397 45.9599 0
-12.4364 10.1736 47.2138 0
-15.1628 3.3051 55.4224 0
-14.5883 3.54223 55.6454 0
-14.2466 3.55176 55.8755 0
-13.941 3.91436 55.9209 0
-13.6383 4.45671 55.8931 0
-13.0187 6.46792 55.7663 0
-13.2358 4.85829 56.0379 0
-13.0995 6.03974 56.539 0
-13.4893 6.79477 54.3859 0
-13.9011 7.40481 52.7061 0
-14.2286 7.95139 51.2604 0
-7.55246 -6.88088 45.1189 0
-7.01828 -7.61946 44.8572 0
-7.25963 -6.36539 44.4578 0
-17.2483 2.08367 50.4086 0
-17.5097 2.06493 49.1999 0
-16.0482 3.1982 46.0893 0
-16.0492 3.02767 45.2279 0
-15.0108 3.33931 44.2966 0
-11.9404 2.70864 44.448 0
-14.9918 2.76981 43.7718 0
-13.549 2.3356 43.7236 0
-11.4662 0.85225 44.4534 0
-5.24196 -5.2944 50.0123 0
-6.27757 -7.08279 49.5213 0
-7.32193 -8.1569 45.5917 0
-7.48009 -8.50655 46.4903 0
-7.3701 -8.24647 48.7204 0
-8.04865 -8.09437 47.7061 0
-9.52728 -0.189389 45.9413 0
-6.25273 -1.83339 48.7749 0
-5.31602 -3.88427 50.2409 0
-7.87106 -1.61463 47.462 0
-16.8058 2.36487 48.1608 0
-16.8497 2.76883 47.0015 0
38 2377 2378 0
595 2379 2380 0
595 2380 2381 0
37 595 2381 0
596 2377 38 0
2382 2377 596 0
2383 2382 596 0
597 2384 2383 0
2381 2384 597 0
37 2381 597 0
599 596 38 0
598 2383 596 0
598 596 599 0
151 598 599 0
601 597 2383 0
600 37 597 0
600 597 601 0
150 600 601 0
602 598 151 0
601 2383 598 0
601 598 602 0
150 601 602 0
604 602 151 0
603 150 602 0
603 602 604 0
11 603 604 0
606 2385 2386 0
605 2387 2385 0
605 2385 606 0
40 605 606 0
153 2388 2389 0
152 2390 2391 0
607 2388 153 0
2391 2388 607 0
152 2391 607 0
609 607 153 0
608 152 607 0
608 607 609 0
39 608 609 0
611 605 40 0
610 2387 605 0
610 605 611 0
154 610 611 0
612 2392 2387 0
2389 2392 612 0
153 2389 612 0
613 610 154 0
612 2387 610 0
612 610 613 0
153 612 613 0
614 613 154 0
609 153 613 0
609 613 614 0
39 609 614 0
616 611 40 0
615 154 611 0
615 611 616 0
156 615 616 0
618 614 154 0
617 39 614 0
617 614 618 0
155 617 618 0
619 615 156 0
618 154 615 0
618 615 619 0
155 618 619 0
621 619 156 0
620 155 619 0
620 619 621 0
10 620 621 0
623 603 11 0
622 150 603 0
622 603 623 0
158 622 623 0
625 600 150 0
624 37 600 0
624 600 625 0
157 624 625 0
626 622 158 0
625 150 622 0
625 622 626 0
157 625 626 0
628 626 158 0
627 157 626 0
627 626 628 0
41 627 628 0
630 595 37 0
629 2379 595 0
629 595 630 0
159 629 630 0
631 629 159 0
2393 2379 629 0
2393 629 631 0
2386 2393 631 0
632 631 159 0
606 2386 631 0
606 631 632 0
40 606 632 0
634 627 41 0
633 157 627 0
633 627 634 0
160 633 634 0
635 624 157 0
630 37 624 0
630 624 635 0
159 630 635 0
636 633 160 0
635 157 633 0
635 633 636 0
159 635 636 0
637 636 160 0
632 159 636 0
632 636 637 0
40 632 637 0
639 634 41 0
638 160 634 0
638 634 639 0
161 638 639 0
640 637 160 0
616 40 637 0
616 637 640 0
156 616 640 0
641 638 161 0
640 160 638 0
640 638 641 0
156 640 641 0
642 641 161 0
621 156 641 0
621 641 642 0
10 621 642 0
644 623 11 0
643 158 623 0
643 623 644 0
163 643 644 0
646 628 158 0
645 41 628 0
645 628 646 0
162 645 646 0
647 643 163 0
646 158 643 0
646 643 647 0
162 646 647 0
649 647 163 0
648 162 647 0
648 647 649 0
43 648 649 0
651 639 41 0
650 161 639 0
650 639 651 0
165 650 651 0
653 642 161 0
652 10 642 0
652 642 653 0
164 652 653 0
654 650 165 0
653 161 650 0
653 650 654 0
164 653 654 0
656 654 165 0
655 164 654 0
655 654 656 0
42 655 656 0
658 648 43 0
657 162 648 0
657 648 658 0
166 657 658 0
659 645 162 0
651 41 645 0
651 645 659 0
165 651 659 0
660 657 166 0
659 162 657 0
659 657 660 0
165 659 660 0
661 660 166 0
656 165 660 0
656 660 661 0
42 656 661 0
663 658 43 0
662 166 658 0
662 658 663 0
168 662 663 0
665 661 166 0
664 42 661 0
664 661 665 0
167 664 665 0
666 662 168 0
665 166 662 0
665 662 666 0
167 665 666 0
668 666 168 0
667 167 666 0
667 666 668 0
2 667 668 0
169 2394 2395 0
2396 2394 169 0
670 2396 169 0
669 2397 2396 0
669 2396 670 0
45 669 670 0
672 2398 2399 0
671 2400 2398 0
671 2398 672 0
44 671 672 0
673 669 45 0
2401 2397 669 0
2401 669 673 0
170 2401 673 0
674 2401 170 0
2402 2401 674 0
2399 2402 674 0
675 674 170 0
672 2399 674 0
672 674 675 0
44 672 675 0
677 673 45 0
676 170 673 0
676 673 677 0
172 676 677 0
679 675 170 0
678 44 675 0
678 675 679 0
171 678 679 0
680 676 172 0
679 170 676 0
679 676 680 0
171 679 680 0
682 680 172 0
681 171 680 0
681 680 682 0
12 681 682 0
2403 681 12 0
2404 171 681 0
2404 681 2403 0
2405 678 171 0
2406 44 678 0
2406 678 2405 0
2405 171 2404 0
2407 671 44 0
2408 2400 671 0
2408 671 2407 0
2407 44 2406 0
2409 2403 12 0
684 667 2 0
683 167 667 0
683 667 684 0
174 683 684 0
686 664 167 0
685 42 664 0
685 664 686 0
173 685 686 0
687 683 174 0
686 167 683 0
686 683 687 0
173 686 687 0
2410 687 174 0
2411 173 687 0
2411 687 2410 0
689 655 42 0
688 164 655 0
688 655 689 0
176 688 689 0
691 652 164 0
690 10 652 0
690 652 691 0
175 690 691 0
692 688 176 0
691 164 688 0
691 688 692 0
175 691 692 0
2412 692 176 0
693 175 692 0
693 692 2412 0
2413 693 2412 0
2414 173 2411 0
694 685 173 0
689 42 685 0
689 685 694 0
176 689 694 0
694 173 2414 0
694 2414 2415 0
176 694 2415 0
2412 176 2415 0
696 620 10 0
695 155 620 0
695 620 696 0
178 695 696 0
698 617 155 0
