#!ascii - generated by CreateLabelFiles project 
3012 5778
1237 77 1231 0
1237 1231 1245 0
314 1237 1245 0
1246 1243 315 0
1245 311 1243 0
1245 1243 1246 0
314 1245 1246 0
1247 1246 315 0
1242 314 1246 0
1242 1246 1247 0
78 1242 1247 0
1249 1244 79 0
1248 315 1244 0
1248 1244 1249 0
317 1248 1249 0
1251 1247 315 0
1250 78 1247 0
1250 1247 1251 0
316 1250 1251 0
1252 1248 317 0
1251 315 1248 0
1251 1248 1252 0
316 1251 1252 0
1254 1252 317 0
1253 316 1252 0
1253 1252 1254 0
7 1253 1254 0
1256 961 5 0
1255 242 961 0
1255 961 1256 0
318 1255 1256 0
2804 2803 242 0
2805 1255 318 0
2804 242 1255 0
2804 1255 2805 0
2806 2805 318 0
1258 1253 7 0
1257 316 1253 0
1257 1253 1258 0
320 1257 1258 0
1260 1250 316 0
1259 78 1250 0
1259 1250 1260 0
319 1259 1260 0
1261 1257 320 0
1260 316 1257 0
1260 1257 1261 0
319 1260 1261 0
1263 1261 320 0
1262 319 1261 0
1262 1261 1263 0
2807 1262 1263 0
1265 1241 78 0
1264 313 1241 0
1264 1241 1265 0
322 1264 1265 0
1267 1238 313 0
1266 21 1238 0
1266 1238 1267 0
321 1266 1267 0
1268 1264 322 0
1267 313 1264 0
1267 1264 1268 0
321 1267 1268 0
1270 1268 322 0
1269 321 1268 0
1269 1268 1270 0
2808 1269 1270 0
2809 1262 2807 0
1271 319 1262 0
1271 1262 2809 0
2810 1271 2809 0
1272 1259 319 0
1265 78 1259 0
1265 1259 1272 0
322 1265 1272 0
1273 1271 2810 0
1272 319 1271 0
1272 1271 1273 0
322 1272 1273 0
2811 1273 2810 0
1270 322 1273 0
1270 1273 2811 0
2808 1270 2811 0
1275 1205 21 0
1274 304 1205 0
1274 1205 1275 0
324 1274 1275 0
1277 1202 304 0
1276 75 1202 0
1276 1202 1277 0
323 1276 1277 0
1278 1274 324 0
1277 304 1274 0
1277 1274 1278 0
323 1277 1278 0
1279 1278 324 0
2812 323 1278 0
2812 1278 1279 0
2813 2812 1279 0
1281 1193 75 0
1280 301 1193 0
1280 1193 1281 0
325 1280 1281 0
1282 1190 301 0
1256 5 1190 0
1256 1190 1282 0
318 1256 1282 0
1283 1280 325 0
1282 301 1280 0
1282 1280 1283 0
318 1282 1283 0
2814 1283 325 0
2806 318 1283 0
2806 1283 2814 0
2815 323 2812 0
1284 1276 323 0
1281 75 1276 0
1281 1276 1284 0
325 1281 1284 0
1284 323 2815 0
1284 2815 2816 0
325 1284 2816 0
2814 325 2816 0
2817 1269 2808 0
1285 321 1269 0
1285 1269 2817 0
2818 1285 2817 0
1286 1266 321 0
1275 21 1266 0
1275 1266 1286 0
324 1275 1286 0
1287 1285 2818 0
1286 321 1285 0
1286 1285 1287 0
324 1286 1287 0
2819 1287 2818 0
1279 324 1287 0
1279 1287 2819 0
2813 1279 2819 0
1289 1258 7 0
1288 320 1258 0
1288 1258 1289 0
327 1288 1289 0
1291 1263 320 0
1290 2807 1263 0
1290 1263 1291 0
326 1290 1291 0
1292 1288 327 0
1291 320 1288 0
1291 1288 1292 0
326 1291 1292 0
1294 1292 327 0
1293 326 1292 0
1293 1292 1294 0
80 1293 1294 0
2820 1293 80 0
2821 326 1293 0
2821 1293 2820 0
2822 1290 326 0
2823 2807 1290 0
2823 1290 2822 0
2822 326 2821 0
1295 2820 80 0
2824 2820 1295 0
2825 2824 1295 0
1297 1156 2 0
1296 293 1156 0
1296 1156 1297 0
329 1296 1297 0
1299 1161 293 0
1298 74 1161 0
1298 1161 1299 0
328 1298 1299 0
1300 1296 329 0
1299 293 1296 0
1299 1296 1300 0
328 1299 1300 0
1302 1300 329 0
1301 328 1300 0
1301 1300 1302 0
82 1301 1302 0
1304 1175 74 0
1303 298 1175 0
1303 1175 1304 0
331 1303 1304 0
1306 1180 298 0
1305 22 1180 0
1305 1180 1306 0
330 1305 1306 0
1307 1303 331 0
1306 298 1303 0
1306 1303 1307 0
330 1306 1307 0
1309 1307 331 0
1308 330 1307 0
1308 1307 1309 0
81 1308 1309 0
1311 1301 82 0
1310 328 1301 0
1310 1301 1311 0
332 1310 1311 0
1312 1298 328 0
1304 74 1298 0
1304 1298 1312 0
331 1304 1312 0
1313 1310 332 0
1312 328 1310 0
1312 1310 1313 0
331 1312 1313 0
1314 1313 332 0
1309 331 1313 0
1309 1313 1314 0
81 1309 1314 0
1316 1311 82 0
1315 332 1311 0
1315 1311 1316 0
334 1315 1316 0
1318 1314 332 0
1317 81 1314 0
1317 1314 1318 0
333 1317 1318 0
1319 1315 334 0
1318 332 1315 0
1318 1315 1319 0
333 1318 1319 0
1321 1319 334 0
1320 333 1319 0
1320 1319 1321 0
24 1320 1321 0
1323 1230 22 0
1322 312 1230 0
1322 1230 1323 0
336 1322 1323 0
1325 1235 312 0
1324 79 1235 0
1324 1235 1325 0
335 1324 1325 0
1326 1322 336 0
1325 312 1322 0
1325 1322 1326 0
335 1325 1326 0
1328 1326 336 0
1327 335 1326 0
1327 1326 1328 0
84 1327 1328 0
1330 1249 79 0
1329 317 1249 0
1329 1249 1330 0
338 1329 1330 0
1332 1254 317 0
1331 7 1254 0
1331 1254 1332 0
337 1331 1332 0
1333 1329 338 0
1332 317 1329 0
1332 1329 1333 0
337 1332 1333 0
1335 1333 338 0
1334 337 1333 0
1334 1333 1335 0
83 1334 1335 0
1337 1327 84 0
1336 335 1327 0
1336 1327 1337 0
339 1336 1337 0
1338 1324 335 0
1330 79 1324 0
1330 1324 1338 0
338 1330 1338 0
1339 1336 339 0
1338 335 1336 0
1338 1336 1339 0
338 1338 1339 0
1340 1339 339 0
1335 338 1339 0
1335 1339 1340 0
83 1335 1340 0
1342 1337 84 0
1341 339 1337 0
1341 1337 1342 0
341 1341 1342 0
1344 1340 339 0
1343 83 1340 0
1343 1340 1344 0
340 1343 1344 0
1345 1341 341 0
1344 339 1341 0
1344 1341 1345 0
340 1344 1345 0
1347 1345 341 0
1346 340 1345 0
1346 1345 1347 0
23 1346 1347 0
1349 1320 24 0
1348 333 1320 0
1348 1320 1349 0
343 1348 1349 0
1351 1317 333 0
1350 81 1317 0
1350 1317 1351 0
342 1350 1351 0
1352 1348 343 0
1351 333 1348 0
1351 1348 1352 0
342 1351 1352 0
1354 1352 343 0
1353 342 1352 0
1353 1352 1354 0
85 1353 1354 0
1356 1308 81 0
1355 330 1308 0
1355 1308 1356 0
344 1355 1356 0
1357 1305 330 0
1323 22 1305 0
1323 1305 1357 0
336 1323 1357 0
1358 1355 344 0
1357 330 1355 0
1357 1355 1358 0
336 1357 1358 0
1359 1358 344 0
1328 336 1358 0
1328 1358 1359 0
84 1328 1359 0
1361 1353 85 0
1360 342 1353 0
1360 1353 1361 0
345 1360 1361 0
1362 1350 342 0
1356 81 1350 0
1356 1350 1362 0
344 1356 1362 0
1363 1360 345 0
1362 342 1360 0
1362 1360 1363 0
344 1362 1363 0
1364 1363 345 0
1359 344 1363 0
1359 1363 1364 0
84 1359 1364 0
1366 1361 85 0
1365 345 1361 0
1365 1361 1366 0
346 1365 1366 0
1367 1364 345 0
1342 84 1364 0
1342 1364 1367 0
341 1342 1367 0
1368 1365 346 0
1367 345 1365 0
1367 1365 1368 0
341 1367 1368 0
1369 1368 346 0
1347 341 1368 0
1347 1368 1369 0
23 1347 1369 0
1371 1349 24 0
1370 343 1349 0
1370 1349 1371 0
348 1370 1371 0
1373 1354 343 0
1372 85 1354 0
1372 1354 1373 0
347 1372 1373 0
1374 1370 348 0
1373 343 1370 0
1373 1370 1374 0
347 1373 1374 0
1376 1374 348 0
1375 347 1374 0
1375 1374 1376 0
87 1375 1376 0
1378 1366 85 0
1377 346 1366 0
1377 1366 1378 0
350 1377 1378 0
1380 1369 346 0
1379 23 1369 0
1379 1369 1380 0
349 1379 1380 0
1381 1377 350 0
1380 346 1377 0
1380 1377 1381 0
349 1380 1381 0
1383 1381 350 0
1382 349 1381 0
1382 1381 1383 0
86 1382 1383 0
1385 1375 87 0
1384 347 1375 0
1384 1375 1385 0
351 1384 1385 0
1386 1372 347 0
1378 85 1372 0
1378 1372 1386 0
350 1378 1386 0
1387 1384 351 0
1386 347 1384 0
1386 1384 1387 0
350 1386 1387 0
1388 1387 351 0
1383 350 1387 0
1383 1387 1388 0
86 1383 1388 0
1390 1385 87 0
1389 351 1385 0
1389 1385 1390 0
353 1389 1390 0
1392 1388 351 0
1391 86 1388 0
1391 1388 1392 0
352 1391 1392 0
1393 1389 353 0
1392 351 1389 0
1392 1389 1393 0
352 1392 1393 0
1395 1393 353 0
1394 352 1393 0
1394 1393 1395 0
9 1394 1395 0
1397 1289 7 0
1396 327 1289 0
1396 1289 1397 0
355 1396 1397 0
1399 1294 327 0
1398 80 1294 0
1398 1294 1399 0
354 1398 1399 0
1400 1396 355 0
1399 327 1396 0
1399 1396 1400 0
354 1399 1400 0
1402 1400 355 0
1401 354 1400 0
1401 1400 1402 0
89 1401 1402 0
1404 1295 80 0
1403 2825 1295 0
1403 1295 1404 0
356 1403 1404 0
1405 1403 356 0
2826 2825 1403 0
2826 1403 1405 0
2827 2826 1405 0
1407 1405 356 0
1406 2827 1405 0
1406 1405 1407 0
88 1406 1407 0
1409 1401 89 0
1408 354 1401 0
1408 1401 1409 0
357 1408 1409 0
1410 1398 354 0
1404 80 1398 0
1404 1398 1410 0
356 1404 1410 0
1411 1408 357 0
1410 354 1408 0
1410 1408 1411 0
356 1410 1411 0
1412 1411 357 0
1407 356 1411 0
1407 1411 1412 0
88 1407 1412 0
1414 1409 89 0
1413 357 1409 0
1413 1409 1414 0
359 1413 1414 0
1416 1412 357 0
1415 88 1412 0
1415 1412 1416 0
358 1415 1416 0
1417 1413 359 0
1416 357 1413 0
1416 1413 1417 0
358 1416 1417 0
1419 1417 359 0
1418 358 1417 0
1418 1417 1419 0
25 1418 1419 0
1421 1418 25 0
1420 358 1418 0
1420 1418 1421 0
361 1420 1421 0
1423 1415 358 0
1422 88 1415 0
1422 1415 1423 0
360 1422 1423 0
1424 1420 361 0
1423 358 1420 0
1423 1420 1424 0
360 1423 1424 0
1426 1424 361 0
1425 360 1424 0
1425 1424 1426 0
90 1425 1426 0
1427 1406 88 0
2828 2827 1406 0
2828 1406 1427 0
2829 2828 1427 0
1429 1425 90 0
1428 360 1425 0
1428 1425 1429 0
362 1428 1429 0
1430 1422 360 0
1427 88 1422 0
1427 1422 1430 0
2829 1427 1430 0
1431 1428 362 0
1430 360 1428 0
1430 1428 1431 0
2829 1430 1431 0
2830 1431 362 0
2831 2829 1431 0
2831 1431 2830 0
1433 1429 90 0
1432 362 1429 0
1432 1429 1433 0
363 1432 1433 0
2832 2830 362 0
2833 1432 363 0
2832 362 1432 0
2832 1432 2833 0
2834 2833 363 0
1435 1421 25 0
1434 361 1421 0
1434 1421 1435 0
365 1434 1435 0
1437 1426 361 0
1436 90 1426 0
1436 1426 1437 0
364 1436 1437 0
1438 1434 365 0
1437 361 1434 0
1437 1434 1438 0
364 1437 1438 0
1440 1438 365 0
1439 364 1438 0
1439 1438 1440 0
92 1439 1440 0
1442 1433 90 0
1441 363 1433 0
1441 1433 1442 0
367 1441 1442 0
1443 2834 363 0
2835 2834 1443 0
366 2835 1443 0
1444 1441 367 0
1443 363 1441 0
1443 1441 1444 0
366 1443 1444 0
1446 1444 367 0
1445 366 1444 0
1445 1444 1446 0
91 1445 1446 0
1448 1439 92 0
1447 364 1439 0
1447 1439 1448 0
368 1447 1448 0
1449 1436 364 0
1442 90 1436 0
1442 1436 1449 0
367 1442 1449 0
1450 1447 368 0
1449 364 1447 0
1449 1447 1450 0
367 1449 1450 0
1451 1450 368 0
1446 367 1450 0
1446 1450 1451 0
91 1446 1451 0
1453 1448 92 0
1452 368 1448 0
1452 1448 1453 0
370 1452 1453 0
1455 1451 368 0
1454 91 1451 0
1454 1451 1455 0
369 1454 1455 0
1456 1452 370 0
1455 368 1452 0
1455 1452 1456 0
369 1455 1456 0
1458 1456 370 0
1457 369 1456 0
1457 1456 1458 0
8 1457 1458 0
1460 1394 9 0
1459 352 1394 0
1459 1394 1460 0
372 1459 1460 0
1462 1391 352 0
1461 86 1391 0
1461 1391 1462 0
371 1461 1462 0
1463 1459 372 0
1462 352 1459 0
1462 1459 1463 0
371 1462 1463 0
1465 1463 372 0
1464 371 1463 0
1464 1463 1465 0
94 1464 1465 0
1467 1382 86 0
1466 349 1382 0
1466 1382 1467 0
374 1466 1467 0
1469 1379 349 0
1468 23 1379 0
1468 1379 1469 0
373 1468 1469 0
1470 1466 374 0
1469 349 1466 0
1469 1466 1470 0
373 1469 1470 0
1472 1470 374 0
1471 373 1470 0
1471 1470 1472 0
93 1471 1472 0
1474 1464 94 0
1473 371 1464 0
1473 1464 1474 0
375 1473 1474 0
1475 1461 371 0
1467 86 1461 0
1467 1461 1475 0
374 1467 1475 0
1476 1473 375 0
1475 371 1473 0
1475 1473 1476 0
374 1475 1476 0
1477 1476 375 0
1472 374 1476 0
1472 1476 1477 0
93 1472 1477 0
1479 1474 94 0
1478 375 1474 0
1478 1474 1479 0
377 1478 1479 0
1481 1477 375 0
1480 93 1477 0
1480 1477 1481 0
376 1480 1481 0
1482 1478 377 0
1481 375 1478 0
1481 1478 1482 0
376 1481 1482 0
1484 1482 377 0
1483 376 1482 0
1483 1482 1484 0
26 1483 1484 0
1486 1346 23 0
1485 340 1346 0
1485 1346 1486 0
379 1485 1486 0
1488 1343 340 0
1487 83 1343 0
1487 1343 1488 0
378 1487 1488 0
1489 1485 379 0
1488 340 1485 0
1488 1485 1489 0
378 1488 1489 0
1491 1489 379 0
1490 378 1489 0
1490 1489 1491 0
95 1490 1491 0
1493 1334 83 0
1492 337 1334 0
1492 1334 1493 0
380 1492 1493 0
1494 1331 337 0
1397 7 1331 0
1397 1331 1494 0
355 1397 1494 0
1495 1492 380 0
1494 337 1492 0
1494 1492 1495 0
355 1494 1495 0
1496 1495 380 0
1402 355 1495 0
1402 1495 1496 0
89 1402 1496 0
1498 1490 95 0
1497 378 1490 0
1497 1490 1498 0
381 1497 1498 0
1499 1487 378 0
1493 83 1487 0
1493 1487 1499 0
380 1493 1499 0
1500 1497 381 0
1499 378 1497 0
1499 1497 1500 0
380 1499 1500 0
1501 1500 381 0
1496 380 1500 0
1496 1500 1501 0
89 1496 1501 0
1503 1498 95 0
1502 381 1498 0
1502 1498 1503 0
382 1502 1503 0
1504 1501 381 0
1414 89 1501 0
1414 1501 1504 0
359 1414 1504 0
1505 1502 382 0
1504 381 1502 0
1504 1502 1505 0
359 1504 1505 0
1506 1505 382 0
1419 359 1505 0
1419 1505 1506 0
25 1419 1506 0
1508 1483 26 0
1507 376 1483 0
1507 1483 1508 0
384 1507 1508 0
1510 1480 376 0
1509 93 1480 0
1509 1480 1510 0
383 1509 1510 0
1511 1507 384 0
1510 376 1507 0
1510 1507 1511 0
383 1510 1511 0
1513 1511 384 0
1512 383 1511 0
1512 1511 1513 0
96 1512 1513 0
1515 1471 93 0
1514 373 1471 0
1514 1471 1515 0
385 1514 1515 0
1516 1468 373 0
1486 23 1468 0
1486 1468 1516 0
379 1486 1516 0
1517 1514 385 0
1516 373 1514 0
1516 1514 1517 0
379 1516 1517 0
1518 1517 385 0
1491 379 1517 0
1491 1517 1518 0
95 1491 1518 0
1520 1512 96 0
1519 383 1512 0
1519 1512 1520 0
386 1519 1520 0
1521 1509 383 0
1515 93 1509 0
1515 1509 1521 0
385 1515 1521 0
1522 1519 386 0
1521 383 1519 0
1521 1519 1522 0
385 1521 1522 0
1523 1522 386 0
1518 385 1522 0
1518 1522 1523 0
95 1518 1523 0
1525 1520 96 0
1524 386 1520 0
1524 1520 1525 0
387 1524 1525 0
1526 1523 386 0
1503 95 1523 0
1503 1523 1526 0
382 1503 1526 0
1527 1524 387 0
1526 386 1524 0
1526 1524 1527 0
382 1526 1527 0
1528 1527 387 0
1506 382 1527 0
1506 1527 1528 0
25 1506 1528 0
1530 1508 26 0
1529 384 1508 0
1529 1508 1530 0
389 1529 1530 0
1532 1513 384 0
1531 96 1513 0
1531 1513 1532 0
388 1531 1532 0
1533 1529 389 0
1532 384 1529 0
1532 1529 1533 0
388 1532 1533 0
1535 1533 389 0
1534 388 1533 0
1534 1533 1535 0
97 1534 1535 0
1537 1525 96 0
1536 387 1525 0
1536 1525 1537 0
390 1536 1537 0
1538 1528 387 0
1435 25 1528 0
1435 1528 1538 0
365 1435 1538 0
1539 1536 390 0
1538 387 1536 0
1538 1536 1539 0
365 1538 1539 0
1540 1539 390 0
1440 365 1539 0
1440 1539 1540 0
92 1440 1540 0
1542 1534 97 0
1541 388 1534 0
1541 1534 1542 0
391 1541 1542 0
1543 1531 388 0
1537 96 1531 0
1537 1531 1543 0
390 1537 1543 0
1544 1541 391 0
1543 388 1541 0
1543 1541 1544 0
390 1543 1544 0
1545 1544 391 0
1540 390 1544 0
1540 1544 1545 0
92 1540 1545 0
1547 1542 97 0
1546 391 1542 0
1546 1542 1547 0
392 1546 1547 0
1548 1545 391 0
1453 92 1545 0
1453 1545 1548 0
370 1453 1548 0
1549 1546 392 0
1548 391 1546 0
1548 1546 1549 0
370 1548 1549 0
1550 1549 392 0
1458 370 1549 0
1458 1549 1550 0
8 1458 1550 0
1552 1460 9 0
1551 372 1460 0
1551 1460 1552 0
394 1551 1552 0
1554 1465 372 0
1553 94 1465 0
1553 1465 1554 0
393 1553 1554 0
1555 1551 394 0
1554 372 1551 0
1554 1551 1555 0
393 1554 1555 0
1557 1555 394 0
1556 393 1555 0
1556 1555 1557 0
99 1556 1557 0
1559 1479 94 0
1558 377 1479 0
1558 1479 1559 0
396 1558 1559 0
1561 1484 377 0
1560 26 1484 0
1560 1484 1561 0
395 1560 1561 0
1562 1558 396 0
1561 377 1558 0
1561 1558 1562 0
395 1561 1562 0
1564 1562 396 0
1563 395 1562 0
1563 1562 1564 0
98 1563 1564 0
1566 1556 99 0
1565 393 1556 0
1565 1556 1566 0
397 1565 1566 0
1567 1553 393 0
1559 94 1553 0
1559 1553 1567 0
396 1559 1567 0
1568 1565 397 0
1567 393 1565 0
1567 1565 1568 0
396 1567 1568 0
1569 1568 397 0
1564 396 1568 0
1564 1568 1569 0
98 1564 1569 0
1571 1566 99 0
1570 397 1566 0
1570 1566 1571 0
399 1570 1571 0
1573 1569 397 0
1572 98 1569 0
1572 1569 1573 0
398 1572 1573 0
1574 1570 399 0
1573 397 1570 0
1573 1570 1574 0
398 1573 1574 0
1576 1574 399 0
1575 398 1574 0
1575 1574 1576 0
28 1575 1576 0
1578 1530 26 0
1577 389 1530 0
1577 1530 1578 0
401 1577 1578 0
1580 1535 389 0
1579 97 1535 0
1579 1535 1580 0
400 1579 1580 0
1581 1577 401 0
1580 389 1577 0
1580 1577 1581 0
400 1580 1581 0
1583 1581 401 0
1582 400 1581 0
1582 1581 1583 0
101 1582 1583 0
1585 1547 97 0
1584 392 1547 0
1584 1547 1585 0
403 1584 1585 0
1587 1550 392 0
1586 8 1550 0
1586 1550 1587 0
402 1586 1587 0
1588 1584 403 0
1587 392 1584 0
1587 1584 1588 0
402 1587 1588 0
1590 1588 403 0
1589 402 1588 0
1589 1588 1590 0
100 1589 1590 0
1592 1582 101 0
1591 400 1582 0
1591 1582 1592 0
404 1591 1592 0
1593 1579 400 0
1585 97 1579 0
1585 1579 1593 0
403 1585 1593 0
1594 1591 404 0
1593 400 1591 0
1593 1591 1594 0
403 1593 1594 0
1595 1594 404 0
1590 403 1594 0
1590 1594 1595 0
100 1590 1595 0
1597 1592 101 0
1596 404 1592 0
1596 1592 1597 0
406 1596 1597 0
1599 1595 404 0
1598 100 1595 0
1598 1595 1599 0
405 1598 1599 0
1600 1596 406 0
1599 404 1596 0
1599 1596 1600 0
405 1599 1600 0
1602 1600 406 0
1601 405 1600 0
1601 1600 1602 0
27 1601 1602 0
1604 1575 28 0
1603 398 1575 0
1603 1575 1604 0
408 1603 1604 0
1606 1572 398 0
1605 98 1572 0
1605 1572 1606 0
407 1605 1606 0
1607 1603 408 0
1606 398 1603 0
1606 1603 1607 0
407 1606 1607 0
1609 1607 408 0
1608 407 1607 0
1608 1607 1609 0
102 1608 1609 0
1611 1563 98 0
1610 395 1563 0
1610 1563 1611 0
409 1610 1611 0
1612 1560 395 0
1578 26 1560 0
1578 1560 1612 0
401 1578 1612 0
1613 1610 409 0
1612 395 1610 0
1612 1610 1613 0
401 1612 1613 0
1614 1613 409 0
1583 401 1613 0
1583 1613 1614 0
101 1583 1614 0
1616 1608 102 0
1615 407 1608 0
1615 1608 1616 0
410 1615 1616 0
1617 1605 407 0
1611 98 1605 0
1611 1605 1617 0
409 1611 1617 0
1618 1615 410 0
1617 407 1615 0
1617 1615 1618 0
409 1617 1618 0
1619 1618 410 0
1614 409 1618 0
1614 1618 1619 0
101 1614 1619 0
1621 1616 102 0
1620 410 1616 0
1620 1616 1621 0
411 1620 1621 0
1622 1619 410 0
1597 101 1619 0
1597 1619 1622 0
406 1597 1622 0
1623 1620 411 0
1622 410 1620 0
1622 1620 1623 0
406 1622 1623 0
1624 1623 411 0
1602 406 1623 0
1602 1623 1624 0
27 1602 1624 0
1626 1604 28 0
1625 408 1604 0
1625 1604 1626 0
413 1625 1626 0
1628 1609 408 0
1627 102 1609 0
1627 1609 1628 0
412 1627 1628 0
1629 1625 413 0
1628 408 1625 0
1628 1625 1629 0
412 1628 1629 0
1631 1629 413 0
1630 412 1629 0
1630 1629 1631 0
104 1630 1631 0
1633 1621 102 0
1632 411 1621 0
1632 1621 1633 0
415 1632 1633 0
1635 1624 411 0
1634 27 1624 0
1634 1624 1635 0
414 1634 1635 0
1636 1632 415 0
1635 411 1632 0
1635 1632 1636 0
414 1635 1636 0
1638 1636 415 0
1637 414 1636 0
1637 1636 1638 0
103 1637 1638 0
1640 1630 104 0
1639 412 1630 0
1639 1630 1640 0
416 1639 1640 0
1641 1627 412 0
1633 102 1627 0
1633 1627 1641 0
415 1633 1641 0
1642 1639 416 0
1641 412 1639 0
1641 1639 1642 0
415 1641 1642 0
1643 1642 416 0
1638 415 1642 0
1638 1642 1643 0
103 1638 1643 0
1645 1640 104 0
1644 416 1640 0
1644 1640 1645 0
418 1644 1645 0
1647 1643 416 0
1646 103 1643 0
1646 1643 1647 0
417 1646 1647 0
1648 1644 418 0
1647 416 1644 0
1647 1644 1648 0
417 1647 1648 0
1650 1648 418 0
1649 417 1648 0
1649 1648 1650 0
1 1649 1650 0
1652 1649 1 0
1651 417 1649 0
1651 1649 1652 0
420 1651 1652 0
1654 1646 417 0
1653 103 1646 0
1653 1646 1654 0
419 1653 1654 0
1655 1651 420 0
1654 417 1651 0
1654 1651 1655 0
419 1654 1655 0
1657 1655 420 0
1656 419 1655 0
1656 1655 1657 0
106 1656 1657 0
1659 1637 103 0
1658 414 1637 0
1658 1637 1659 0
422 1658 1659 0
1661 1634 414 0
1660 27 1634 0
1660 1634 1661 0
421 1660 1661 0
1662 1658 422 0
1661 414 1658 0
1661 1658 1662 0
421 1661 1662 0
1664 1662 422 0
1663 421 1662 0
1663 1662 1664 0
105 1663 1664 0
1666 1656 106 0
1665 419 1656 0
1665 1656 1666 0
423 1665 1666 0
1667 1653 419 0
1659 103 1653 0
1659 1653 1667 0
422 1659 1667 0
1668 1665 423 0
1667 419 1665 0
1667 1665 1668 0
422 1667 1668 0
1669 1668 423 0
1664 422 1668 0
1664 1668 1669 0
105 1664 1669 0
1671 1666 106 0
1670 423 1666 0
1670 1666 1671 0
425 1670 1671 0
1673 1669 423 0
1672 105 1669 0
1672 1669 1673 0
424 1672 1673 0
1674 1670 425 0
1673 423 1670 0
1673 1670 1674 0
424 1673 1674 0
1676 1674 425 0
1675 424 1674 0
1675 1674 1676 0
30 1675 1676 0
1678 1601 27 0
1677 405 1601 0
1677 1601 1678 0
427 1677 1678 0
1680 1598 405 0
1679 100 1598 0
1679 1598 1680 0
426 1679 1680 0
1681 1677 427 0
1680 405 1677 0
1680 1677 1681 0
426 1680 1681 0
1683 1681 427 0
1682 426 1681 0
1682 1681 1683 0
108 1682 1683 0
1685 1589 100 0
1684 402 1589 0
1684 1589 1685 0
429 1684 1685 0
1687 1586 402 0
1686 8 1586 0
1686 1586 1687 0
428 1686 1687 0
1688 1684 429 0
1687 402 1684 0
1687 1684 1688 0
428 1687 1688 0
1690 1688 429 0
1689 428 1688 0
1689 1688 1690 0
107 1689 1690 0
1692 1682 108 0
1691 426 1682 0
1691 1682 1692 0
430 1691 1692 0
1693 1679 426 0
1685 100 1679 0
1685 1679 1693 0
429 1685 1693 0
1694 1691 430 0
1693 426 1691 0
1693 1691 1694 0
429 1693 1694 0
1695 1694 430 0
1690 429 1694 0
1690 1694 1695 0
107 1690 1695 0
1697 1692 108 0
1696 430 1692 0
1696 1692 1697 0
432 1696 1697 0
1699 1695 430 0
1698 107 1695 0
1698 1695 1699 0
431 1698 1699 0
1700 1696 432 0
1699 430 1696 0
1699 1696 1700 0
431 1699 1700 0
1702 1700 432 0
1701 431 1700 0
1701 1700 1702 0
29 1701 1702 0
1704 1675 30 0
1703 424 1675 0
1703 1675 1704 0
434 1703 1704 0
1706 1672 424 0
1705 105 1672 0
1705 1672 1706 0
433 1705 1706 0
1707 1703 434 0
1706 424 1703 0
1706 1703 1707 0
433 1706 1707 0
1709 1707 434 0
1708 433 1707 0
1708 1707 1709 0
109 1708 1709 0
1711 1663 105 0
1710 421 1663 0
1710 1663 1711 0
435 1710 1711 0
1712 1660 421 0
1678 27 1660 0
1678 1660 1712 0
427 1678 1712 0
1713 1710 435 0
1712 421 1710 0
1712 1710 1713 0
427 1712 1713 0
1714 1713 435 0
1683 427 1713 0
1683 1713 1714 0
108 1683 1714 0
1716 1708 109 0
1715 433 1708 0
1715 1708 1716 0
436 1715 1716 0
1717 1705 433 0
1711 105 1705 0
1711 1705 1717 0
435 1711 1717 0
1718 1715 436 0
1717 433 1715 0
1717 1715 1718 0
435 1717 1718 0
1719 1718 436 0
1714 435 1718 0
1714 1718 1719 0
108 1714 1719 0
1721 1716 109 0
1720 436 1716 0
1720 1716 1721 0
437 1720 1721 0
1722 1719 436 0
1697 108 1719 0
1697 1719 1722 0
432 1697 1722 0
1723 1720 437 0
1722 436 1720 0
1722 1720 1723 0
432 1722 1723 0
1724 1723 437 0
1702 432 1723 0
1702 1723 1724 0
29 1702 1724 0
1726 1704 30 0
1725 434 1704 0
1725 1704 1726 0
439 1725 1726 0
1728 1709 434 0
1727 109 1709 0
1727 1709 1728 0
438 1727 1728 0
1729 1725 439 0
1728 434 1725 0
1728 1725 1729 0
438 1728 1729 0
1731 1729 439 0
1730 438 1729 0
1730 1729 1731 0
111 1730 1731 0
1733 1721 109 0
1732 437 1721 0
1732 1721 1733 0
441 1732 1733 0
1735 1724 437 0
1734 29 1724 0
1734 1724 1735 0
440 1734 1735 0
1736 1732 441 0
1735 437 1732 0
1735 1732 1736 0
440 1735 1736 0
1738 1736 441 0
1737 440 1736 0
1737 1736 1738 0
110 1737 1738 0
1740 1730 111 0
1739 438 1730 0
1739 1730 1740 0
442 1739 1740 0
1741 1727 438 0
1733 109 1727 0
1733 1727 1741 0
441 1733 1741 0
1742 1739 442 0
1741 438 1739 0
1741 1739 1742 0
441 1741 1742 0
1743 1742 442 0
1738 441 1742 0
1738 1742 1743 0
110 1738 1743 0
1745 1740 111 0
1744 442 1740 0
1744 1740 1745 0
444 1744 1745 0
1747 1743 442 0
1746 110 1743 0
1746 1743 1747 0
443 1746 1747 0
1748 1744 444 0
1747 442 1744 0
1747 1744 1748 0
443 1747 1748 0
1750 1748 444 0
1749 443 1748 0
1749 1748 1750 0
10 1749 1750 0
1752 1457 8 0
1751 369 1457 0
1751 1457 1752 0
446 1751 1752 0
1754 1454 369 0
1753 91 1454 0
1753 1454 1754 0
445 1753 1754 0
1755 1751 446 0
1754 369 1751 0
1754 1751 1755 0
445 1754 1755 0
1757 1755 446 0
1756 445 1755 0
1756 1755 1757 0
112 1756 1757 0
1759 1445 91 0
1758 366 1445 0
1758 1445 1759 0
447 1758 1759 0
2836 2835 366 0
2837 1758 447 0
2836 366 1758 0
2836 1758 2837 0
2838 2837 447 0
1761 1756 112 0
1760 445 1756 0
1760 1756 1761 0
2839 1760 1761 0
1762 1753 445 0
1759 91 1753 0
1759 1753 1762 0
447 1759 1762 0
1763 1760 2839 0
1762 445 1760 0
1762 1760 1763 0
447 1762 1763 0
2840 1763 2839 0
2838 447 1763 0
2838 1763 2840 0
1764 1761 112 0
2841 2839 1761 0
2841 1761 1764 0
2842 2841 1764 0
1766 1749 10 0
1765 443 1749 0
1765 1749 1766 0
449 1765 1766 0
1768 1746 443 0
1767 110 1746 0
1767 1746 1768 0
448 1767 1768 0
1769 1765 449 0
1768 443 1765 0
1768 1765 1769 0
448 1768 1769 0
1771 1769 449 0
1770 448 1769 0
1770 1769 1771 0
2843 1770 1771 0
1773 1737 110 0
1772 440 1737 0
1772 1737 1773 0
451 1772 1773 0
1775 1734 440 0
1774 29 1734 0
1774 1734 1775 0
450 1774 1775 0
1776 1772 451 0
1775 440 1772 0
1775 1772 1776 0
450 1775 1776 0
1778 1776 451 0
1777 450 1776 0
1777 1776 1778 0
113 1777 1778 0
2844 1770 2843 0
1779 448 1770 0
1779 1770 2844 0
452 1779 2844 0
1780 1767 448 0
1773 110 1767 0
1773 1767 1780 0
451 1773 1780 0
1781 1779 452 0
1780 448 1779 0
1780 1779 1781 0
451 1780 1781 0
1782 1781 452 0
1778 451 1781 0
1778 1781 1782 0
113 1778 1782 0
2845 452 2844 0
2846 1782 452 0
2847 113 1782 0
2847 1782 2846 0
2846 452 2845 0
1784 1701 29 0
1783 431 1701 0
1783 1701 1784 0
454 1783 1784 0
1786 1698 431 0
1785 107 1698 0
1785 1698 1786 0
453 1785 1786 0
1787 1783 454 0
1786 431 1783 0
1786 1783 1787 0
453 1786 1787 0
1789 1787 454 0
1788 453 1787 0
1788 1787 1789 0
114 1788 1789 0
1791 1689 107 0
1790 428 1689 0
1790 1689 1791 0
455 1790 1791 0
1792 1686 428 0
1752 8 1686 0
1752 1686 1792 0
446 1752 1792 0
1793 1790 455 0
1792 428 1790 0
1792 1790 1793 0
446 1792 1793 0
1794 1793 455 0
1757 446 1793 0
1757 1793 1794 0
112 1757 1794 0
1796 1788 114 0
1795 453 1788 0
1795 1788 1796 0
456 1795 1796 0
1797 1785 453 0
1791 107 1785 0
1791 1785 1797 0
455 1791 1797 0
1798 1795 456 0
1797 453 1795 0
1797 1795 1798 0
455 1797 1798 0
1799 1798 456 0
1794 455 1798 0
1794 1798 1799 0
112 1794 1799 0
1801 1796 114 0
1800 456 1796 0
1800 1796 1801 0
2848 1800 1801 0
1802 1799 456 0
1764 112 1799 0
1764 1799 1802 0
2842 1764 1802 0
1803 1800 2848 0
1802 456 1800 0
1802 1800 1803 0
2842 1802 1803 0
2849 1803 2848 0
2850 2842 1803 0
2850 1803 2849 0
1804 113 2847 0
1804 2847 2851 0
2852 1804 2851 0
1806 1777 113 0
1805 450 1777 0
1805 1777 1806 0
457 1805 1806 0
1807 1774 450 0
1784 29 1774 0
1784 1774 1807 0
454 1784 1807 0
1808 1805 457 0
1807 450 1805 0
1807 1805 1808 0
454 1807 1808 0
1809 1808 457 0
1789 454 1808 0
1789 1808 1809 0
114 1789 1809 0
458 2853 2854 0
1810 1804 2852 0
1806 113 1804 0
1806 1804 1810 0
457 1806 1810 0
1811 2853 458 0
1810 2852 2853 0
1810 2853 1811 0
457 1810 1811 0
1812 1811 458 0
1809 457 1811 0
1809 1811 1812 0
114 1809 1812 0
2855 458 2854 0
2856 1812 458 0
1801 114 1812 0
1801 1812 2856 0
2848 1801 2856 0
2856 458 2855 0
1814 1766 10 0
1813 449 1766 0
1813 1766 1814 0
2857 1813 1814 0
2858 1771 449 0
2859 2843 1771 0
2859 1771 2858 0
2860 1813 2857 0
2858 449 1813 0
2858 1813 2860 0
1816 1652 1 0
1815 420 1652 0
1815 1652 1816 0
460 1815 1816 0
1818 1657 420 0
1817 106 1657 0
1817 1657 1818 0
459 1817 1818 0
1819 1815 460 0
1818 420 1815 0
1818 1815 1819 0
459 1818 1819 0
1821 1819 460 0
1820 459 1819 0
1820 1819 1821 0
116 1820 1821 0
1823 1671 106 0
1822 425 1671 0
1822 1671 1823 0
462 1822 1823 0
1825 1676 425 0
1824 30 1676 0
1824 1676 1825 0
461 1824 1825 0
1826 1822 462 0
1825 425 1822 0
1825 1822 1826 0
461 1825 1826 0
1828 1826 462 0
1827 461 1826 0
1827 1826 1828 0
115 1827 1828 0
1830 1820 116 0
1829 459 1820 0
1829 1820 1830 0
463 1829 1830 0
1831 1817 459 0
1823 106 1817 0
1823 1817 1831 0
462 1823 1831 0
1832 1829 463 0
1831 459 1829 0
1831 1829 1832 0
462 1831 1832 0
1833 1832 463 0
1828 462 1832 0
1828 1832 1833 0
115 1828 1833 0
2861 1830 116 0
2862 463 1830 0
2862 1830 2861 0
1835 1833 463 0
1834 115 1833 0
1834 1833 1835 0
2863 1834 1835 0
1835 463 2862 0
1835 2862 2864 0
2863 1835 2864 0
1837 1726 30 0
1836 439 1726 0
1836 1726 1837 0
465 1836 1837 0
1839 1731 439 0
1838 111 1731 0
1838 1731 1839 0
464 1838 1839 0
1840 1836 465 0
1839 439 1836 0
1839 1836 1840 0
464 1839 1840 0
1842 1840 465 0
1841 464 1840 0
1841 1840 1842 0
118 1841 1842 0
1844 1745 111 0
1843 444 1745 0
1843 1745 1844 0
467 1843 1844 0
1846 1750 444 0
1845 10 1750 0
1845 1750 1846 0
466 1845 1846 0
1847 1843 467 0
1846 444 1843 0
1846 1843 1847 0
466 1846 1847 0
1849 1847 467 0
1848 466 1847 0
1848 1847 1849 0
117 1848 1849 0
1851 1841 118 0
1850 464 1841 0
1850 1841 1851 0
468 1850 1851 0
1852 1838 464 0
1844 111 1838 0
1844 1838 1852 0
467 1844 1852 0
1853 1850 468 0
1852 464 1850 0
1852 1850 1853 0
467 1852 1853 0
1854 1853 468 0
1849 467 1853 0
1849 1853 1854 0
117 1849 1854 0
1856 1851 118 0
1855 468 1851 0
1855 1851 1856 0
2865 1855 1856 0
1858 1854 468 0
1857 117 1854 0
1857 1854 1858 0
469 1857 1858 0
1859 1855 2865 0
1858 468 1855 0
1858 1855 1859 0
469 1858 1859 0
2866 1859 2865 0
2867 469 1859 0
2867 1859 2866 0
2868 1834 2863 0
1860 115 1834 0
1860 1834 2868 0
2869 1860 2868 0
1862 1827 115 0
1861 461 1827 0
1861 1827 1862 0
470 1861 1862 0
1863 1824 461 0
1837 30 1824 0
1837 1824 1863 0
465 1837 1863 0
1864 1861 470 0
1863 461 1861 0
1863 1861 1864 0
465 1863 1864 0
1865 1864 470 0
1842 465 1864 0
1842 1864 1865 0
118 1842 1865 0
1866 1860 2869 0
1862 115 1860 0
1862 1860 1866 0
470 1862 1866 0
1867 2870 2871 0
1866 2869 2870 0
1866 2870 1867 0
470 1866 1867 0
1868 1867 2871 0
1865 470 1867 0
1865 1867 1868 0
118 1865 1868 0
1869 1868 2871 0
1856 118 1868 0
1856 1868 1869 0
2865 1856 1869 0
1869 2871 2872 0
1869 2872 2873 0
2865 1869 2873 0
1871 1814 10 0
1870 2857 1814 0
1870 1814 1871 0
471 1870 1871 0
1872 1870 471 0
2874 2857 1870 0
2874 1870 1872 0
2875 2874 1872 0
2876 1872 471 0
2877 2875 1872 0
2877 1872 2876 0
2878 469 2867 0
1874 1857 469 0
1873 117 1857 0
1873 1857 1874 0
2879 1873 1874 0
1874 469 2878 0
1874 2878 2880 0
2879 1874 2880 0
1876 1848 117 0
1875 466 1848 0
1875 1848 1876 0
2881 1875 1876 0
1877 1845 466 0
1871 10 1845 0
1871 1845 1877 0
471 1871 1877 0
1878 1875 2881 0
1877 466 1875 0
1877 1875 1878 0
471 1877 1878 0
2882 1878 2881 0
2876 471 1878 0
2876 1878 2882 0
2883 1873 2879 0
1876 117 1873 0
1876 1873 2883 0
2881 1876 2883 0
1880 836 0 0
1879 211 836 0
1879 836 1880 0
473 1879 1880 0
1882 841 211 0
1881 53 841 0
1881 841 1882 0
472 1881 1882 0
1883 1879 473 0
1882 211 1879 0
1882 1879 1883 0
472 1882 1883 0
1885 1883 473 0
1884 472 1883 0
1884 1883 1885 0
120 1884 1885 0
1887 855 53 0
1886 216 855 0
1886 855 1887 0
475 1886 1887 0
1889 860 216 0
1888 16 860 0
1888 860 1889 0
474 1888 1889 0
1890 1886 475 0
1889 216 1886 0
1889 1886 1890 0
474 1889 1890 0
1892 1890 475 0
1891 474 1890 0
1891 1890 1892 0
119 1891 1892 0
1894 1884 120 0
1893 472 1884 0
1893 1884 1894 0
476 1893 1894 0
1895 1881 472 0
1887 53 1881 0
1887 1881 1895 0
475 1887 1895 0
1896 1893 476 0
1895 472 1893 0
1895 1893 1896 0
475 1895 1896 0
1897 1896 476 0
1892 475 1896 0
1892 1896 1897 0
119 1892 1897 0
1899 1894 120 0
1898 476 1894 0
1898 1894 1899 0
478 1898 1899 0
1901 1897 476 0
1900 119 1897 0
1900 1897 1901 0
477 1900 1901 0
1902 1898 478 0
1901 476 1898 0
1901 1898 1902 0
477 1901 1902 0
1904 1902 478 0
1903 477 1902 0
1903 1902 1904 0
32 1903 1904 0
1906 910 16 0
1905 230 910 0
1905 910 1906 0
480 1905 1906 0
1908 915 230 0
1907 58 915 0
1907 915 1908 0
479 1907 1908 0
1909 1905 480 0
1908 230 1905 0
1908 1905 1909 0
479 1908 1909 0
1911 1909 480 0
1910 479 1909 0
1910 1909 1911 0
122 1910 1911 0
1913 929 58 0
1912 235 929 0
1912 929 1913 0
482 1912 1913 0
1915 934 235 0
1914 6 934 0
1914 934 1915 0
481 1914 1915 0
1916 1912 482 0
1915 235 1912 0
1915 1912 1916 0
481 1915 1916 0
1918 1916 482 0
1917 481 1916 0
1917 1916 1918 0
121 1917 1918 0
1920 1910 122 0
1919 479 1910 0
1919 1910 1920 0
483 1919 1920 0
1921 1907 479 0
1913 58 1907 0
1913 1907 1921 0
482 1913 1921 0
1922 1919 483 0
1921 479 1919 0
1921 1919 1922 0
482 1921 1922 0
1923 1922 483 0
1918 482 1922 0
1918 1922 1923 0
121 1918 1923 0
1925 1920 122 0
1924 483 1920 0
1924 1920 1925 0
485 1924 1925 0
1927 1923 483 0
1926 121 1923 0
1926 1923 1927 0
484 1926 1927 0
1928 1924 485 0
1927 483 1924 0
1927 1924 1928 0
484 1927 1928 0
1930 1928 485 0
1929 484 1928 0
1929 1928 1930 0
31 1929 1930 0
1932 1903 32 0
1931 477 1903 0
1931 1903 1932 0
487 1931 1932 0
1934 1900 477 0
1933 119 1900 0
1933 1900 1934 0
486 1933 1934 0
1935 1931 487 0
1934 477 1931 0
1934 1931 1935 0
486 1934 1935 0
1937 1935 487 0
1936 486 1935 0
1936 1935 1937 0
123 1936 1937 0
1939 1891 119 0
1938 474 1891 0
1938 1891 1939 0
488 1938 1939 0
1940 1888 474 0
1906 16 1888 0
1906 1888 1940 0
480 1906 1940 0
1941 1938 488 0
1940 474 1938 0
1940 1938 1941 0
480 1940 1941 0
1942 1941 488 0
1911 480 1941 0
1911 1941 1942 0
122 1911 1942 0
1944 1936 123 0
1943 486 1936 0
1943 1936 1944 0
489 1943 1944 0
1945 1933 486 0
1939 119 1933 0
1939 1933 1945 0
488 1939 1945 0
1946 1943 489 0
1945 486 1943 0
1945 1943 1946 0
488 1945 1946 0
1947 1946 489 0
1942 488 1946 0
1942 1946 1947 0
122 1942 1947 0
1949 1944 123 0
1948 489 1944 0
1948 1944 1949 0
490 1948 1949 0
1950 1947 489 0
1925 122 1947 0
1925 1947 1950 0
485 1925 1950 0
1951 1948 490 0
1950 489 1948 0
1950 1948 1951 0
485 1950 1951 0
1952 1951 490 0
1930 485 1951 0
1930 1951 1952 0
31 1930 1952 0
1954 1932 32 0
1953 487 1932 0
1953 1932 1954 0
492 1953 1954 0
1956 1937 487 0
1955 123 1937 0
1955 1937 1956 0
491 1955 1956 0
1957 1953 492 0
1956 487 1953 0
1956 1953 1957 0
491 1956 1957 0
1959 1957 492 0
1958 491 1957 0
1958 1957 1959 0
125 1958 1959 0
1961 1949 123 0
1960 490 1949 0
1960 1949 1961 0
494 1960 1961 0
1963 1952 490 0
1962 31 1952 0
1962 1952 1963 0
493 1962 1963 0
1964 1960 494 0
1963 490 1960 0
1963 1960 1964 0
493 1963 1964 0
1966 1964 494 0
1965 493 1964 0
1965 1964 1966 0
124 1965 1966 0
1968 1958 125 0
1967 491 1958 0
1967 1958 1968 0
495 1967 1968 0
1969 1955 491 0
1961 123 1955 0
1961 1955 1969 0
494 1961 1969 0
1970 1967 495 0
1969 491 1967 0
1969 1967 1970 0
494 1969 1970 0
1971 1970 495 0
1966 494 1970 0
1966 1970 1971 0
124 1966 1971 0
1973 1968 125 0
1972 495 1968 0
1972 1968 1973 0
497 1972 1973 0
1975 1971 495 0
1974 124 1971 0
1974 1971 1975 0
496 1974 1975 0
1976 1972 497 0
1975 495 1972 0
1975 1972 1976 0
496 1975 1976 0
1978 1976 497 0
1977 496 1976 0
1977 1976 1978 0
11 1977 1978 0
1980 1056 6 0
1979 267 1056 0
1979 1056 1980 0
499 1979 1980 0
1982 1061 267 0
1981 67 1061 0
1981 1061 1982 0
498 1981 1982 0
1983 1979 499 0
1982 267 1979 0
1982 1979 1983 0
498 1982 1983 0
1985 1983 499 0
1984 498 1983 0
1984 1983 1985 0
127 1984 1985 0
1987 1075 67 0
1986 272 1075 0
1986 1075 1987 0
501 1986 1987 0
1989 1080 272 0
1988 20 1080 0
1988 1080 1989 0
500 1988 1989 0
1990 1986 501 0
1989 272 1986 0
1989 1986 1990 0
500 1989 1990 0
1992 1990 501 0
1991 500 1990 0
1991 1990 1992 0
126 1991 1992 0
1994 1984 127 0
1993 498 1984 0
1993 1984 1994 0
502 1993 1994 0
1995 1981 498 0
1987 67 1981 0
1987 1981 1995 0
501 1987 1995 0
1996 1993 502 0
1995 498 1993 0
1995 1993 1996 0
501 1995 1996 0
1997 1996 502 0
1992 501 1996 0
1992 1996 1997 0
126 1992 1997 0
1999 1994 127 0
1998 502 1994 0
1998 1994 1999 0
504 1998 1999 0
2001 1997 502 0
2000 126 1997 0
2000 1997 2001 0
503 2000 2001 0
2002 1998 504 0
2001 502 1998 0
2001 1998 2002 0
503 2001 2002 0
2004 2002 504 0
2003 503 2002 0
2003 2002 2004 0
34 2003 2004 0
2006 1130 20 0
2005 286 1130 0
2005 1130 2006 0
506 2005 2006 0
2008 1135 286 0
2007 72 1135 0
2007 1135 2008 0
505 2007 2008 0
2009 2005 506 0
2008 286 2005 0
2008 2005 2009 0
505 2008 2009 0
2011 2009 506 0
2010 505 2009 0
2010 2009 2011 0
129 2010 2011 0
2013 1149 72 0
2012 291 1149 0
2012 1149 2013 0
508 2012 2013 0
2015 1154 291 0
2014 2 1154 0
2014 1154 2015 0
507 2014 2015 0
2016 2012 508 0
2015 291 2012 0
2015 2012 2016 0
507 2015 2016 0
2018 2016 508 0
2017 507 2016 0
2017 2016 2018 0
128 2017 2018 0
2020 2010 129 0
2019 505 2010 0
2019 2010 2020 0
509 2019 2020 0
2021 2007 505 0
2013 72 2007 0
2013 2007 2021 0
508 2013 2021 0
2022 2019 509 0
2021 505 2019 0
2021 2019 2022 0
508 2021 2022 0
2023 2022 509 0
2018 508 2022 0
2018 2022 2023 0
128 2018 2023 0
2025 2020 129 0
2024 509 2020 0
2024 2020 2025 0
511 2024 2025 0
2027 2023 509 0
2026 128 2023 0
2026 2023 2027 0
510 2026 2027 0
2028 2024 511 0
2027 509 2024 0
2027 2024 2028 0
510 2027 2028 0
2030 2028 511 0
2029 510 2028 0
2029 2028 2030 0
33 2029 2030 0
2032 2003 34 0
2031 503 2003 0
2031 2003 2032 0
513 2031 2032 0
2034 2000 503 0
2033 126 2000 0
2033 2000 2034 0
512 2033 2034 0
2035 2031 513 0
2034 503 2031 0
2034 2031 2035 0
512 2034 2035 0
2037 2035 513 0
2036 512 2035 0
2036 2035 2037 0
130 2036 2037 0
2039 1991 126 0
2038 500 1991 0
2038 1991 2039 0
514 2038 2039 0
2040 1988 500 0
2006 20 1988 0
2006 1988 2040 0
506 2006 2040 0
2041 2038 514 0
2040 500 2038 0
2040 2038 2041 0
506 2040 2041 0
2042 2041 514 0
2011 506 2041 0
2011 2041 2042 0
129 2011 2042 0
2044 2036 130 0
2043 512 2036 0
2043 2036 2044 0
515 2043 2044 0
2045 2033 512 0
2039 126 2033 0
2039 2033 2045 0
514 2039 2045 0
2046 2043 515 0
2045 512 2043 0
2045 2043 2046 0
514 2045 2046 0
2047 2046 515 0
2042 514 2046 0
2042 2046 2047 0
129 2042 2047 0
2049 2044 130 0
2048 515 2044 0
2048 2044 2049 0
516 2048 2049 0
2050 2047 515 0
2025 129 2047 0
2025 2047 2050 0
511 2025 2050 0
2051 2048 516 0
2050 515 2048 0
2050 2048 2051 0
511 2050 2051 0
2052 2051 516 0
2030 511 2051 0
2030 2051 2052 0
33 2030 2052 0
2054 2032 34 0
2053 513 2032 0
2053 2032 2054 0
518 2053 2054 0
2056 2037 513 0
2055 130 2037 0
2055 2037 2056 0
517 2055 2056 0
2057 2053 518 0
2056 513 2053 0
2056 2053 2057 0
517 2056 2057 0
2059 2057 518 0
2058 517 2057 0
2058 2057 2059 0
132 2058 2059 0
2061 2049 130 0
2060 516 2049 0
2060 2049 2061 0
520 2060 2061 0
2063 2052 516 0
2062 33 2052 0
2062 2052 2063 0
519 2062 2063 0
2064 2060 520 0
2063 516 2060 0
2063 2060 2064 0
519 2063 2064 0
2066 2064 520 0
2065 519 2064 0
2065 2064 2066 0
131 2065 2066 0
2068 2058 132 0
2067 517 2058 0
2067 2058 2068 0
521 2067 2068 0
2069 2055 517 0
2061 130 2055 0
2061 2055 2069 0
520 2061 2069 0
2070 2067 521 0
2069 517 2067 0
2069 2067 2070 0
520 2069 2070 0
2071 2070 521 0
2066 520 2070 0
2066 2070 2071 0
131 2066 2071 0
2073 2068 132 0
2072 521 2068 0
2072 2068 2073 0
523 2072 2073 0
2075 2071 521 0
2074 131 2071 0
2074 2071 2075 0
522 2074 2075 0
2076 2072 523 0
2075 521 2072 0
2075 2072 2076 0
522 2075 2076 0
2884 2076 523 0
2885 522 2076 0
2885 2076 2884 0
2078 1977 11 0
2077 496 1977 0
2077 1977 2078 0
525 2077 2078 0
2080 1974 496 0
2079 124 1974 0
2079 1974 2080 0
524 2079 2080 0
2081 2077 525 0
2080 496 2077 0
2080 2077 2081 0
524 2080 2081 0
2083 2081 525 0
2082 524 2081 0
2082 2081 2083 0
134 2082 2083 0
2085 1965 124 0
2084 493 1965 0
2084 1965 2085 0
527 2084 2085 0
2087 1962 493 0
2086 31 1962 0
2086 1962 2087 0
526 2086 2087 0
2088 2084 527 0
2087 493 2084 0
2087 2084 2088 0
526 2087 2088 0
2090 2088 527 0
2089 526 2088 0
2089 2088 2090 0
133 2089 2090 0
2092 2082 134 0
2091 524 2082 0
2091 2082 2092 0
528 2091 2092 0
2093 2079 524 0
2085 124 2079 0
2085 2079 2093 0
527 2085 2093 0
2094 2091 528 0
2093 524 2091 0
2093 2091 2094 0
527 2093 2094 0
2095 2094 528 0
2090 527 2094 0
2090 2094 2095 0
133 2090 2095 0
2097 2092 134 0
2096 528 2092 0
2096 2092 2097 0
530 2096 2097 0
2099 2095 528 0
2098 133 2095 0
2098 2095 2099 0
529 2098 2099 0
2100 2096 530 0
2099 528 2096 0
2099 2096 2100 0
529 2099 2100 0
2102 2100 530 0
2101 529 2100 0
2101 2100 2102 0
35 2101 2102 0
2104 1929 31 0
2103 484 1929 0
2103 1929 2104 0
532 2103 2104 0
2106 1926 484 0
2105 121 1926 0
2105 1926 2106 0
531 2105 2106 0
2107 2103 532 0
2106 484 2103 0
2106 2103 2107 0
531 2106 2107 0
2109 2107 532 0
2108 531 2107 0
2108 2107 2109 0
135 2108 2109 0
2111 1917 121 0
2110 481 1917 0
2110 1917 2111 0
533 2110 2111 0
2112 1914 481 0
1980 6 1914 0
1980 1914 2112 0
499 1980 2112 0
2113 2110 533 0
2112 481 2110 0
2112 2110 2113 0
499 2112 2113 0
2114 2113 533 0
1985 499 2113 0
1985 2113 2114 0
127 1985 2114 0
2116 2108 135 0
2115 531 2108 0
2115 2108 2116 0
534 2115 2116 0
2117 2105 531 0
2111 121 2105 0
2111 2105 2117 0
533 2111 2117 0
2118 2115 534 0
2117 531 2115 0
2117 2115 2118 0
533 2117 2118 0
2119 2118 534 0
2114 533 2118 0
2114 2118 2119 0
127 2114 2119 0
2121 2116 135 0
2120 534 2116 0
2120 2116 2121 0
535 2120 2121 0
2122 2119 534 0
1999 127 2119 0
1999 2119 2122 0
504 1999 2122 0
2123 2120 535 0
2122 534 2120 0
2122 2120 2123 0
504 2122 2123 0
2124 2123 535 0
2004 504 2123 0
2004 2123 2124 0
34 2004 2124 0
2126 2101 35 0
2125 529 2101 0
2125 2101 2126 0
537 2125 2126 0
2128 2098 529 0
2127 133 2098 0
2127 2098 2128 0
536 2127 2128 0
2129 2125 537 0
2128 529 2125 0
2128 2125 2129 0
536 2128 2129 0
2131 2129 537 0
2130 536 2129 0
2130 2129 2131 0
136 2130 2131 0
2133 2089 133 0
2132 526 2089 0
2132 2089 2133 0
538 2132 2133 0
2134 2086 526 0
2104 31 2086 0
2104 2086 2134 0
532 2104 2134 0
2135 2132 538 0
2134 526 2132 0
2134 2132 2135 0
532 2134 2135 0
2136 2135 538 0
2109 532 2135 0
2109 2135 2136 0
135 2109 2136 0
2138 2130 136 0
2137 536 2130 0
2137 2130 2138 0
539 2137 2138 0
2139 2127 536 0
2133 133 2127 0
2133 2127 2139 0
538 2133 2139 0
2140 2137 539 0
2139 536 2137 0
2139 2137 2140 0
538 2139 2140 0
2141 2140 539 0
2136 538 2140 0
2136 2140 2141 0
135 2136 2141 0
2143 2138 136 0
2142 539 2138 0
2142 2138 2143 0
540 2142 2143 0
2144 2141 539 0
2121 135 2141 0
2121 2141 2144 0
535 2121 2144 0
2145 2142 540 0
2144 539 2142 0
2144 2142 2145 0
535 2144 2145 0
2146 2145 540 0
2124 535 2145 0
2124 2145 2146 0
34 2124 2146 0
2148 2126 35 0
2147 537 2126 0
2147 2126 2148 0
542 2147 2148 0
2150 2131 537 0
2149 136 2131 0
2149 2131 2150 0
541 2149 2150 0
2151 2147 542 0
2150 537 2147 0
2150 2147 2151 0
541 2150 2151 0
2153 2151 542 0
2152 541 2151 0
2152 2151 2153 0
2886 2152 2153 0
2155 2143 136 0
2154 540 2143 0
2154 2143 2155 0
543 2154 2155 0
2156 2146 540 0
2054 34 2146 0
2054 2146 2156 0
518 2054 2156 0
2157 2154 543 0
2156 540 2154 0
2156 2154 2157 0
518 2156 2157 0
2158 2157 543 0
2059 518 2157 0
2059 2157 2158 0
132 2059 2158 0
2160 2152 2886 0
2159 541 2152 0
2159 2152 2160 0
544 2159 2160 0
2161 2149 541 0
2155 136 2149 0
2155 2149 2161 0
543 2155 2161 0
2162 2159 544 0
2161 541 2159 0
2161 2159 2162 0
543 2161 2162 0
2163 2162 544 0
2158 543 2162 0
2158 2162 2163 0
132 2158 2163 0
2887 2160 2886 0
2888 544 2160 0
2888 2160 2887 0
2164 2163 544 0
2073 132 2163 0
2073 2163 2164 0
523 2073 2164 0
2164 544 2888 0
2164 2888 2889 0
523 2164 2889 0
2884 523 2889 0
2166 2078 11 0
2165 525 2078 0
2165 2078 2166 0
546 2165 2166 0
2168 2083 525 0
2167 134 2083 0
2167 2083 2168 0
545 2167 2168 0
2169 2165 546 0
2168 525 2165 0
2168 2165 2169 0
545 2168 2169 0
2171 2169 546 0
2170 545 2169 0
2170 2169 2171 0
137 2170 2171 0
2173 2097 134 0
2172 530 2097 0
2172 2097 2173 0
547 2172 2173 0
2174 2102 530 0
2890 35 2102 0
2890 2102 2174 0
2891 2890 2174 0
2892 2172 547 0
2174 530 2172 0
2174 2172 2892 0
2891 2174 2892 0
2893 2892 547 0
2894 2170 137 0
2175 545 2170 0
2175 2170 2894 0
2895 2175 2894 0
2176 2167 545 0
2173 134 2167 0
2173 2167 2176 0
547 2173 2176 0
2896 2175 2895 0
2176 545 2175 0
2176 2175 2896 0
547 2176 2896 0
2893 547 2896 0
2897 2894 137 0
2898 2148 35 0
2899 542 2148 0
2899 2148 2898 0
2900 2153 542 0
2901 2886 2153 0
2901 2153 2900 0
2900 542 2899 0
2898 35 2890 0
2178 1297 2 0
2177 329 1297 0
2177 1297 2178 0
549 2177 2178 0
2180 1302 329 0
2179 82 1302 0
2179 1302 2180 0
548 2179 2180 0
2181 2177 549 0
2180 329 2177 0
2180 2177 2181 0
548 2180 2181 0
2183 2181 549 0
2182 548 2181 0
2182 2181 2183 0
139 2182 2183 0
2185 1316 82 0
2184 334 1316 0
2184 1316 2185 0
551 2184 2185 0
2187 1321 334 0
2186 24 1321 0
2186 1321 2187 0
550 2186 2187 0
2188 2184 551 0
2187 334 2184 0
2187 2184 2188 0
550 2187 2188 0
2190 2188 551 0
2189 550 2188 0
2189 2188 2190 0
138 2189 2190 0
2192 2182 139 0
2191 548 2182 0
2191 2182 2192 0
552 2191 2192 0
2193 2179 548 0
2185 82 2179 0
2185 2179 2193 0
551 2185 2193 0
2194 2191 552 0
2193 548 2191 0
2193 2191 2194 0
551 2193 2194 0
2195 2194 552 0
2190 551 2194 0
2190 2194 2195 0
138 2190 2195 0
2197 2192 139 0
2196 552 2192 0
2196 2192 2197 0
554 2196 2197 0
2199 2195 552 0
2198 138 2195 0
2198 2195 2199 0
553 2198 2199 0
2200 2196 554 0
2199 552 2196 0
2199 2196 2200 0
553 2199 2200 0
2202 2200 554 0
2201 553 2200 0
2201 2200 2202 0
37 2201 2202 0
2204 1371 24 0
2203 348 1371 0
2203 1371 2204 0
556 2203 2204 0
2206 1376 348 0
2205 87 1376 0
2205 1376 2206 0
555 2205 2206 0
2207 2203 556 0
2206 348 2203 0
2206 2203 2207 0
555 2206 2207 0
2209 2207 556 0
2208 555 2207 0
2208 2207 2209 0
141 2208 2209 0
2211 1390 87 0
2210 353 1390 0
2210 1390 2211 0
558 2210 2211 0
2213 1395 353 0
2212 9 1395 0
2212 1395 2213 0
557 2212 2213 0
2214 2210 558 0
2213 353 2210 0
2213 2210 2214 0
557 2213 2214 0
2216 2214 558 0
2215 557 2214 0
2215 2214 2216 0
140 2215 2216 0
2218 2208 141 0
2217 555 2208 0
2217 2208 2218 0
559 2217 2218 0
2219 2205 555 0
2211 87 2205 0
2211 2205 2219 0
558 2211 2219 0
2220 2217 559 0
2219 555 2217 0
2219 2217 2220 0
558 2219 2220 0
2221 2220 559 0
2216 558 2220 0
2216 2220 2221 0
140 2216 2221 0
2223 2218 141 0
2222 559 2218 0
2222 2218 2223 0
561 2222 2223 0
2225 2221 559 0
2224 140 2221 0
2224 2221 2225 0
560 2224 2225 0
2226 2222 561 0
2225 559 2222 0
2225 2222 2226 0
560 2225 2226 0
2228 2226 561 0
2227 560 2226 0
2227 2226 2228 0
36 2227 2228 0
2230 2201 37 0
2229 553 2201 0
2229 2201 2230 0
563 2229 2230 0
2232 2198 553 0
2231 138 2198 0
2231 2198 2232 0
562 2231 2232 0
2233 2229 563 0
2232 553 2229 0
2232 2229 2233 0
562 2232 2233 0
2235 2233 563 0
2234 562 2233 0
2234 2233 2235 0
142 2234 2235 0
2237 2189 138 0
2236 550 2189 0
2236 2189 2237 0
564 2236 2237 0
2238 2186 550 0
2204 24 2186 0
2204 2186 2238 0
556 2204 2238 0
2239 2236 564 0
2238 550 2236 0
2238 2236 2239 0
556 2238 2239 0
2240 2239 564 0
2209 556 2239 0
2209 2239 2240 0
141 2209 2240 0
2242 2234 142 0
2241 562 2234 0
2241 2234 2242 0
565 2241 2242 0
2243 2231 562 0
2237 138 2231 0
2237 2231 2243 0
564 2237 2243 0
2244 2241 565 0
2243 562 2241 0
2243 2241 2244 0
564 2243 2244 0
2245 2244 565 0
2240 564 2244 0
2240 2244 2245 0
141 2240 2245 0
2247 2242 142 0
2246 565 2242 0
2246 2242 2247 0
566 2246 2247 0
2248 2245 565 0
2223 141 2245 0
2223 2245 2248 0
561 2223 2248 0
2249 2246 566 0
2248 565 2246 0
2248 2246 2249 0
561 2248 2249 0
2250 2249 566 0
2228 561 2249 0
2228 2249 2250 0
36 2228 2250 0
2252 2230 37 0
2251 563 2230 0
2251 2230 2252 0
568 2251 2252 0
2254 2235 563 0
2253 142 2235 0
2253 2235 2254 0
567 2253 2254 0
2255 2251 568 0
2254 563 2251 0
2254 2251 2255 0
567 2254 2255 0
2257 2255 568 0
2256 567 2255 0
2256 2255 2257 0
144 2256 2257 0
2259 2247 142 0
2258 566 2247 0
2258 2247 2259 0
570 2258 2259 0
2261 2250 566 0
2260 36 2250 0
2260 2250 2261 0
569 2260 2261 0
2262 2258 570 0
2261 566 2258 0
2261 2258 2262 0
569 2261 2262 0
2264 2262 570 0
2263 569 2262 0
2263 2262 2264 0
143 2263 2264 0
2266 2256 144 0
2265 567 2256 0
2265 2256 2266 0
571 2265 2266 0
2267 2253 567 0
2259 142 2253 0
2259 2253 2267 0
570 2259 2267 0
2268 2265 571 0
2267 567 2265 0
2267 2265 2268 0
570 2267 2268 0
2269 2268 571 0
2264 570 2268 0
2264 2268 2269 0
143 2264 2269 0
2271 2266 144 0
2270 571 2266 0
2270 2266 2271 0
2902 2270 2271 0
2273 2269 571 0
2272 143 2269 0
2272 2269 2273 0
2903 2272 2273 0
2904 2270 2902 0
2273 571 2270 0
2273 2270 2904 0
2903 2273 2904 0
2275 1552 9 0
2274 394 1552 0
2274 1552 2275 0
573 2274 2275 0
2277 1557 394 0
2276 99 1557 0
2276 1557 2277 0
572 2276 2277 0
2278 2274 573 0
2277 394 2274 0
2277 2274 2278 0
572 2277 2278 0
2280 2278 573 0
2279 572 2278 0
2279 2278 2280 0
146 2279 2280 0
2282 1571 99 0
2281 399 1571 0
2281 1571 2282 0
575 2281 2282 0
2284 1576 399 0
2283 28 1576 0
2283 1576 2284 0
574 2283 2284 0
2285 2281 575 0
2284 399 2281 0
2284 2281 2285 0
574 2284 2285 0
2287 2285 575 0
2286 574 2285 0
2286 2285 2287 0
145 2286 2287 0
2289 2279 146 0
2288 572 2279 0
2288 2279 2289 0
576 2288 2289 0
2290 2276 572 0
2282 99 2276 0
2282 2276 2290 0
575 2282 2290 0
2291 2288 576 0
2290 572 2288 0
2290 2288 2291 0
575 2290 2291 0
2292 2291 576 0
2287 575 2291 0
2287 2291 2292 0
145 2287 2292 0
2294 2289 146 0
2293 576 2289 0
2293 2289 2294 0
578 2293 2294 0
2296 2292 576 0
2295 145 2292 0
2295 2292 2296 0
577 2295 2296 0
2297 2293 578 0
2296 576 2293 0
2296 2293 2297 0
577 2296 2297 0
2299 2297 578 0
2298 577 2297 0
2298 2297 2299 0
38 2298 2299 0
2301 1626 28 0
2300 413 1626 0
2300 1626 2301 0
580 2300 2301 0
2303 1631 413 0
2302 104 1631 0
2302 1631 2303 0
579 2302 2303 0
2304 2300 580 0
2303 413 2300 0
2303 2300 2304 0
579 2303 2304 0
2306 2304 580 0
2305 579 2304 0
2305 2304 2306 0
148 2305 2306 0
2308 1645 104 0
2307 418 1645 0
2307 1645 2308 0
582 2307 2308 0
2310 1650 418 0
2309 1 1650 0
2309 1650 2310 0
581 2309 2310 0
2311 2307 582 0
2310 418 2307 0
2310 2307 2311 0
581 2310 2311 0
2313 2311 582 0
2312 581 2311 0
2312 2311 2313 0
147 2312 2313 0
2315 2305 148 0
2314 579 2305 0
2314 2305 2315 0
583 2314 2315 0
2316 2302 579 0
2308 104 2302 0
2308 2302 2316 0
582 2308 2316 0
2317 2314 583 0
2316 579 2314 0
2316 2314 2317 0
582 2316 2317 0
2318 2317 583 0
2313 582 2317 0
2313 2317 2318 0
147 2313 2318 0
2320 2315 148 0
2319 583 2315 0
2319 2315 2320 0
585 2319 2320 0
2322 2318 583 0
2321 147 2318 0
2321 2318 2322 0
584 2321 2322 0
2323 2319 585 0
2322 583 2319 0
2322 2319 2323 0
584 2322 2323 0
2324 2323 585 0
2905 584 2323 0
2905 2323 2324 0
2906 2905 2324 0
2326 2298 38 0
2325 577 2298 0
2325 2298 2326 0
587 2325 2326 0
2328 2295 577 0
2327 145 2295 0
2327 2295 2328 0
586 2327 2328 0
2329 2325 587 0
