#!ascii - generated by CreateLabelFiles project 
1639 3125
-24.0222 90.576 -21.7624 0
-20.9214 90.0427 -17.8294 0
-16.2267 88.8288 -16.612 0
-18.4614 87.3255 -17.7448 0
-23.1427 87.2573 -21.6089 0
-19.5848 86.2181 -19.1182 0
-26.3487 91.0319 -24.585 0
-24.9327 88.8904 -23.5006 0
-26.2449 92.7917 -24.4024 0
-8.32677 96.2092 -10.2889 0
-9.21708 97.5639 -9.98216 0
-9.77894 97.1439 -9.84366 0
-8.96954 96.8031 -10.0157 0
-8.74164 95.9308 -9.98518 0
-9.19147 95.4224 -9.7036 0
-8.50268 94.8001 -9.78539 0
-7.40822 92.592 -9.52386 0
-7.39906 92.7904 -8.07391 0
-7.97272 93.3704 -9.88877 0
-8.38609 93.3643 -9.24819 0
-7.60846 92.293 -7.45652 0
-8.8068 92.7781 -8.52755 0
-8.24603 92.3183 -8.13212 0
-7.87347 91.7337 -6.68183 0
-8.22611 91.1104 -5.73004 0
-7.34998 91.3238 -5.30994 0
-6.40392 91.5828 -5.01673 0
-6.57333 90.4259 -4.55835 0
-6.79807 88.8794 -5.0013 0
-5.20195 86.5127 -7.50686 0
-7.7676 88.6862 -4.4697 0
-6.49408 87.4126 -5.65721 0
-6.22836 86.4597 -6.63115 0
-7.28942 86.6814 -6.41236 0
-5.79335 85.422 -7.72727 0
-4.59891 86.1492 -9.78916 0
-5.49921 85.5686 -9.25096 0
-6.25408 85.1473 -9.11309 0
-5.42875 85.5524 -10.8082 0
-4.95921 84.7289 -11.761 0
-5.80137 83.2411 -11.4689 0
-5.5764 83.4101 -12.5851 0
-9.01009 90.9355 -6.1975 0
-8.4149 89.8357 -5.15994 0
-9.43874 93.2035 -8.81825 0
-9.24902 91.9039 -7.59371 0
-9.98933 91.0354 -6.58415 0
-10.679 90.9888 -7.42542 0
-10.5255 89.9525 -6.01758 0
-9.88781 96.0506 -9.40017 0
-9.73147 94.6213 -9.56548 0
-10.7394 97.229 -9.82529 0
-10.391 96.6717 -9.83542 0
-11.101 95.9616 -9.98163 0
-12.6137 95.7421 -9.63404 0
-11.836 95.1758 -9.59762 0
-10.8002 92.2581 -8.49195 0
-11.4265 90.8254 -8.28799 0
-10.226 93.6434 -9.08615 0
-11.0825 94.067 -9.30404 0
-12.2136 93.9045 -9.81323 0
-12.4088 90.6081 -9.26529 0
-12.4347 89.2798 -8.18894 0
-13.2022 93.5425 -10.2297 0
-12.4837 92.3672 -10.0387 0
-13.1989 90.5713 -10.4227 0
-13.336 90.9411 -11.8057 0
-12.6928 89.3658 -11.389 0
-6.3987 83.4128 -10.383 0
-6.94888 81.9634 -11.3166 0
-7.7655 85.4327 -7.90963 0
-6.98554 84.761 -9.41883 0
-7.89186 83.9936 -9.53018 0
-9.56717 84.5245 -9.07068 0
-8.87194 83.0949 -9.73824 0
-8.6666 86.998 -5.11936 0
-8.39879 86.2067 -6.44562 0
-8.62249 88.5141 -4.82439 0
-9.67063 88.5526 -5.23929 0
-10.9571 88.6571 -5.85081 0
-10.4991 85.402 -7.78688 0
-10.6527 85.384 -9.90054 0
-9.31075 85.9803 -6.95438 0
-10.6658 87.2817 -6.77997 0
-12.3068 88.3093 -7.0368 0
-11.1023 87.0447 -10.3329 0
-10.4117 85.6196 -11.3245 0
-12.4967 88.2463 -8.7866 0
-11.9747 88.2374 -10.8521 0
-11.1085 88.5846 -12.6504 0
-8.56879 80.9592 -11.0114 0
-8.16695 80.6545 -11.9471 0
-9.5763 83.7437 -10.6431 0
-9.55085 81.9485 -9.79347 0
-10.5346 80.7869 -10.3186 0
-12.3685 82.8716 -10.6453 0
-12.2346 80.8517 -10.7548 0
-9.45189 86.3579 -13.0952 0
-9.87819 85.0541 -11.8035 0
-9.89537 89.9544 -14.0015 0
-9.2041 87.9877 -13.9852 0
-9.03804 87.4402 -14.7516 0
-9.55547 88.8668 -15.6769 0
-10.3318 87.1214 -14.7352 0
-12.0571 84.515 -11.7094 0
-13.7361 84.6424 -11.1122 0
-10.5838 84.7974 -11.8356 0
-11.1158 86.0125 -12.9823 0
-12.4241 86.9037 -14.137 0
-14.9426 85.7946 -12.1693 0
-15.2636 84.497 -11.5117 0
-13.9203 88.1543 -14.3601 0
-14.5723 86.902 -13.316 0
-16.4363 86.8472 -13.2118 0
-16.8647 87.4342 -14.622 0
-17.1341 86.2823 -13.5598 0
-6.61331 82.1246 -13.2848 0
-14.1428 78.8703 -14.9671 0
-13.2304 79.8818 -14.8049 0
-10.9064 79.193 -13.6866 0
-7.81664 80.937 -13.7794 0
-8.01354 80.6464 -12.8382 0
-14.8658 79.4304 -14.0905 0
-15.3084 78.4708 -14.0971 0
-13.5522 79.8675 -13.5453 0
-14.2906 79.8684 -13.8067 0
-15.5245 80.2903 -13.4351 0
-16.5452 81.3641 -12.6499 0
-16.9939 80.9175 -13.5332 0
-11.0541 79.03 -12.7484 0
-12.5736 79.221 -13.2446 0
-9.64416 79.4686 -12.2566 0
-11.6433 79.3974 -11.7377 0
-13.8779 80.9452 -10.8919 0
-15.9399 81.4941 -11.7031 0
-17.6099 82.7294 -12.1167 0
-14.0658 80.6007 -12.2587 0
-14.9468 81.1924 -11.1406 0
-15.3723 82.8586 -11.136 0
-17.6772 84.2103 -12.2626 0
-17.7313 83.5075 -13.3103 0
-16.9743 84.5443 -11.6774 0
-17.4025 85.0977 -12.7599 0
-17.8401 85.6661 -14.3582 0
-16.7927 78.7834 -14.0844 0
-15.9409 77.5109 -14.4811 0
-18.024 81.4301 -14.3495 0
-17.747 80.1611 -14.1274 0
-18.2226 79.3206 -15.1522 0
-18.7973 79.7732 -16.5162 0
-18.2527 78.3836 -16.4286 0
-18.0165 83.899 -14.6041 0
-18.0307 82.7556 -14.3911 0
-17.8356 85.9756 -15.9128 0
-18.2566 85.1352 -15.19 0
-18.1344 84.2927 -16.0015 0
-17.9469 84.475 -17.3266 0
-18.0182 83.4689 -16.8137 0
-18.2916 81.0287 -16.4199 0
-18.2057 80.1457 -17.5385 0
-18.3623 81.9088 -15.4021 0
-18.1733 82.2691 -16.547 0
-17.9034 82.6248 -17.5823 0
-10.7986 97.7465 -9.85421 0
-11.9111 97.1254 -9.8298 0
-13.3162 97.632 -9.82723 0
-14.8156 96.7641 -10.0007 0
-13.4999 96.857 -9.67317 0
-13.1393 96.2327 -9.77349 0
-13.8944 95.3666 -9.84409 0
-16.2264 97.6177 -10.6726 0
-17.2064 97.0901 -11.1046 0
-15.785 96.8882 -10.5693 0
-18.1764 98.7167 -11.632 0
-18.812 98.1067 -12.6539 0
-18.1219 97.5882 -11.7388 0
-17.6714 96.6026 -11.9507 0
-17.485 96.3863 -13.0344 0
-16.7459 95.8496 -11.9703 0
-14.9218 95.2814 -10.1639 0
-14.2758 94.354 -10.1442 0
-15.4225 96.1629 -10.2219 0
-15.5911 95.6981 -10.8165 0
-15.576 95.0523 -11.7264 0
-14.0735 93.4092 -10.8024 0
-15.2237 94.3529 -12.5027 0
-14.406 93.9581 -11.6775 0
-14.0575 92.387 -11.951 0
-12.8117 91.9068 -12.7082 0
-19.2747 99.5108 -13.8012 0
-19.5032 98.9504 -14.6737 0
-19.3106 98.548 -13.6283 0
-22.0826 99.6521 -15.6861 0
-19.7981 99.18 -15.7756 0
-20.2782 98.5712 -14.9458 0
-23.1539 97.1693 -14.8926 0
-20.4596 97.6986 -14.775 0
-23.6177 97.3456 -16.8117 0
-23.1628 96.4884 -16.861 0
-24.1439 98.143 -16.7752 0
-24.8095 96.9469 -18.5706 0
-25.1222 95.9596 -20.6064 0
-23.751 95.3869 -19.1124 0
-22.7339 95.4993 -17.0429 0
-25.6853 94.5254 -22.4166 0
-24.9258 94.8207 -20.9347 0
-24.2829 94.2903 -21.2524 0
-24.6748 93.401 -22.856 0
-24.0474 93.6643 -21.0778 0
-12.1454 93.0067 -13.2593 0
-10.9576 91.6726 -13.6996 0
-15.9156 95.1231 -13.4862 0
-14.2155 93.9252 -13.0691 0
-13.027 93.4674 -13.6534 0
-15.8841 93.405 -14.318 0
-12.9026 93.0036 -14.682 0
-18.0657 97.0725 -13.937 0
-17.0988 96.2546 -13.9677 0
-18.8416 97.7683 -13.7041 0
-18.7616 97.6992 -14.802 0
-20.2405 96.6056 -14.8058 0
-18.498 94.194 -14.5615 0
-20.1756 92.7257 -14.4421 0
-16.8535 96.0435 -14.9509 0
-19.6751 95.378 -14.7204 0
-22.115 95.0493 -15.2997 0
-21.6011 93.2273 -16.9703 0
-20.8055 91.994 -16.7571 0
-22.2182 94.3995 -17.0117 0
-22.616 93.7878 -19.0774 0
-23.9451 92.6533 -20.8298 0
-9.68189 91.5839 -14.7684 0
-15.2136 90.799 -14.456 0
-10.9403 92.1427 -15.5458 0
-10.0991 90.9794 -15.92 0
-11.6821 89.8973 -16.1256 0
-21.5765 91.3691 -18.51 0
-19.7764 90.6479 -16.1207 0
-24.6034 91.6094 -22.3168 0
-23.2097 91.6058 -20.5339 0
-22.6415 90.3923 -19.9442 0
-22.9915 89.66 -21.238 0
-21.6404 89.3352 -19.4359 0
-14.8045 89.4414 -15.8592 0
-13.5814 89.122 -15.1571 0
-17.5254 89.8549 -15.6551 0
-19.0545 89.04 -16.927 0
-20.0371 88.3584 -18.2465 0
-15.5424 88.4559 -15.5488 0
-20.884 87.6367 -19.1141 0
-17.5314 88.1745 -17.2376 0
-16.8851 88.0109 -15.9279 0
-17.6635 87.1874 -16.389 0
-19.2807 86.6303 -18.2214 0
-18.0282 86.4928 -16.9686 0
-22.6291 87.9142 -21.0582 0
-21.3542 87.095 -19.8483 0
-21.4943 86.7501 -20.6057 0
-23.5329 86.6402 -22.176 0
-21.977 86.138 -21.0636 0
-24.5233 89.6996 -22.7533 0
-23.5789 88.8022 -21.9757 0
-25.557 91.673 -23.7663 0
-25.2259 90.7064 -23.3773 0
-25.6775 89.94 -24.3276 0
-27.0552 90.4024 -25.2341 0
-26.1199 89.0632 -24.8539 0
-24.4935 87.3095 -23.2948 0
-24.1063 88.0136 -22.6276 0
-25.2298 88.1426 -24.1927 0
-25.622 93.5005 -23.9188 0
-25.5284 92.6384 -23.9368 0
-25.4335 94.4787 -23.8329 0
-26.4084 93.7433 -24.3199 0
-27.1584 91.4217 -24.7324 0
-26.3226 91.946 -24.5089 0
-18.1337 85.7478 -17.6356 0
-20.0889 85.7204 -19.6314 0
-18.6063 85.1343 -18.0976 0
-19.0919 84.5986 -18.7097 0
-17.2679 99.3333 -11.2135 0
-17.9328 99.9638 -11.6479 0
-14.2123 98.4523 -10.4806 0
-15.7282 98.772 -10.8165 0
-11.4717 98.5397 -10.0804 0
-12.6895 98.5649 -10.2653 0
-9.81102 97.9041 -10.1849 0
-10.5574 98.2514 -10.1519 0
-8.46443 96.6353 -10.3562 0
-8.11131 96.3233 -10.4636 0
-8.19632 95.7154 -10.2344 0
-7.86223 95.1654 -10.3592 0
-8.89025 97.3468 -10.1367 0
-9.0694 97.2063 -9.9799 0
-8.77549 96.9434 -10.1716 0
-9.69562 97.5406 -9.9983 0
-9.93879 97.3634 -9.92461 0
-9.47836 97.3389 -9.91207 0
-9.30092 97.0434 -9.86964 0
-9.61347 96.8359 -9.7973 0
-9.16741 96.6713 -9.86482 0
-8.5408 96.0797 -10.149 0
-8.40885 95.5813 -10.0809 0
-8.66926 96.5363 -10.1925 0
-8.86714 96.3815 -10.0286 0
-9.06894 96.2321 -9.85325 0
-8.61999 95.4161 -9.92555 0
-8.29459 94.9085 -9.99482 0
-9.293 96.0096 -9.70749 0
-8.95415 95.723 -9.81936 0
-8.84877 95.118 -9.78508 0
-9.06971 94.803 -9.632 0
-8.71878 94.5029 -9.62269 0
-7.40742 92.6604 -8.83656 0
-7.64838 92.5418 -9.21481 0
-7.63881 92.5997 -8.49591 0
-7.68862 92.8734 -9.72451 0
-7.93379 92.8205 -9.4528 0
-7.70443 93.4764 -10.0883 0
-7.98103 94.2794 -10.0596 0
-8.19103 93.3449 -9.59823 0
-8.15088 92.8464 -9.10881 0
-8.20163 94.1908 -9.83873 0
-8.413 94.0799 -9.61851 0
-8.63625 93.8377 -9.33655 0
-7.23675 92.8728 -7.38975 0
-7.79914 92.4302 -8.19023 0
-7.54244 92.5983 -7.75243 0
-7.3019 92.5718 -7.09462 0
-7.352 92.2157 -6.79991 0
-7.01514 92.4997 -6.48581 0
-8.35023 92.8453 -8.74882 0
-8.09061 92.4505 -8.53888 0
-8.88 93.459 -9.07785 0
-8.59877 93.2086 -8.93558 0
-8.5002 92.6551 -8.33631 0
-8.68446 92.2447 -7.86754 0
-8.37873 92.1309 -7.70702 0
-7.71181 92.0299 -7.09638 0
-7.41253 91.7773 -6.48455 0
-7.91463 92.2181 -7.83437 0
-8.05353 92.0617 -7.38968 0
-8.21011 91.7831 -6.97217 0
-7.55373 91.4777 -6.04662 0
-7.0865 91.5223 -5.88036 0
-8.39221 91.4166 -6.42521 0
-8.01223 91.4351 -6.24533 0
-7.80232 91.2772 -5.50007 0
-8.00027 90.85 -5.0199 0
-7.5894 91.0752 -4.78571 0
-6.68177 91.7134 -5.71948 0
-6.48331 91.0875 -4.6551 0
-5.83304 90.2764 -4.73297 0
-6.84534 91.3829 -5.22504 0
-7.08021 91.1093 -4.70566 0
-7.20818 90.4821 -4.53068 0
-6.02611 89.6023 -4.99243 0
-7.25943 89.613 -4.45381 0
-6.72416 89.7163 -4.74002 0
-6.23949 88.9357 -5.38783 0
-6.12083 88.1801 -5.69718 0
-5.52741 88.1653 -6.18671 0
-5.34781 86.9041 -6.92305 0
-4.99282 86.1298 -8.07205 0
-4.32688 86.1061 -9.1165 0
-6.62742 88.0688 -5.26323 0
-5.98667 87.4566 -6.06822 0
-7.70494 89.4281 -4.57513 0
-7.27166 88.7649 -4.7037 0
-7.14409 87.964 -4.98693 0
-7.7202 87.8574 -4.81276 0
-7.0574 87.4106 -5.37981 0
-5.7181 86.3642 -6.9608 0
-5.47895 85.8857 -7.46139 0
-5.89059 86.9094 -6.54622 0
-6.42324 87.0073 -6.17382 0
-6.9324 87.1152 -5.81628 0
-5.98118 85.8354 -7.07265 0
-5.29569 85.7214 -8.04605 0
-7.49793 86.9896 -5.65084 0
-6.7366 86.5784 -6.395 0
-6.53466 86.0334 -7.12281 0
-7.08048 86.2259 -7.18396 0
-6.34419 85.6065 -7.78347 0
-4.60023 86.4668 -10.3883 0
-4.21875 86.3132 -10.0537 0
-4.66537 85.9026 -9.13157 0
-5.08347 85.9072 -9.49831 0
-4.96734 86.1712 -10.1599 0
-5.16374 85.5976 -8.8326 0
-5.65874 85.2994 -8.53973 0
-6.11943 85.1689 -8.40053 0
-5.32809 85.6859 -9.98909 0
-5.05499 86.025 -10.9207 0
-6.56919 85.2042 -8.42937 0
-5.82926 85.1473 -9.06265 0
-5.69974 85.2304 -9.85903 0
-5.96203 84.8158 -9.86164 0
-5.60808 84.999 -10.7272 0
-4.70879 85.421 -11.9699 0
-4.67879 84.851 -12.3668 0
-5.06438 85.8441 -11.6102 0
-5.22513 85.2077 -11.4014 0
-5.34989 84.5941 -11.2472 0
-5.23038 84.0666 -12.1854 0
-4.92138 84.1328 -12.7591 0
-5.62116 83.8962 -11.0516 0
-5.37197 83.9832 -11.6065 0
-5.68993 83.3217 -12.0388 0
-6.21075 82.5753 -11.9131 0
-6.18375 82.7178 -12.4337 0
-8.37864 90.6229 -5.31381 0
-8.03933 90.0096 -4.9217 0
-8.76849 91.3898 -6.63285 0
-8.62644 90.9355 -5.99165 0
-8.76651 90.4161 -5.62633 0
-9.31085 90.4737 -5.75134 0
-8.95442 89.8938 -5.262 0
-8.99299 92.3713 -8.04909 0
-8.9166 91.8246 -7.36405 0
-9.16895 93.7083 -9.21922 0
-9.08322 93.0191 -8.65869 0
-9.33925 92.5115 -8.23885 0
-9.71686 92.6659 -8.4107 0
-9.62981 91.8832 -7.92538 0
-9.51733 90.9968 -6.36253 0
-9.81593 90.552 -5.92183 0
-9.17299 91.3876 -6.85344 0
-9.5652 91.3939 -7.15989 0
-9.95415 91.389 -7.47661 0
-10.3233 90.5788 -6.16369 0
-10.0701 90.0333 -5.56433 0
-10.3127 91.4057 -7.82007 0
-10.349 91.0267 -6.96602 0
-10.695 90.5158 -6.63152 0
-11.028 90.4378 -7.11141 0
-11.0031 89.8328 -6.4612 0
-9.4295 95.085 -9.59005 0
-9.30676 94.3982 -9.46484 0
-9.66297 96.2694 -9.57479 0
-9.53197 95.7323 -9.5582 0
-9.78746 95.4071 -9.45351 0
-10.167 95.7036 -9.37147 0
-10.0925 94.9686 -9.44695 0
-10.0778 96.9605 -9.74939 0
-9.88202 96.639 -9.67138 0
-10.3755 97.4231 -9.85654 0
-10.2586 97.2157 -9.80111 0
-10.5959 96.942 -9.89915 0
-11.1218 96.9304 -9.94667 0
-10.9575 96.6253 -10.0364 0
-10.452 96.0666 -9.65522 0
-10.7757 95.6769 -9.69593 0
-10.1399 96.4083 -9.56792 0
-10.7364 96.3405 -9.94458 0
-11.39 96.2506 -10.0448 0
-11.4957 95.6077 -9.74158 0
-11.0902 95.269 -9.65279 0
-12.1583 96.1501 -9.78426 0
-11.8449 95.8924 -9.79898 0
-12.2572 95.5152 -9.58113 0
-12.9995 95.2072 -9.67008 0
-12.602 94.9215 -9.67263 0
-11.0532 91.0123 -7.74773 0
-11.5025 90.214 -7.68264 0
-10.3956 92.1443 -8.31043 0
-10.7122 91.537 -8.01167 0
-11.0999 91.5418 -8.34572 0
-11.2559 92.3434 -8.79896 0
-11.5465 91.4459 -8.80049 0
-9.83295 93.3967 -8.95944 0
-10.1033 92.8044 -8.59114 0
-9.57217 93.9335 -9.32317 0
-9.99393 94.1621 -9.41339 0
-10.3999 94.4224 -9.47164 0
-10.9084 93.2197 -8.87846 0
-11.4239 93.2611 -9.26886 0
-10.491 93.0055 -8.73539 0
-10.6281 93.8999 -9.18503 0
-10.825 94.6826 -9.47038 0
-11.6114 94.0484 -9.60774 0
-11.9277 93.2244 -9.60317 0
-11.3376 94.7442 -9.64636 0
-12.0863 94.582 -9.67518 0
-12.8651 94.284 -9.73607 0
-11.9501 89.9931 -8.18295 0
-11.9712 89.4256 -7.58467 0
-12.0755 91.4367 -9.20089 0
-11.8736 90.5827 -8.79017 0
-12.3708 89.9222 -8.77446 0
-12.7995 89.9085 -9.4084 0
-12.7854 89.3056 -8.84089 0
-12.0902 93.2705 -10.0572 0
-12.1906 92.3777 -9.63345 0
-13.3894 94.0637 -9.88383 0
-12.7239 93.7352 -9.99634 0
-12.4476 93.1922 -10.3198 0
-13.0621 92.9719 -10.5837 0
-12.7407 92.372 -10.527 0
-13.0218 90.6262 -9.65374 0
-13.1224 89.8608 -10.0789 0
-12.6823 91.404 -9.58023 0
-13.0717 91.4051 -10.0331 0
-13.2534 91.4671 -10.669 0
-13.2427 89.8311 -10.9079 0
-12.9935 89.1515 -10.6281 0
-13.3937 91.6027 -11.3235 0
-13.382 90.6408 -11.1688 0
-12.9048 90.1312 -11.6258 0
-12.7481 90.5378 -12.2472 0
-12.1331 89.8038 -12.0576 0
-6.30819 82.5018 -11.3808 0
-6.77454 81.8438 -11.7698 0
-6.0826 83.9388 -10.5264 0
-5.92009 83.217 -10.8925 0
-6.52464 82.6401 -10.8441 0
-6.88618 82.8157 -10.2635 0
-7.1775 82.0583 -10.7576 0
-6.63203 84.9541 -9.24972 0
-6.33077 84.5741 -10.0475 0
-7.28881 85.6385 -7.83459 0
-7.00766 85.2292 -8.47007 0
-7.39692 85.0483 -8.60334 0
-8.22654 85.2534 -8.05395 0
-7.82095 84.8903 -8.79738 0
-7.00347 83.639 -9.76969 0
-7.41145 83.1363 -9.75845 0
-6.66614 84.1484 -9.94931 0
-7.3705 84.4202 -9.50202 0
-8.33399 84.5926 -8.94061 0
-8.37247 83.46 -9.5218 0
-8.04548 82.5843 -9.76073 0
-9.14891 84.8636 -8.5643 0
-8.86259 84.2435 -9.21368 0
-9.3181 83.7802 -9.69821 0
-9.76522 84.0664 -9.96708 0
-9.39055 83.7132 -10.0883 0
-7.87589 86.4198 -6.40289 0
-7.5774 86.1709 -7.25598 0
-8.17519 87.1617 -5.04625 0
-8.08782 86.7388 -5.60794 0
-8.68917 86.4708 -5.56547 0
-9.06833 86.9355 -5.34991 0
-9.16385 86.3419 -5.77761 0
-8.21261 88.5969 -4.64818 0
-8.22965 87.7659 -4.70129 0
-8.10374 89.2694 -4.77086 0
-8.5262 89.1697 -4.96085 0
-9.03168 89.2063 -5.09805 0
-9.03645 87.6474 -5.10221 0
-9.50488 87.668 -5.33115 0
-8.64881 87.6705 -4.88066 0
-9.08181 88.4584 -5.01248 0
-9.62731 89.3223 -5.19957 0
-10.3216 88.6547 -5.48071 0
-10.1794 87.8206 -5.63347 0
-10.2487 89.3889 -5.44646 0
-10.7238 89.3244 -5.90102 0
-11.2781 89.1911 -6.40076 0
-10.0198 84.8473 -9.52157 0
-9.91591 84.5934 -10.3608 0
-9.72849 85.053 -7.80394 0
-10.0205 84.9772 -8.42506 0
-10.7294 85.5665 -8.95977 0
-10.8603 86.4129 -8.20667 0
-11.033 86.3397 -9.25194 0
-8.54195 85.7378 -7.38307 0
-9.0694 85.4585 -7.55699 0
-8.0563 85.9569 -7.31405 0
-8.87139 86.0473 -6.55842 0
-9.61735 86.2808 -6.13952 0
-10.5002 86.3699 -7.30647 0
-11.076 87.3057 -7.5355 0
-9.96359 85.5623 -7.1567 0
-10.1581 86.2394 -6.54061 0
-10.026 87.0237 -6.11295 0
-11.4831 87.9342 -6.90841 0
-11.8537 87.8639 -7.64462 0
-10.7826 88.0622 -6.25571 0
-11.6421 88.511 -6.43813 0
-11.8851 88.9862 -6.97205 0
-10.5271 85.315 -10.6902 0
-9.79028 84.9833 -10.9839 0
-11.3711 87.0587 -9.36443 0
-11.0918 86.1624 -10.1255 0
-10.9395 86.1267 -10.9696 0
-10.8959 87.0149 -11.2418 0
-10.1927 86.5206 -11.7493 0
-12.4629 88.2853 -7.89375 0
-11.9649 87.7893 -8.52803 0
-12.3996 88.7863 -7.59494 0
-12.7159 88.7424 -8.3352 0
-12.9667 88.6743 -9.13348 0
-11.4336 87.7431 -10.5646 0
-11.1142 87.7403 -11.513 0
-11.7688 87.7266 -9.57847 0
-12.2346 88.2647 -9.83376 0
-12.7726 88.6322 -10.2001 0
-11.729 88.1864 -11.8452 0
-10.4643 88.1131 -12.3549 0
-12.5284 88.6104 -11.2392 0
-12.0565 88.8709 -11.9999 0
-11.3662 89.4688 -12.6689 0
-7.52865 81.3407 -11.6904 0
-7.3595 81.1794 -12.0907 0
-8.03506 81.5797 -10.6499 0
-7.70806 81.4864 -11.259 0
-8.3449 80.8024 -11.5118 0
-9.22233 80.2568 -11.178 0
-9.0212 80.0526 -11.6554 0
-9.05411 82.5185 -9.76649 0
-8.5474 81.9733 -10.0086 0
-8.90805 84.1941 -10.5994 0
-9.52859 83.2069 -9.93967 0
-9.93512 82.685 -9.82539 0
-10.2061 83.2666 -10.6576 0
-10.4381 82.2018 -9.77798 0
-9.47925 80.6576 -10.6381 0
-10.159 80.1093 -10.838 0
-8.98215 81.3304 -10.4432 0
-9.97365 81.2489 -10.0202 0
-10.9883 81.8122 -10.043 0
-11.3026 80.482 -10.7311 0
-10.9764 79.6967 -11.0608 0
-11.5603 82.8191 -10.8406 0
-11.6346 81.5263 -10.465 0
-12.4064 81.8327 -10.4907 0
-13.1495 83.0239 -10.6019 0
-13.2471 82.0206 -10.5468 0
-9.96515 85.3042 -11.6039 0
-9.17118 84.8554 -11.131 0
-9.58901 86.889 -12.5708 0
-9.81269 86.0398 -12.1631 0
-9.75533 85.6503 -12.4994 0
-9.48801 86.0362 -13.3803 0
-9.81505 85.4152 -12.6773 0
-9.84816 88.5632 -13.1821 0
-9.61955 87.714 -12.9081 0
-10.7889 90.161 -13.2942 0
-10.3623 89.307 -13.2626 0
-9.37824 89.0815 -14.0658 0
-8.92878 89.7314 -14.9364 0
-8.80389 88.5216 -14.8312 0
-9.17226 86.7938 -13.9927 0
-9.37424 86.6305 -14.1332 0
-9.22 87.1548 -13.6007 0
-8.93442 87.5934 -14.5213 0
-8.72206 88.1979 -15.1995 0
-9.42293 87.2966 -14.8504 0
-9.81619 86.4614 -14.1661 0
-8.7826 88.9623 -15.7739 0
-9.0827 88.0753 -15.3091 0
-9.87345 87.9395 -15.2109 0
-10.4363 88.6286 -15.4702 0
-10.8801 87.7524 -14.9222 0
-13.0133 83.7916 -10.9786 0
-13.8489 83.9804 -10.68 0
-11.4149 83.8829 -11.2577 0
-12.2296 83.7267 -11.1662 0
-12.8955 84.4033 -11.5786 0
-12.5096 85.2722 -12.1363 0
-13.4221 85.345 -11.8153 0
-10.0449 84.1126 -11.3671 0
-10.6668 84.0207 -11.2749 0
-9.39365 84.5384 -11.2605 0
-10.0825 84.7764 -11.9689 0
-10.187 85.2975 -12.6668 0
-11.6386 85.4325 -12.217 0
-12.0725 86.1655 -12.6214 0
-11.1952 84.7703 -11.7519 0
-10.7385 85.3607 -12.5256 0
-10.2291 85.7714 -13.4015 0
-11.7066 86.5429 -13.581 0
-12.7616 86.447 -13.3343 0
-10.7269 86.4161 -13.9441 0
-11.3512 86.9746 -14.5043 0
-11.9981 87.6184 -14.5085 0
-14.5276 84.7148 -11.0423 0
-14.6437 83.9229 -10.9163 0
-14.0526 85.9867 -12.2314 0
-14.2753 85.3803 -11.5849 0
-15.096 85.2198 -11.7286 0
-15.9966 85.7561 -12.1485 0
-16.1615 85.2316 -11.6784 0
-13.5107 86.8877 -13.7211 0
-13.815 86.3982 -13.0065 0
-12.7795 88.2924 -14.5312 0
-13.1538 87.5903 -14.156 0
-14.2721 87.5949 -13.8287 0
-15.0041 88.0567 -14.368 0
-15.3954 87.6105 -13.7833 0
-15.8501 86.2572 -12.7052 0
-16.6204 86.1342 -12.7315 0
-14.7988 86.2872 -12.77 0
-15.6501 86.9101 -13.2377 0
-16.1772 87.5284 -13.7841 0
-16.8125 86.605 -13.3294 0
-16.9081 85.7913 -12.9377 0
-16.4529 87.7615 -14.4796 0
-16.6213 87.3323 -13.8454 0
-17.0503 87.0317 -14.0123 0
-17.2373 87.0063 -14.8827 0
-17.4546 86.6062 -14.4117 0
-6.08474 82.8041 -12.9616 0
-6.72765 82.095 -12.7865 0
-13.9512 79.3989 -15.0495 0
-13.0582 80.065 -15.4431 0
-13.5445 80.042 -15.0232 0
-12.7262 79.903 -15.2092 0
-12.2293 79.608 -14.8664 0
-12.8623 79.6799 -14.6124 0
-11.673 79.3435 -14.5052 0
-10.8727 79.6027 -14.168 0
-11.8397 79.1252 -13.9299 0
-10.0227 79.714 -13.9258 0
-9.31153 79.9385 -13.7265 0
-10.0245 79.321 -13.4625 0
-8.68515 80.3092 -13.5053 0
-7.92015 80.727 -13.3029 0
-8.79765 80.0636 -13.0339 0
-7.12295 81.41 -13.5487 0
-7.24873 81.3743 -13.0611 0
-7.32901 81.3021 -12.593 0
-14.6441 78.4575 -14.293 0
-14.9201 77.9832 -14.4131 0
-14.2097 79.4853 -14.4473 0
-14.4232 78.9865 -14.3661 0
-15.1016 78.9697 -14.0708 0
-15.5355 79.4558 -13.8046 0
-15.795 79.0361 -13.8878 0
-13.7337 79.8569 -14.3255 0
-13.9716 79.6664 -14.3816 0
-12.9872 79.5102 -14.0247 0
-13.4039 79.7322 -14.1556 0
-13.9458 80.0337 -13.6902 0
-14.1133 80.4023 -13.0577 0
-14.5153 80.1987 -13.1947 0
-15.2187 79.7161 -13.5683 0
-15.8512 80.0248 -13.6596 0
-14.5403 79.7306 -13.8934 0
-14.9001 79.992 -13.3422 0
-15.307 80.4009 -12.9254 0
-16.2313 80.6076 -13.4938 0
-16.5829 80.273 -13.6423 0
-15.7582 80.8129 -12.4861 0
-15.9949 80.7343 -13.0044 0
-16.7616 81.1754 -13.1229 0
-17.1854 81.8155 -12.955 0
-17.3495 81.5476 -13.3973 0
-11.8645 79.1006 -13.4801 0
-12.4996 79.2516 -13.7474 0
-10.1469 79.1562 -12.9584 0
-10.9265 79.0679 -13.2456 0
-11.9174 79.0826 -13.0308 0
-12.1122 79.3437 -12.5296 0
-12.7951 79.6793 -12.6624 0
-8.88932 79.9391 -12.5567 0
-9.54342 79.4857 -12.739 0
-8.07541 80.5435 -12.3588 0
-8.96856 79.9968 -12.1233 0
-9.74554 79.5077 -11.7814 0
-11.3043 79.0543 -12.1986 0
-12.4563 79.7554 -11.9911 0
-10.283 79.0711 -12.4035 0
-10.4425 78.9869 -11.848 0
-10.6797 79.2799 -11.4619 0
-12.8489 80.1468 -11.4456 0
-13.4853 80.5471 -11.4948 0
-11.9743 79.8804 -11.3318 0
-13.1427 80.9687 -10.8828 0
-13.9883 81.9689 -10.7557 0
-17.1004 82.0581 -12.3895 0
-17.6571 82.4574 -12.6781 0
-15.4303 80.8203 -12.0518 0
-16.2757 81.47 -12.1587 0
-16.8268 82.1704 -11.8825 0
-16.4495 82.2894 -11.5015 0
-17.2116 82.9325 -11.8783 0
-13.7216 80.3025 -12.9265 0
-14.4923 80.6986 -12.4751 0
-13.1374 79.5257 -13.4138 0
-13.32 80.0098 -12.7837 0
-13.5911 80.4017 -12.1359 0
-15.4851 81.3502 -11.3371 0
-15.869 82.0413 -11.2098 0
-14.996 80.8137 -11.7654 0
-14.5561 80.7572 -11.5399 0
-14.053 80.6338 -11.4958 0
-15.2594 81.8496 -10.9789 0
-16.1304 82.9707 -11.3332 0
-14.4223 81.0653 -11.0151 0
-14.6348 81.8794 -10.8692 0
-14.6991 82.9785 -10.8958 0
-17.6712 83.1551 -12.7285 0
-17.6947 82.8606 -13.2846 0
-17.2996 83.6996 -11.9536 0
-17.6448 83.513 -12.2037 0
-17.7193 83.8834 -12.766 0
-17.7359 84.4696 -12.8967 0
-17.7318 84.0863 -13.4663 0
-16.2376 83.8345 -11.468 0
-16.9268 83.8784 -11.6548 0
-15.4612 83.7653 -11.2868 0
-16.2932 84.5404 -11.4918 0
-17.0236 85.2008 -11.7098 0
-17.6239 84.746 -12.4209 0
-17.5899 84.871 -13.1927 0
-17.3421 84.3738 -11.9957 0
-17.3324 84.9545 -12.0928 0
-17.1053 85.326 -12.4248 0
-17.4505 85.2851 -13.5624 0
-17.7055 85.0849 -13.9814 0
-17.2054 85.5012 -13.1375 0
-17.5455 85.9088 -13.962 0
-17.862 86.209 -14.7865 0
-15.5443 78.0058 -14.2434 0
-16.5499 79.2583 -13.7934 0
-15.9938 78.5524 -13.9525 0
-16.2645 78.0403 -14.1524 0
-17.1224 78.2529 -14.4588 0
-16.7607 77.4398 -14.3571 0
-17.3322 80.5826 -13.8201 0
-16.9791 79.9344 -13.7345 0
-17.8114 81.8289 -13.7839 0
-17.5479 81.2193 -13.894 0
-17.8535 80.8232 -14.344 0
-18.2629 81.0473 -14.8501 0
-18.2262 80.3938 -14.6816 0
-17.6582 78.9928 -14.4632 0
-17.7553 78.5641 -15.0915 0
-17.3712 79.4993 -14.0639 0
-18.1568 79.7035 -14.4776 0
-18.3849 79.9922 -15.2147 0
-18.2848 78.8953 -15.8133 0
-17.8257 78.0237 -15.5236 0
-18.5868 80.2321 -15.8753 0
-18.468 79.588 -15.8734 0
-18.6353 79.1176 -16.5161 0
-18.9614 79.2998 -17.1449 0
-18.5983 78.6175 -17.1396 0
-17.8329 83.1488 -13.8639 0
-17.7951 82.5109 -13.8448 0
-17.8401 84.2533 -14.1646 0
-17.8323 83.7103 -13.9608 0
-18.0102 83.3277 -14.4763 0
-18.1661 83.5195 -15.0904 0
-18.1772 82.9387 -14.9881 0
-18.0502 85.4105 -14.7808 0
-17.9306 84.8359 -14.4185 0
-17.6964 86.2805 -15.5576 0
-18.0034 85.8985 -15.1578 0
-18.1736 85.6111 -15.5517 0
-17.8307 85.6019 -16.3063 0
-18.1962 85.2465 -15.946 0
-18.1666 84.1135 -15.2931 0
-18.1555 83.6969 -15.7591 0
-18.113 84.5036 -14.8703 0
-18.2765 84.7473 -15.605 0
-18.0507 84.8055 -16.3323 0
-18.1052 83.8739 -16.4342 0
-18.2042 83.2902 -16.2315 0
-17.7193 84.7918 -17.0434 0
-17.9757 84.3791 -16.6927 0
-18.008 84.0098 -17.0269 0
-17.9911 84.1139 -17.642 0
-17.9108 83.6129 -17.3835 0
-18.6552 79.9461 -17.0517 0
-18.7394 79.4982 -17.679 0
-18.5485 80.8699 -15.8776 0
-18.3903 80.3934 -16.4431 0
-18.1 80.5645 -16.9415 0
-18.0242 81.1948 -16.9696 0
-17.835 80.7774 -17.4462 0
-18.2223 81.6914 -14.9044 0
-18.3773 81.2766 -15.3756 0
-18.0164 82.1078 -14.374 0
-18.2179 82.3394 -14.9199 0
-18.2744 82.5157 -15.4855 0
-18.2751 81.6652 -16.4705 0
-18.0333 81.8359 -17.0228 0
-18.5255 81.4958 -15.8937 0
-18.4175 82.0947 -15.9786 0
-18.3091 82.7004 -16.0684 0
-17.9713 82.4498 -17.1051 0
-17.9257 82.0221 -17.5043 0
-18.1053 82.8778 -16.6491 0
-17.9282 83.0578 -17.2045 0
-17.9608 83.2265 -17.7102 0
-17.6249 81.003 -17.925 0
-17.6882 81.6154 -17.9398 0
-10.3898 97.6182 -9.94363 0
-10.821 97.5231 -9.7436 0
-11.2628 97.8541 -9.76429 0
-11.8986 97.4487 -9.81289 0
-11.3083 97.5434 -9.75475 0
-11.2497 97.2206 -9.8533 0
-11.8122 96.8038 -9.93024 0
-12.4459 97.7479 -9.85748 0
-13.4576 97.2265 -9.67769 0
-12.5804 97.3271 -9.84908 0
-14.1598 97.5227 -9.94676 0
-14.9103 97.1149 -10.1125 0
-14.3 97.1387 -9.80149 0
-14.2445 96.8076 -9.69051 0
-14.6664 96.4574 -9.86263 0
-14.097 96.4677 -9.69973 0
-12.5583 96.6672 -9.8766 0
-12.3891 96.4074 -9.80355 0
-12.6302 96.9763 -9.85033 0
-13.3592 96.5364 -9.71381 0
-13.8752 96.1448 -9.68759 0
-12.9001 95.9716 -9.70701 0
-14.2094 95.741 -9.85269 0
-13.5933 95.8275 -9.68112 0
-13.3183 95.502 -9.66995 0
-13.6199 94.9696 -9.75351 0
-15.4601 97.5402 -10.4708 0
-16.0739 97.2122 -10.618 0
-15.4277 97.1355 -10.3977 0
-16.9672 97.7752 -10.9097 0
-17.475 97.5208 -11.0696 0
-16.8416 97.3179 -10.8163 0
-16.4788 96.9769 -10.8174 0
-16.8857 96.7135 -11.0506 0
-16.1693 96.6339 -10.7546 0
-17.8269 98.3711 -11.4715 0
-18.2208 98.1289 -11.5963 0
-17.8604 97.8266 -11.3212 0
-18.5351 98.9742 -12.0767 0
-19.0036 98.5728 -12.5802 0
-18.601 98.3645 -12.0733 0
-18.4011 97.8892 -12.1365 0
-18.5782 97.6525 -12.7049 0
-18.2904 97.3493 -12.2831 0
-17.4756 96.8479 -11.5044 0
-17.0936 96.4676 -11.5126 0
-17.7278 97.2966 -11.4727 0
-17.9986 97.043 -11.8864 0
-18.0356 96.8768 -12.4281 0
-17.2068 96.2231 -12.016 0
-16.6385 96.1125 -11.5116 0
-17.9143 96.8071 -13.0057 0
-17.6233 96.4673 -12.4992 0
-17.2011 96.0405 -12.5178 0
-17.0036 95.9448 -12.987 0
-16.7262 95.5858 -12.4257 0
-14.1321 94.8752 -9.96968 0
-13.8518 94.4362 -9.87759 0
-14.7287 95.7114 -10.0028 0
-14.4165 95.3066 -10.019 0
-14.6116 94.8308 -10.1631 0
-14.9937 94.9383 -10.4308 0
-14.5873 94.4115 -10.4359 0
-15.1318 96.4562 -10.1112 0
-14.9566 96.1203 -9.98654 0
-15.2939 96.7821 -10.256 0
-15.5948 96.5221 -10.3847 0
-15.9346 96.2461 -10.5674 0
-15.2191 95.4739 -10.4631 0
-15.2643 95.1693 -10.784 0
-15.1323 95.7805 -10.1873 0
-15.501 95.9414 -10.5046 0
-16.0684 96.0305 -10.917 0
-15.6339 95.3973 -11.237 0
-15.0288 94.9428 -11.1909 0
-16.1797 95.7613 -11.3813 0
-16.196 95.4688 -11.8479 0
-16.1476 95.1646 -12.2751 0
-13.8166 93.9086 -10.1678 0
-14.3783 94.0805 -10.8019 0
-14.2414 93.8273 -10.4358 0
-13.7151 93.3657 -10.4805 0
-13.7818 92.7694 -10.8474 0
-14.9162 94.5746 -11.6667 0
-14.4833 94.4162 -11.184 0
-15.9284 94.9461 -12.6458 0
-15.4734 94.7026 -12.1537 0
-14.6736 94.1903 -12.0519 0
-14.4117 93.8232 -12.4317 0
-14.3351 93.4464 -12.1638 0
-14.0848 92.8515 -11.3736 0
-13.734 92.2773 -11.395 0
-14.2613 93.6627 -11.2568 0
-14.3041 93.1217 -11.8545 0
-13.9367 92.7582 -12.3046 0
-13.5662 91.7643 -11.8965 0
-13.0384 92.7148 -12.6251 0
-13.5957 92.0362 -12.362 0
-13.3483 91.2487 -12.3813 0
-12.4258 91.0821 -12.8235 0
-19.1984 99.3036 -13.241 0
-19.3873 98.9659 -13.6749 0
-19.3121 98.7599 -13.1142 0
-19.3904 99.6953 -14.3701 0
-19.4282 99.2469 -14.999 0
-19.4705 99.1775 -14.247 0
-19.3851 98.763 -14.2002 0
-19.3953 98.5563 -14.6306 0
-19.2821 98.3689 -14.1438 0
-19.5742 99.4993 -16.272 0
-19.3375 99.3139 -15.8024 0
-20.7594 99.4809 -15.7622 0
-22.4618 99.1733 -15.3439 0
-21.1718 99.0185 -15.3998 0
-19.508 98.7336 -15.1916 0
-19.4739 98.4464 -15.2024 0
-19.4253 99.0153 -15.4957 0
-20.0001 98.8915 -15.3862 0
-21.553 98.6253 -15.0238 0
-20.4329 98.2177 -14.7309 0
-19.4802 98.1784 -15.1544 0
-23.1504 97.7961 -14.9431 0
-21.8474 97.9417 -15.0183 0
-22.0952 97.294 -14.9626 0
-23.078 96.5711 -14.8817 0
-21.9048 96.7704 -14.8164 0
-23.1131 96.8738 -15.7697 0
-22.9329 96.3379 -15.8889 0
-23.3903 97.846 -15.9072 0
-23.2074 97.4151 -15.8351 0
-23.399 96.9385 -16.7694 0
-24.0187 96.7105 -17.862 0
-23.7278 96.3371 -17.9356 0
-23.3372 98.9875 -16.0494 0
-23.4062 98.3859 -16.0041 0
-25.0013 97.8186 -17.4671 0
-24.2741 97.1094 -17.8247 0
-24.4203 96.7483 -18.8039 0
-23.7973 97.7809 -16.9183 0
-24.627 97.4614 -17.6539 0
-25.1671 97.3109 -18.3713 0
-24.8884 96.6388 -19.5755 0
-24.5047 96.4476 -19.7993 0
-25.2695 96.869 -19.3149 0
-25.4867 96.1904 -20.3564 0
-25.6359 95.6005 -21.3628 0
-23.0118 95.9321 -16.9663 0
-22.7585 95.7898 -15.9907 0
-23.8859 95.9612 -19.016 0
-23.4616 95.9375 -18.0116 0
-23.1384 95.5776 -18.0807 0
-23.4119 95.0472 -19.1631 0
-22.7814 95.2247 -18.1336 0
-25.0546 95.3666 -20.7829 0
-24.3586 95.9126 -19.9508 0
-25.8484 95.0118 -22.2208 0
-25.5162 95.0607 -21.5677 0
-25.3849 94.5568 -21.7313 0
-25.3843 94.2138 -22.6154 0
-25.0963 94.2405 -21.9261 0
-24.0188 94.8386 -20.1969 0
-23.7236 94.5673 -20.2084 0
-24.2209 95.3226 -20.0737 0
-24.6497 94.4799 -21.0907 0
-24.7126 94.075 -22.085 0
-23.9384 94.0556 -21.2829 0
-23.4184 94.2889 -20.1751 0
-24.7974 93.7056 -22.8548 0
-24.3728 93.8897 -22.1854 0
-24.4063 93.5243 -22.0784 0
-24.6858 93.0363 -22.7604 0
-24.5573 93.1025 -21.8833 0
-11.8415 91.789 -13.1985 0
-11.3607 90.9735 -13.2722 0
-12.9689 93.1238 -12.8557 0
-12.2015 92.6282 -13.0185 0
-11.3981 92.4609 -13.5378 0
-11.2962 92.9144 -13.7798 0
-10.5361 92.4028 -14.0029 0
-14.8412 94.1311 -12.8494 0
-13.8381 93.5718 -12.741 0
-16.2213 95.3286 -13.2171 0
-15.5911 94.727 -12.9071 0
-15.2328 94.5257 -13.2438 0
-15.6782 94.9154 -13.7622 0
-14.7122 94.2974 -13.4751 0
-12.3085 93.2858 -13.4106 0
-11.8603 93.0757 -13.9578 0
-13.1148 93.3943 -13.0068 0
-13.4659 93.725 -13.2577 0
-14.3646 93.9586 -13.7415 0
-12.5826 93.2713 -14.258 0
-11.4903 92.9835 -14.5782 0
-15.456 94.1191 -14.2771 0
-14.0282 93.6703 -14.2163 0
-14.3304 93.1275 -14.3873 0
-16.988 92.1559 -14.0241 0
-15.2919 91.9606 -13.7586 0
-17.2937 96.3071 -13.487 0
-16.7816 95.8504 -13.4154 0
-18.2097 97.1306 -13.4194 0
-17.7844 96.7504 -13.5332 0
-17.6328 96.7243 -14.0892 0
-17.9307 97.0975 -14.5776 0
-17.457 96.7472 -14.7191 0
-18.9171 97.8873 -13.1916 0
-18.6128 97.5001 -13.2695 0
-19.1565 98.3221 -13.1415 0
-19.1243 98.1352 -13.6373 0
-19.0547 98.0302 -14.1769 0
-18.3421 97.4183 -14.3929 0
-18.3829 97.3426 -14.903 0
-18.4774 97.4437 -13.8243 0
-18.7145 97.7416 -14.2915 0
-19.125 97.9813 -14.6492 0
-19.0899 97.4707 -15.2403 0
-18.7597 97.0953 -15.3269 0
-19.389 97.8476 -15.1597 0
-20.4501 97.1755 -14.8554 0
-21.6221 96.2959 -14.6499 0
-18.3038 92.7899 -14.0463 0
-19.3633 91.9051 -14.28 0
-16.5855 94.7144 -14.5112 0
-17.348 93.7928 -14.3952 0
-19.3709 93.4354 -13.9824 0
-19.9501 94.1983 -13.6496 0
-20.8037 93.3889 -14.5833 0
-16.3917 95.5244 -14.0431 0
-16.2953 95.2998 -14.4065 0
-16.5305 95.7527 -13.7948 0
-16.921 96.2223 -14.5276 0
-17.3975 96.7226 -15.46 0
-19.1961 94.7348 -14.7026 0
-20.4707 94.844 -13.7333 0
-17.4543 95.2868 -15.0597 0
-18.1414 95.8835 -15.483 0
-18.4937 96.4945 -15.3919 0
-20.9015 95.3368 -14.2296 0
-21.7386 94.518 -15.2242 0
-20.0161 95.9936 -14.8113 0
-21.262 95.8103 -14.6383 0
-22.5165 95.5411 -15.112 0
-20.5976 92.269 -15.6807 0
-19.9886 91.6227 -15.3282 0
-21.4999 93.5551 -15.9115 0
-21.1339 92.9306 -15.8696 0
-21.2965 92.5874 -16.9179 0
-21.6416 93.0445 -17.9959 0
-21.3268 92.4033 -17.9273 0
-22.1767 94.7095 -16.1053 0
-21.8696 94.1341 -16.0096 0
-22.4237 95.2877 -16.1131 0
-22.4661 94.9836 -17.0437 0
-22.4958 94.761 -18.1354 0
-21.9436 93.6556 -18.0559 0
-22.5442 93.1579 -18.9958 0
-21.9481 93.8329 -16.988 0
-22.2396 94.2228 -18.1023 0
-22.8102 94.3471 -19.1344 0
-23.2631 93.2641 -20.0103 0
-23.1289 92.6621 -19.9321 0
-23.3319 93.8567 -20.0727 0
-24.1227 93.2129 -20.8904 0
-24.5991 92.6529 -21.7173 0
-10.4533 90.9071 -13.7401 0
-10.2024 92.3081 -14.621 0
-10.0492 91.7334 -14.092 0
-9.53838 90.8741 -14.3312 0
-9.21458 90.5998 -15.1674 0
-11.7516 92.7714 -15.0421 0
-10.6087 92.7076 -14.9857 0
-16.8128 90.8403 -14.1397 0
-13.853 91.894 -14.4116 0
-12.6291 91.6898 -15.0872 0
-13.8042 90.743 -14.9287 0
-11.8221 91.2987 -15.7366 0
-9.6163 91.2488 -15.5493 0
-9.20296 90.3074 -15.7058 0
-10.0716 92.0239 -15.3181 0
-10.3786 91.4661 -15.9084 0
-11.263 90.9578 -16.207 0
-9.69189 90.1413 -15.98 0
-12.2721 90.2881 -16.229 0
-10.8345 90.5179 -16.1576 0
-10.475 89.7617 -15.9341 0
-11.4344 89.273 -15.741 0
-20.4111 91.3401 -16.4561 0
-19.1175 90.9021 -14.9383 0
-21.805 91.9921 -18.7856 0
-21.059 91.7663 -17.687 0
-20.8485 91.1069 -17.3643 0
-21.364 90.7103 -18.1885 0
-20.3472 90.4016 -17.0393 0
-23.6075 92.128 -20.7391 0
-22.7368 92.1274 -19.7848 0
-24.8602 92.0954 -22.4673 0
-24.3091 92.1627 -21.6157 0
-24.0153 91.6521 -21.4563 0
-24.3407 91.1289 -22.0878 0
-23.6852 91.1027 -21.1687 0
-22.1192 90.9121 -19.2976 0
-21.8786 90.2676 -18.9742 0
-22.3374 91.5643 -19.6015 0
-22.8902 91.0209 -20.2664 0
-23.3511 90.5174 -20.8608 0
-22.1324 89.8926 -19.7445 0
-21.3489 89.6747 -18.6485 0
-23.5718 90.1013 -21.4714 0
-22.8105 90.0446 -20.6494 0
-22.2952 89.5443 -20.4224 0
-22.4692 89.1886 -20.9128 0
-21.7865 89.0164 -20.0667 0
-12.6764 89.4397 -15.4778 0
-12.4639 89.0004 -14.9939 0
-14.0708 89.8156 -15.5815 0
-13.2897 89.5729 -15.8381 0
-13.9528 89.2804 -15.6547 0
-15.3922 89.155 -16.25 0
-14.8657 88.9112 -15.7558 0
-16.4844 90.2198 -14.8866 0
-15.0184 90.0678 -15.1676 0
-18.0171 90.4151 -14.6749 0
-18.8122 90.0743 -15.7607 0
-19.5715 89.7693 -16.5885 0
-16.8019 89.3789 -16.5378 0
-17.4413 89.0231 -17.1151 0
-16.0684 89.6237 -15.7847 0
-18.3105 89.5428 -16.4088 0
-20.2007 89.4128 -17.2874 0
-19.6245 88.6503 -17.5377 0
-18.0263 88.549 -17.5046 0
-20.6213 89.1079 -18.1563 0
-20.9761 88.8188 -18.9196 0
-21.1769 88.5299 -19.5915 0
-13.6112 88.7604 -14.7539 0
-15.7053 88.6055 -16.1283 0
-14.689 88.7167 -15.2872 0
-14.6109 88.4372 -14.9083 0
-15.4675 88.2904 -14.9674 0
-18.5593 88.1374 -17.9421 0
-16.8811 88.4409 -16.9601 0
-21.457 88.1927 -19.9842 0
-20.4595 88.0217 -18.7816 0
-19.0587 87.7087 -18.2419 0
-19.5262 87.3327 -18.5408 0
-18.0218 87.7565 -17.5339 0
-16.3509 88.2824 -15.6719 0
-16.1921 88.1394 -15.0598 0
-16.4364 88.3836 -16.341 0
-16.9944 88.1383 -16.6341 0
-17.4644 87.7894 -16.8963 0
-16.7006 87.8096 -15.2422 0
-17.85 87.3942 -17.1332 0
-17.2973 87.5881 -16.1736 0
-17.0999 87.3791 -15.4708 0
-17.4116 86.9821 -15.7225 0
-17.8922 86.8366 -16.6613 0
-17.5506 86.6439 -16.039 0
-18.9126 86.9708 -17.9727 0
-18.2263 87.0159 -17.3508 0
-18.3966 86.6469 -17.6566 0
-19.4623 86.3313 -18.5719 0
-18.566 86.2822 -17.9398 0
-21.2307 87.2969 -19.4024 0
-19.9633 87.0035 -18.746 0
-22.2779 88.2903 -20.834 0
-21.8426 87.7973 -20.2137 0
-22.1781 87.4467 -20.4613 0
-22.9517 87.5707 -21.293 0
-22.2446 87.2514 -20.8185 0
-20.4768 86.5757 -19.493 0
-20.535 86.4515 -19.9364 0
-20.3518 86.7235 -19.0091 0
-21.459 86.9077 -20.2467 0
-22.3894 86.9901 -21.1445 0
-21.7295 86.4457 -20.8324 0
-20.6233 86.2937 -20.3144 0
-23.3242 86.9523 -21.9157 0
-22.5904 86.68 -21.3969 0
-22.8421 86.3581 -21.6066 0
-23.6636 86.287 -22.4608 0
-23.0517 86.0302 -21.8524 0
-23.2869 89.2174 -21.635 0
-22.754 88.7488 -21.259 0
-24.2864 90.1333 -22.29 0
-23.8131 89.6568 -21.9893 0
-24.081 89.2373 -22.3678 0
-24.7247 89.2871 -23.1328 0
-24.2754 88.8381 -22.7393 0
-24.9295 91.1359 -22.8804 0
-24.6585 90.6345 -22.6279 0
-25.1586 92.0835 -23.2433 0
-25.1605 91.6119 -23.0842 0
-25.4923 91.1958 -23.6025 0
-25.9585 91.3172 -24.209 0
-25.8038 90.802 -24.0749 0
-25.113 89.7877 -23.5257 0
-25.3173 89.3694 -23.8791 0
-24.8877 90.2082 -23.0956 0
-25.4639 90.2922 -23.8213 0
-26.0226 90.5035 -24.6442 0
-25.9253 89.4877 -24.6699 0
-25.5351 88.9476 -24.2042 0
-26.6371 90.728 -25.1337 0
-26.2876 90.1559 -25.2165 0
-26.4335 89.7248 -25.2599 0
-27.0229 89.9497 -25.278 0
-26.5198 89.2979 -25.2187 0
-24.1879 86.6101 -23.0707 0
-23.8795 87.2832 -22.4151 0
-24.0583 86.9626 -22.7491 0
-24.6396 86.9735 -23.6657 0
-25.0225 87.3661 -24.1275 0
-23.4087 87.9793 -21.8059 0
-23.6655 87.6017 -22.1018 0
-23.0869 88.3599 -21.5406 0
-23.8326 88.4037 -22.3136 0
-24.5141 88.4431 -23.0701 0
-24.8668 87.7159 -23.7432 0
-24.3513 87.6463 -22.9266 0
-24.7165 88.0708 -23.3944 0
-25.0847 88.5093 -23.8373 0
-25.9056 88.16 -24.675 0
-25.7222 88.5542 -24.581 0
-26.319 88.6331 -24.9231 0
-25.0164 93.0655 -23.4152 0
-25.0441 92.5693 -23.3762 0
-25.2347 93.6989 -23.4132 0
-25.1261 93.3857 -23.4169 0
-25.5602 93.129 -23.9321 0
-25.9941 93.1873 -24.2388 0
-25.9442 92.7172 -24.2574 0
-25.5916 94.4232 -23.167 0
-25.2719 94.1324 -23.3349 0
-26.069 95.2012 -22.6657 0
-25.8903 94.7157 -22.9473 0
-25.7379 94.7626 -23.6241 0
-25.9993 93.67 -24.2015 0
-26.3535 93.2638 -24.3626 0
-25.5173 93.9957 -23.8842 0
-25.9014 94.1464 -24.1594 0
-26.5938 92.8639 -24.3138 0
-27.7324 90.6108 -25.0697 0
-26.9516 91.2449 -24.86 0
-27.4298 90.9651 -24.9684 0
-27.7002 91.1384 -24.8437 0
-26.0133 91.8031 -24.3156 0
-26.4941 91.5345 -24.6111 0
-25.5345 92.1376 -23.8832 0
-25.9077 92.239 -24.2463 0
-26.1746 92.3305 -24.4077 0
-26.8732 91.8359 -24.5702 0
-26.735 91.6823 -24.6841 0
-26.5376 92.0756 -24.5525 0
-26.471 92.3975 -24.3585 0
-17.6905 86.3107 -16.3459 0
-18.7656 85.9979 -18.2691 0
-18.1576 86.1194 -17.2537 0
-17.6941 85.9224 -16.7203 0
-17.6419 85.5355 -17.1104 0
-20.9423 85.9851 -20.491 0
-19.7802 86.0229 -19.4794 0
-22.2392 85.8356 -21.2222 0
-21.2396 85.6789 -20.616 0
-20.4433 85.3936 -19.7688 0
-18.3656 85.4373 -17.8708 0
-17.7135 85.1737 -17.4176 0
-19.0504 85.7058 -18.4878 0
-19.3132 85.4119 -18.6906 0
-19.6241 85.1352 -18.9582 0
-17.905 84.8652 -17.6926 0
-18.8226 84.8502 -18.3828 0
-18.0816 84.561 -17.9644 0
-18.2582 84.2496 -18.2569 0
-18.7038 99.7211 -12.7104 0
-19.0988 99.8532 -13.3173 0
-18.1101 99.3454 -11.6494 0
-18.4072 99.5658 -12.1163 0
-17.4336 98.6303 -11.3381 0
-17.7807 98.9911 -11.4992 0
-17.6363 99.6848 -11.362 0
-16.9745 100.063 -10.9917 0
-16.1199 98.1577 -10.7096 0
-16.8857 98.3522 -11.0371 0
-14.6232 97.973 -10.3108 0
-15.3175 98.055 -10.4845 0
-14.9403 98.5659 -10.655 0
-13.783 98.942 -10.7393 0
-14.5048 99.0888 -10.872 0
-16.1922 99.6748 -11.0358 0
-16.6031 98.9414 -11.1792 0
-15.3127 99.3214 -11.019 0
-13.064 98.0881 -10.0358 0
-13.8974 97.9851 -10.1111 0
-11.6686 98.1719 -9.92038 0
-12.2515 98.178 -9.95576 0
-12.0157 98.581 -10.1649 0
-11.2723 98.9341 -10.3022 0
-11.7808 99.0076 -10.3942 0
-10.7055 97.9842 -9.99229 0
-11.139 98.1547 -9.89602 0
-9.95932 97.6789 -10.0833 0
-10.3058 97.8244 -10.0721 0
-10.17 98.0572 -10.23 0
-9.68778 98.1202 -10.3839 0
-10.0413 98.3269 -10.4365 0
-10.8215 98.7704 -10.2923 0
-10.9792 98.4523 -10.0703 0
-10.4151 98.5482 -10.3675 0
-9.91504 98.6362 -10.6878 0
-13.0534 98.9951 -10.6104 0
-13.4683 98.4843 -10.3701 0
-12.3359 99.0653 -10.4875 0
-18.1883 100.181 -12.0849 0
-9.34446 97.9498 -10.2766 0
-9.49478 97.7481 -10.0879 0
-8.25414 96.7518 -10.5327 0
-7.81977 96.4454 -10.6518 0
-8.58957 97.0471 -10.3717 0
-7.72488 95.9395 -10.5965 0
-7.97135 95.8458 -10.3899 0
-7.66596 95.3116 -10.5613 0
-7.11317 92.8074 -8.43001 0
-7.07914 93.0575 -7.69284 0
-7.17425 92.7116 -9.78467 0
-7.12646 92.6871 -9.16114 0
-7.54068 94.5139 -10.4825 0
-7.74432 94.3759 -10.2646 0
-7.40453 93.0187 -9.92073 0
-7.42008 93.5912 -10.2913 0
-6.88207 93.1578 -7.0306 0
-6.96075 92.8654 -6.76498 0
-6.63219 92.7649 -6.18742 0
-6.67567 92.2525 -6.00826 0
-5.86563 91.4763 -5.28989 0
-5.86976 90.9088 -4.97991 0
-6.29477 91.9835 -5.50931 0
-5.2707 89.9774 -5.44255 0
-5.31702 89.3413 -5.63057 0
-5.51315 88.7199 -5.95297 0
-4.87456 87.7471 -6.67362 0
-4.8722 87.2169 -6.89961 0
-4.74279 86.8279 -7.24894 0
-4.59704 86.35 -7.80391 0
-4.46037 86.2463 -8.56673 0
-3.86059 85.8214 -9.40067 0
-4.25888 86.8947 -11.2388 0
-4.3212 87.0058 -11.8604 0
-3.72211 85.8857 -9.86599 0
-4.19525 85.9347 -9.52809 0
-4.2292 86.6486 -10.6448 0
-3.84339 86.7982 -10.9087 0
-3.73653 86.192 -10.3647 0
-4.71812 86.4254 -11.7405 0
-4.26825 85.593 -12.5713 0
-4.34387 84.9632 -12.9593 0
-4.46646 86.1069 -12.2147 0
-5.82121 82.6805 -13.5083 0
-6.3672 81.9552 -13.8196 0
-4.60829 84.0661 -13.3348 0
-5.28354 83.332 -13.1434 0
-13.8664 78.7183 -15.5401 0
-14.3134 78.2341 -14.8752 0
-13.7016 79.3051 -15.6165 0
-13.5334 79.7464 -15.6377 0
-13.3705 80.1967 -15.6552 0
-12.9303 80.3343 -16.0269 0
-12.6026 80.2069 -15.802 0
-12.0853 79.8424 -15.438 0
-11.5305 79.5685 -15.0671 0
-10.773 79.8439 -14.6909 0
-10.0189 80.0913 -14.3807 0
-9.29204 80.2841 -14.1781 0
-8.56929 80.5301 -13.984 0
-7.75419 80.9974 -14.3253 0
-6.99784 81.3978 -14.0864 0
-14.6025 77.6988 -15.0119 0
-15.2589 77.5577 -14.6728 0
-18.8256 78.8182 -17.7448 0
-18.6889 79.0264 -18.2492 0
-18.2674 79.7077 -18.1222 0
-17.8714 80.3639 -18.0032 0
-17.7244 80.6155 -18.5051 0
-17.9052 82.1943 -17.9436 0
-17.7038 81.8018 -18.3873 0
-17.9333 82.795 -18.036 0
-18.2879 83.3701 -18.2411 0
-17.5189 81.2371 -18.4068 0
-15.5815 77.0784 -14.9426 0
-16.3616 76.9238 -14.7157 0
-17.0679 76.9024 -14.76 0
-17.4292 77.2102 -15.3675 0
-17.8368 77.5118 -16.157 0
-18.2424 77.86 -17.0478 0
-18.5234 78.1067 -17.7202 0
-19.3558 99.7857 -15.0935 0
-19.2712 99.8799 -15.8474 0
-19.4193 100.018 -16.4582 0
-21.7437 100.184 -15.9387 0
-20.2891 99.7591 -16.4381 0
-26.0653 96.4004 -21.5194 0
-25.7505 96.3178 -21.0253 0
-23.2791 99.5982 -16.006 0
-24.2255 98.6743 -16.8398 0
-25.1719 98.3302 -17.4313 0
-25.5314 97.7168 -18.16 0
-25.6286 97.2531 -19.0687 0
-25.621 96.8797 -20.0405 0
-23.7782 85.9442 -22.7521 0
-26.8505 89.4583 -25.1993 0
-24.3145 86.2467 -23.3567 0
-24.7704 86.6124 -23.989 0
-25.088 87.0228 -24.5256 0
-25.3853 87.4412 -25.0011 0
-25.3504 87.7824 -24.5788 0
-26.005 87.7993 -24.9354 0
-26.4953 88.2236 -24.9737 0
-26.6497 88.8146 -25.1391 0
-26.0117 95.0382 -23.3567 0
-25.8302 94.5732 -24.0111 0
-26.0149 94.8849 -23.7683 0
-26.3408 94.1478 -24.1671 0
-26.7133 93.333 -24.2626 0
-26.9437 92.9145 -24.0427 0
-26.7638 93.8249 -24.1494 0
-26.1946 95.8515 -22.3229 0
-26.2232 95.4676 -23.0546 0
-27.4532 90.1037 -24.9783 0
-27.9373 90.719 -24.7715 0
-27.6915 91.2083 -24.6026 0
-27.2934 91.5751 -24.6227 0
-27.0886 91.951 -24.3984 0
-26.7879 92.181 -24.3709 0
-26.8235 92.4665 -24.1112 0
-23.2039 85.6822 -22.0778 0
-22.416 85.5025 -21.4232 0
-21.5178 85.3655 -20.7705 0
-20.714 85.1382 -20.0346 0
-19.8813 84.904 -19.2856 0
-18.4075 83.9111 -18.5337 0
-19.2675 84.2946 -19.0004 0
-20.1158 84.6679 -19.5972 0
-19.3167 100.222 -14.4633 0
-19.206 100.036 -13.8811 0
-18.4947 100.334 -12.6497 0
-19.0444 100.429 -13.206 0
-17.3738 100.334 -11.2932 0
-16.8074 100.656 -11.1927 0
-13.662 99.474 -11.0468 0
-16.11 100.164 -11.3119 0
-15.2541 99.8168 -11.3363 0
-14.3769 99.6416 -11.2011 0
-11.1407 99.358 -10.5963 0
-9.55855 98.39 -10.6184 0
-10.69 99.1635 -10.5692 0
-10.2947 98.8766 -10.6298 0
-9.7712 98.9646 -10.952 0
-9.40896 98.7047 -10.8592 0
-12.9506 99.5405 -10.8927 0
-12.226 99.5908 -10.7459 0
-11.6565 99.48 -10.679 0
-17.9734 100.818 -12.0083 0
-17.6678 100.582 -11.6459 0
-9.20654 98.1575 -10.5264 0
-8.90523 97.8973 -10.416 0
-9.03354 97.7526 -10.1536 0
-8.71914 97.4742 -10.3384 0
371 1488 1489 0
370 1490 1488 0
370 1488 371 0
91 370 371 0
371 1489 1491 0
371 1491 1492 0
91 371 1492 0
373 1492 1493 0
372 91 1492 0
372 1492 373 0
24 372 373 0
376 374 1490 0
375 92 374 0
375 374 376 0
94 375 376 0
379 377 92 0
378 0 377 0
378 377 379 0
93 378 379 0
380 375 94 0
379 92 375 0
379 375 380 0
93 379 380 0
382 380 94 0
381 93 380 0
381 380 382 0
23 381 382 0
384 372 24 0
383 91 372 0
383 372 384 0
95 383 384 0
385 370 91 0
376 1490 370 0
376 370 385 0
94 376 385 0
386 383 95 0
385 91 383 0
385 383 386 0
94 385 386 0
387 386 95 0
382 94 386 0
382 386 387 0
23 382 387 0
389 384 24 0
388 95 384 0
388 384 389 0
97 388 389 0
391 387 95 0
390 23 387 0
390 387 391 0
96 390 391 0
392 388 97 0
391 95 388 0
391 388 392 0
96 391 392 0
394 392 97 0
393 96 392 0
393 392 394 0
7 393 394 0
99 1494 1495 0
98 1496 1497 0
395 1494 99 0
1497 1494 395 0
98 1497 395 0
397 395 99 0
396 98 395 0
396 395 397 0
25 396 397 0
373 1493 1498 0
373 1498 1499 0
24 373 1499 0
399 396 25 0
398 98 396 0
398 396 399 0
100 398 399 0
1500 1496 98 0
400 398 100 0
1500 98 398 0
1500 398 400 0
1501 1500 400 0
401 400 100 0
1499 1501 400 0
1499 400 401 0
24 1499 401 0
403 399 25 0
402 100 399 0
402 399 403 0
101 402 403 0
404 401 100 0
389 24 401 0
389 401 404 0
97 389 404 0
405 402 101 0
404 100 402 0
404 402 405 0
97 404 405 0
406 405 101 0
394 97 405 0
394 405 406 0
7 394 406 0
407 99 1495 0
407 1495 1502 0
1503 407 1502 0
409 397 99 0
408 25 397 0
408 397 409 0
102 408 409 0
410 407 1503 0
409 99 407 0
409 407 410 0
102 409 410 0
412 410 1503 0
411 102 410 0
411 410 412 0
27 411 412 0
414 403 25 0
413 101 403 0
413 403 414 0
104 413 414 0
416 406 101 0
415 7 406 0
415 406 416 0
103 415 416 0
417 413 104 0
416 101 413 0
416 413 417 0
103 416 417 0
419 417 104 0
418 103 417 0
418 417 419 0
26 418 419 0
421 411 27 0
420 102 411 0
420 411 421 0
105 420 421 0
422 408 102 0
414 25 408 0
414 408 422 0
104 414 422 0
423 420 105 0
422 102 420 0
422 420 423 0
104 422 423 0
424 423 105 0
419 104 423 0
419 423 424 0
26 419 424 0
426 421 27 0
425 105 421 0
425 421 426 0
107 425 426 0
428 424 105 0
427 26 424 0
427 424 428 0
106 427 428 0
429 425 107 0
428 105 425 0
428 425 429 0
106 428 429 0
431 429 107 0
430 106 429 0
430 429 431 0
2 430 431 0
412 1503 1504 0
412 1504 1505 0
27 412 1505 0
108 1506 1507 0
1508 1506 108 0
432 1508 108 0
1505 1508 432 0
27 1505 432 0
434 1507 1509 0
433 108 1507 0
433 1507 434 0
109 433 434 0
435 432 108 0
426 27 432 0
426 432 435 0
107 426 435 0
436 433 109 0
435 108 433 0
435 433 436 0
107 435 436 0
437 436 109 0
431 107 436 0
431 436 437 0
2 431 437 0
1510 434 1509 0
438 109 434 0
438 434 1510 0
1511 438 1510 0
440 437 109 0
439 2 437 0
439 437 440 0
110 439 440 0
441 438 1511 0
440 109 438 0
440 438 441 0
110 440 441 0
443 441 1511 0
442 110 441 0
442 441 443 0
28 442 443 0
443 1511 1512 0
443 1512 1513 0
28 443 1513 0
1514 28 1513 0
444 28 1514 0
444 1514 1515 0
111 444 1515 0
111 1515 1516 0
446 1516 1517 0
445 111 1516 0
445 1516 446 0
30 445 446 0
448 442 28 0
447 110 442 0
447 442 448 0
113 447 448 0
450 439 110 0
449 2 439 0
449 439 450 0
112 449 450 0
451 447 113 0
450 110 447 0
450 447 451 0
112 450 451 0
453 451 113 0
452 112 451 0
452 451 453 0
29 452 453 0
455 445 30 0
454 111 445 0
454 445 455 0
114 454 455 0
456 444 111 0
448 28 444 0
448 444 456 0
113 448 456 0
457 454 114 0
456 111 454 0
456 454 457 0
113 456 457 0
458 457 114 0
453 113 457 0
453 457 458 0
29 453 458 0
460 455 30 0
459 114 455 0
459 455 460 0
116 459 460 0
462 458 114 0
461 29 458 0
461 458 462 0
115 461 462 0
463 459 116 0
462 114 459 0
462 459 463 0
115 462 463 0
465 463 116 0
464 115 463 0
464 463 465 0
8 464 465 0
31 1518 1519 0
446 1517 1520 0
446 1520 1521 0
30 446 1521 0
466 1518 31 0
1522 1518 466 0
117 1522 466 0
467 1522 117 0
1523 1522 467 0
1524 1523 467 0
468 467 117 0
1521 1524 467 0
1521 467 468 0
30 1521 468 0
470 466 31 0
469 117 466 0
469 466 470 0
118 469 470 0
471 468 117 0
460 30 468 0
460 468 471 0
116 460 471 0
472 469 118 0
471 117 469 0
471 469 472 0
116 471 472 0
473 472 118 0
465 116 472 0
465 472 473 0
8 465 473 0
1525 31 1519 0
475 470 31 0
474 118 470 0
474 470 475 0
120 474 475 0
477 473 118 0
476 8 473 0
476 473 477 0
119 476 477 0
478 474 120 0
477 118 474 0
477 474 478 0
119 477 478 0
480 478 120 0
479 119 478 0
479 478 480 0
32 479 480 0
482 1526 1527 0
481 1528 1526 0
481 1526 482 0
121 481 482 0
483 1525 1528 0
475 31 1525 0
475 1525 483 0
120 475 483 0
484 481 121 0
483 1528 481 0
483 481 484 0
120 483 484 0
485 484 121 0
480 120 484 0
480 484 485 0
32 480 485 0
487 482 1527 0
486 121 482 0
486 482 487 0
123 486 487 0
489 485 121 0
488 32 485 0
488 485 489 0
122 488 489 0
490 486 123 0
489 121 486 0
489 486 490 0
122 489 490 0
492 490 123 0
491 122 490 0
491 490 492 0
4 491 492 0
494 430 2 0
493 106 430 0
493 430 494 0
125 493 494 0
496 427 106 0
