#!ascii - generated by CreateLabelFiles project 
1639 3125
-9.30619 92.0306 -7.67856 0
-10.0365 91.1536 -6.70638 0
-10.7305 91.1264 -7.54246 0
-10.5701 90.0817 -6.13674 0
-10.0293 96.217 -9.4664 0
-9.85078 94.79 -9.60644 0
-10.9114 97.4123 -9.93239 0
-10.5557 96.8507 -9.92465 0
-11.2764 96.1494 -10.0563 0
-12.8089 95.9361 -9.71028 0
-12.0103 95.37 -9.65486 0
-10.8845 92.4342 -8.5696 0
-11.4958 90.9914 -8.38472 0
-10.3337 93.8213 -9.13872 0
-11.2175 94.2591 -9.35364 0
-12.3756 94.1079 -9.85285 0
-12.5043 90.8029 -9.33572 0
-12.5102 89.4541 -8.28663 0
-13.3823 93.7491 -10.2748 0
-12.6228 92.5781 -10.0764 0
-13.3168 90.7758 -10.4685 0
-13.4692 91.139 -11.8168 0
-12.7764 89.5389 -11.4325 0
-6.40897 83.4363 -10.3568 0
-6.93591 81.994 -11.3059 0
-7.82888 85.4682 -7.87834 0
-7.0264 84.792 -9.38803 0
-7.92424 84.0411 -9.51326 0
-9.61985 84.5985 -9.07316 0
-8.90035 83.1625 -9.73441 0
-8.71592 87.0957 -5.14426 0
-8.46061 86.2672 -6.43213 0
-8.67151 88.6261 -4.88849 0
-9.71288 88.6738 -5.32135 0
-10.9956 88.7975 -5.95486 0
-10.5566 85.4973 -7.80522 0
-10.7084 85.4831 -9.9399 0
-9.37356 86.0518 -6.9542 0
-10.7122 87.4014 -6.85062 0
-12.3682 88.4767 -7.1347 0
-11.1607 87.1645 -10.4024 0
-10.4538 85.7222 -11.3736 0
-12.5695 88.4125 -8.87305 0
-12.0352 88.3856 -10.9278 0
-11.184 88.7262 -12.697 0
-8.56083 81.0124 -11.009 0
-8.14092 80.6864 -11.9384 0
-9.60376 83.8249 -10.6579 0
-9.57705 82.0223 -9.78742 0
-10.565 80.8591 -10.3129 0
-12.4274 82.9687 -10.6776 0
-12.2851 80.93 -10.7631 0
-9.51102 86.468 -13.1505 0
-9.90946 85.1468 -11.8442 0
-10.005 90.1469 -14.0078 0
-9.29737 88.1441 -14.0349 0
-9.13274 87.6086 -14.7985 0
-9.677 89.0894 -15.6797 0
-10.4122 87.2659 -14.7844 0
-12.1049 84.6067 -11.7599 0
-13.788 84.7572 -11.178 0
-10.6215 84.8881 -11.8793 0
-11.1674 86.1061 -13.0438 0
-12.4763 87.0054 -14.1844 0
-14.9789 85.905 -12.2364 0
-15.2999 84.6257 -11.5792 0
-13.9986 88.2869 -14.3616 0
-14.62 87.0057 -13.3554 0
-16.5003 86.9881 -13.2513 0
-16.9687 87.6025 -14.6248 0
-17.1868 86.4332 -13.5994 0
-6.58632 82.1589 -13.2867 0
-14.1685 78.998 -14.9164 0
-13.2413 79.9794 -14.78 0
-10.9153 79.2081 -13.6756 0
-7.78281 80.9613 -13.7804 0
-7.97947 80.6682 -12.8322 0
-14.8999 79.5656 -14.0431 0
-15.3529 78.6188 -14.0337 0
-13.5847 79.9648 -13.5184 0
-14.3204 79.9869 -13.7729 0
-15.5535 80.4338 -13.4102 0
-16.564 81.5272 -12.6616 0
-17.0074 81.0951 -13.532 0
-11.0742 79.0487 -12.7314 0
-12.6098 79.2813 -13.2217 0
-9.6358 79.4899 -12.244 0
-11.6806 79.4458 -11.7291 0
-13.9251 81.0578 -10.9038 0
-15.9723 81.6469 -11.7162 0
-17.6388 82.9151 -12.1421 0
-14.1026 80.7111 -12.2573 0
-14.989 81.3277 -11.1493 0
-15.4109 82.9999 -11.1765 0
-17.7158 84.3919 -12.3052 0
-17.7474 83.6861 -13.3435 0
-17.0203 84.7148 -11.7295 0
-17.442 85.2617 -12.8076 0
-17.893 85.8404 -14.3782 0
-16.8342 78.9642 -14.032 0
-15.9884 77.6759 -14.4084 0
-18.0295 81.64 -14.3501 0
-17.7643 80.3667 -14.1097 0
-18.2476 79.5502 -15.1209 0
-18.8224 80.0363 -16.4833 0
-18.2851 78.6253 -16.3936 0
-18.0394 84.0883 -14.615 0
-18.0422 82.956 -14.4007 0
-17.9142 86.1766 -15.9087 0
-18.3102 85.3337 -15.1931 0
-18.1665 84.5007 -15.9906 0
-18.0083 84.7173 -17.2959 0
-18.0461 83.6995 -16.7863 0
-18.3031 81.276 -16.3868 0
-18.2338 80.413 -17.4933 0
-18.3765 82.1381 -15.3884 0
-18.182 82.5056 -16.5145 0
-17.9401 82.8805 -17.5375 0
-10.9716 97.9322 -9.97389 0
-12.1007 97.3166 -9.94199 0
-13.5153 97.8257 -9.94745 0
-15.0279 96.9617 -10.1074 0
-13.7061 97.0489 -9.77822 0
-13.3463 96.4258 -9.86592 0
-14.1042 95.5649 -9.92442 0
-16.4173 97.831 -10.7822 0
-17.3776 97.3246 -11.2171 0
-15.9911 97.0982 -10.6784 0
-18.2993 98.9563 -11.747 0
-18.9146 98.3766 -12.7811 0
-18.2587 97.8413 -11.8582 0
-17.8336 96.8564 -12.0722 0
-17.6708 96.6505 -13.1547 0
-16.9493 96.0868 -12.0837 0
-15.137 95.4857 -10.2554 0
-14.4834 94.559 -10.2139 0
-15.6318 96.3695 -10.3287 0
-15.8083 95.9095 -10.9197 0
-15.8089 95.266 -11.8222 0
-14.2711 93.6175 -10.856 0
-15.4695 94.5656 -12.5773 0
-14.6327 94.1601 -11.7393 0
-14.2473 92.5928 -11.9751 0
-12.9651 92.1122 -12.6969 0
-19.33 99.778 -13.9302 0
-19.5791 99.2422 -14.8037 0
-19.3915 98.8311 -13.7575 0
-22.1787 99.9294 -15.8014 0
-19.8848 99.4947 -15.9063 0
-20.3607 98.8725 -15.0708 0
-23.2591 97.4774 -14.9766 0
-20.5611 98.0121 -14.8962 0
-23.7349 97.6589 -16.9138 0
-23.2985 96.8054 -16.9616 0
-24.2489 98.4491 -16.8741 0
-24.9446 97.2713 -18.6499 0
-25.2855 96.3289 -20.6755 0
-23.933 95.7106 -19.1941 0
-22.8956 95.8192 -17.133 0
-25.829 94.9131 -22.5021 0
-25.0801 95.1754 -21.0166 0
-24.45 94.6497 -21.3398 0
-24.8242 93.7824 -22.949 0
-24.2119 94.0158 -21.1678 0
-12.3194 93.2298 -13.2416 0
-11.0802 91.8964 -13.6625 0
-16.1641 95.3649 -13.571 0
-14.4547 94.1399 -13.1081 0
-13.2348 93.697 -13.6485 0
-16.1157 93.667 -14.3654 0
-13.0957 93.2605 -14.6492 0
-18.2257 97.3596 -14.0615 0
-17.3091 96.5301 -14.0766 0
-18.9548 98.058 -13.8344 0
-18.8929 98.0073 -14.9296 0
-20.3722 96.9275 -14.9231 0
-18.6987 94.4947 -14.661 0
-20.3607 93.0191 -14.5148 0
-17.0769 96.3502 -15.0443 0
-19.8418 95.6956 -14.8305 0
-22.2631 95.3663 -15.3793 0
-21.8127 93.5479 -17.0275 0
-21.0306 92.3085 -16.8035 0
-22.4059 94.7205 -17.0845 0
-22.8281 94.1231 -19.1477 0
-24.1002 92.996 -20.9204 0
-9.82072 91.8372 -14.721 0
-15.3879 91.0154 -14.4307 0
-11.0956 92.4296 -15.4726 0
-10.2456 91.2529 -15.8513 0
-11.8049 90.1379 -16.0662 0
-21.7982 91.7085 -18.5597 0
-19.9943 90.9378 -16.1592 0
-24.7252 91.9716 -22.409 0
-23.374 91.9636 -20.6134 0
-22.8106 90.7539 -20.0175 0
-23.1365 90.0444 -21.3232 0
-21.8145 89.7007 -19.5075 0
-14.9547 89.6499 -15.815 0
-13.6884 89.2975 -15.1246 0
-17.7191 90.1042 -15.659 0
-19.2495 89.3309 -16.9504 0
-20.2144 88.6928 -18.2893 0
-15.6688 88.6322 -15.5254 0
-21.0388 87.9984 -19.1749 0
-17.7052 88.4357 -17.2148 0
-17.0221 88.2135 -15.9169 0
-17.7901 87.4095 -16.3807 0
-19.429 86.9494 -18.2248 0
-18.1483 86.7363 -16.9516 0
-22.7774 88.3029 -21.1432 0
-21.5015 87.4736 -19.9162 0
-21.6458 87.1376 -20.6677 0
-23.6738 87.0356 -22.2476 0
-22.129 86.5307 -21.1241 0
-24.6364 90.0779 -22.836 0
-23.7149 89.1889 -22.0621 0
-25.6599 92.0591 -23.8457 0
-25.3253 91.0831 -23.456 0
-25.7681 90.3338 -24.3869 0
-27.1426 90.8251 -25.2746 0
-26.1932 89.4748 -24.9002 0
-24.6105 87.7078 -23.3583 0
-24.2341 88.4023 -22.7074 0
-25.3221 88.5454 -24.246 0
-25.7625 93.9089 -24.0055 0
-25.649 93.0366 -24.0218 0
-25.6077 94.9023 -23.9101 0
-26.5473 94.1723 -24.4014 0
-27.2469 91.8361 -24.7886 0
-26.4283 92.3516 -24.5756 0
-18.244 86.012 -17.6067 0
-20.2369 86.0816 -19.6409 0
-18.7171 85.4236 -18.0676 0
-19.2135 84.9145 -18.6756 0
-17.4057 99.5539 -11.3253 0
-18.0345 100.185 -11.763 0
-14.4107 98.6503 -10.6038 0
-15.911 98.9776 -10.9294 0
-11.6509 98.7351 -10.2182 0
-12.8796 98.7633 -10.4014 0
-9.97436 98.0817 -10.2935 0
-10.7314 98.4404 -10.2794 0
-8.60324 96.7765 -10.408 0
-8.24161 96.456 -10.4994 0
-8.31505 95.8458 -10.265 0
-7.96559 95.2894 -10.3749 0
-9.03861 97.5002 -10.2129 0
-9.21684 97.3607 -10.0574 0
-8.91907 97.0919 -10.2366 0
-9.85333 97.7113 -10.097 0
-10.0994 97.5364 -10.0236 0
-9.63082 97.5031 -10.0026 0
-9.44869 97.2012 -9.9493 0
-9.76347 96.9995 -9.87859 0
-9.3095 96.8249 -9.93339 0
-8.6705 96.2183 -10.193 0
-8.52597 95.717 -10.1152 0
-8.80816 96.6797 -10.2468 0
-9.00513 96.5275 -10.0842 0
-9.20512 96.3822 -9.91059 0
-8.73546 95.5569 -9.96097 0
-8.39503 95.0427 -10.0185 0
-9.42712 96.1651 -9.76539 0
-9.07916 95.8712 -9.86583 0
-8.96097 95.2651 -9.81982 0
-9.17782 94.9561 -9.66661 0
-8.8147 94.6471 -9.64958 0
-7.45351 92.75 -8.85549 0
-7.69679 92.638 -9.23175 0
-7.68802 92.697 -8.52476 0
-7.74369 92.9812 -9.7333 0
-7.99023 92.9323 -9.46829 0
-7.76952 93.5944 -10.091 0
-8.06456 94.4071 -10.0705 0
-8.25848 93.4718 -9.61357 0
-8.20853 92.9613 -9.13049 0
-8.28463 94.3229 -9.85361 0
-8.49586 94.216 -9.63804 0
-8.71698 93.9771 -9.36249 0
-7.2878 92.9716 -7.42914 0
-7.84951 92.531 -8.22872 0
-7.59306 92.6969 -7.79307 0
-7.35536 92.6725 -7.14159 0
-7.40682 92.3156 -6.85496 0
-7.06964 92.6014 -6.53788 0
-8.41075 92.9671 -8.78017 0
-8.14435 92.5596 -8.57427 0
-8.95698 93.6011 -9.1113 0
-8.66681 93.34 -8.96593 0
-8.5609 92.7802 -8.38085 0
-8.74278 92.3677 -7.92992 0
-8.43446 92.2443 -7.76672 0
-7.76541 92.1304 -7.15609 0
-7.46719 91.8735 -6.54923 0
-7.96633 92.3208 -7.88298 0
-8.10781 92.1673 -7.45002 0
-8.26512 91.8882 -7.04553 0
-7.60976 91.5741 -6.12257 0
-7.14293 91.6174 -5.94677 0
-8.44611 91.5189 -6.5151 0
-8.06705 91.534 -6.32945 0
-7.86361 91.3829 -5.57988 0
-8.06528 90.9631 -5.09995 0
-7.65843 91.1914 -4.85455 0
-6.73781 91.8098 -5.77788 0
-6.55144 91.1996 -4.70273 0
-5.8986 90.3776 -4.76309 0
-6.90734 91.4864 -5.28622 0
-7.14954 91.2237 -4.76462 0
-7.2789 90.5986 -4.58341 0
-6.08761 89.6911 -5.02067 0
-7.32589 89.7261 -4.49948 0
-6.78785 89.8173 -4.78208 0
-6.29411 89.0099 -5.41478 0
-6.1747 88.2408 -5.70483 0
-5.57903 88.2126 -6.17914 0
-5.40504 86.931 -6.88068 0
-5.05191 86.1473 -8.02295 0
-4.37551 86.1204 -9.06864 0
-6.68244 88.143 -5.28228 0
-6.04203 87.503 -6.05261 0
-7.76702 89.5414 -4.63047 0
-7.32906 88.8646 -4.7466 0
-7.198 88.0491 -5.01609 0
-7.77272 87.9526 -4.84889 0
-7.11021 87.4815 -5.39565 0
-5.77846 86.389 -6.91232 0
-5.54137 85.9051 -7.40676 0
-5.9483 86.942 -6.5091 0
-6.48043 87.0511 -6.15275 0
-6.98748 87.1721 -5.81412 0
-6.04526 85.8594 -7.01815 0
-5.35477 85.7364 -7.99343 0
-7.55114 87.0563 -5.6595 0
-6.79648 86.6174 -6.36279 0
-6.59635 86.0606 -7.07856 0
-7.14167 86.2584 -7.15077 0
-6.40464 85.6283 -7.73717 0
-4.62925 86.4874 -10.3646 0
-4.25201 86.327 -10.0201 0
-4.71368 85.9171 -9.08421 0
-5.12796 85.9279 -9.4601 0
-5.0029 86.1963 -10.1333 0
-5.21519 85.6117 -8.78286 0
-5.71283 85.3143 -8.48842 0
-6.17492 85.1867 -8.35125 0
-5.36783 85.7116 -9.95804 0
-5.07678 86.0507 -10.9043 0
-6.6246 85.2261 -8.38593 0
-5.87694 85.1635 -9.01543 0
-5.73826 85.2543 -9.82492 0
-5.99678 84.8385 -9.82652 0
-5.62828 85.0235 -10.7021 0
-4.7002 85.4459 -11.9492 0
-4.66118 84.8781 -12.3443 0
-5.07183 85.8746 -11.5978 0
-5.23035 85.2314 -11.3797 0
-5.35351 84.6125 -11.2187 0
-5.21687 84.0919 -12.1632 0
-4.90032 84.1626 -12.7414 0
-5.62335 83.912 -11.021 0
-5.36567 84.0014 -11.5776 0
-5.6789 83.3476 -12.021 0
-6.1977 82.6023 -11.9011 0
-6.16692 82.7495 -12.4273 0
-8.43754 90.7312 -5.40426 0
-8.09964 90.1199 -4.9948 0
-8.82052 91.4961 -6.72854 0
-8.67892 91.0383 -6.09107 0
-8.81859 90.5217 -5.72484 0
-9.36106 90.5858 -5.85941 0
-9.00574 90.0061 -5.35612 0
-9.05503 92.5056 -8.1138 0
-8.97162 91.9419 -7.44691 0
-9.25622 93.8616 -9.2565 0
-9.15578 93.1637 -8.70715 0
-9.40696 92.6583 -8.30536 0
-9.79258 92.8227 -8.47807 0
-9.69025 92.0209 -8.0092 0
-9.56395 91.1062 -6.48125 0
-9.86436 90.6706 -6.0384 0
-9.22377 91.4992 -6.95538 0
-9.61612 91.5134 -7.26439 0
-10.0066 91.518 -7.58237 0
-10.3695 90.7027 -6.28878 0
-10.1178 90.16 -5.67674 0
-10.3705 91.5474 -7.92069 0
-10.398 91.1543 -7.08665 0
-10.741 90.6443 -6.75845 0
-11.0772 90.5763 -7.23441 0
-11.0468 89.9676 -6.58543 0
-9.54945 95.246 -9.63305 0
-9.41082 94.5572 -9.50323 0
-9.8048 96.4321 -9.64363 0
-9.66411 95.8931 -9.6141 0
-9.9187 95.5737 -9.50522 0
-10.3104 95.8766 -9.43211 0
-10.2246 95.143 -9.49555 0
-10.2371 97.1328 -9.84126 0
-10.0333 96.8068 -9.75202 0
-10.5421 97.6033 -9.96424 0
-10.4222 97.3926 -9.90198 0
-10.7676 97.1236 -9.99832 0
-11.3029 97.1174 -10.0508 0
-11.136 96.8111 -10.1304 0
-10.6099 96.2457 -9.72779 0
-10.9374 95.8608 -9.75992 0
-10.2925 96.5806 -9.64621 0
-10.907 96.5238 -10.0275 0
-11.574 96.441 -10.1312 0
-11.6723 95.799 -9.8079 0
-11.2514 95.458 -9.70824 0
-12.351 96.342 -9.87021 0
-12.0307 96.0841 -9.87573 0
-12.4446 95.7094 -9.64865 0
-13.196 95.4044 -9.73748 0
-12.7878 95.1197 -9.73028 0
-11.1114 91.1635 -7.85866 0
-11.5621 90.3663 -7.79663 0
-10.4705 92.3087 -8.39254 0
-10.7783 91.6927 -8.10823 0
-11.1737 91.7115 -8.43645 0
-11.3531 92.5321 -8.86777 0
-11.6334 91.6295 -8.87674 0
-9.92674 93.5634 -9.01063 0
-10.1886 92.9713 -8.65896 0
-9.67311 94.0982 -9.3638 0
-10.1097 94.3366 -9.4571 0
-10.5301 94.6042 -9.51736 0
-11.018 93.4069 -8.94084 0
-11.5489 93.4604 -9.3207 0
-10.5877 93.1823 -8.80062 0
-10.7494 94.0847 -9.23671 0
-10.9687 94.8692 -9.51803 0
-11.761 94.247 -9.65009 0
-12.067 93.4297 -9.64547 0
-11.4953 94.9378 -9.69224 0
-12.257 94.7803 -9.72207 0
-13.0462 94.4862 -9.78565 0
-12.0209 90.1606 -8.28478 0
-12.0338 89.5856 -7.69578 0
-12.1761 91.6351 -9.26592 0
-11.9539 90.7615 -8.87553 0
-12.4535 90.1038 -8.86258 0
-12.8937 90.1023 -9.47875 0
-12.8714 89.4902 -8.92531 0
-12.2396 93.4774 -10.0892 0
-12.3177 92.5863 -9.67928 0
-13.5782 94.2677 -9.93737 0
-12.8952 93.9407 -10.0382 0
-12.606 93.4003 -10.3529 0
-13.2319 93.1806 -10.6206 0
-12.8904 92.5831 -10.5592 0
-13.1346 90.8321 -9.71185 0
-13.2234 90.0577 -10.1363 0
-12.8015 91.6122 -9.63457 0
-13.2042 91.6166 -10.0788 0
-13.3948 91.6768 -10.7036 0
-13.3439 90.0223 -10.9507 0
-13.0779 89.3314 -10.6876 0
-13.5446 91.8089 -11.3464 0
-13.5061 90.8412 -11.1979 0
-13.0081 90.3181 -11.6501 0
-12.8592 90.7287 -12.2485 0
-12.2197 89.9792 -12.0805 0
-6.29847 82.5243 -11.3635 0
-6.75709 81.8715 -11.76 0
-6.09561 83.9598 -10.4987 0
-5.92129 83.2333 -10.865 0
-6.52217 82.6661 -10.8259 0
-6.89489 82.8496 -10.2461 0
-7.17428 82.0975 -10.7498 0
-6.67652 84.9788 -9.21219 0
-6.36093 84.6021 -10.0181 0
-7.35163 85.6686 -7.79892 0
-7.06356 85.2558 -8.4328 0
-7.4518 85.0791 -8.5698 0
-8.28978 85.2951 -8.0286 0
-7.87378 84.9289 -8.77087 0
-7.02675 83.6717 -9.74387 0
-7.43052 83.1779 -9.74142 0
-6.6921 84.178 -9.92103 0
-7.40663 84.4569 -9.47649 0
-8.38288 84.6419 -8.9238 0
-8.40104 83.518 -9.51292 0
-8.0617 82.6381 -9.75169 0
-9.20603 84.9257 -8.55707 0
-8.90752 84.3059 -9.2065 0
-9.35723 83.8547 -9.69904 0
-9.80791 84.1494 -9.97672 0
-9.42372 83.7908 -10.0945 0
-7.93686 86.4732 -6.38537 0
-7.6401 86.2082 -7.22848 0
-8.2258 87.2538 -5.07115 0
-8.14023 86.8135 -5.61924 0
-8.74132 86.5548 -5.57599 0
-9.11552 87.0359 -5.37991 0
-9.21584 86.4314 -5.79029 0
-8.26592 88.7076 -4.70509 0
-8.28138 87.8704 -4.74006 0
-8.16055 89.3804 -4.8363 0
-8.57799 89.2806 -5.035 0
-9.07965 89.3208 -5.18331 0
-9.0818 87.7556 -5.15225 0
-9.54751 87.7815 -5.38944 0
-8.69741 87.777 -4.92376 0
-9.12687 88.573 -5.08448 0
-9.67245 89.4454 -5.29577 0
-10.3617 88.7855 -5.57435 0
-10.2188 87.9443 -5.70733 0
-10.2912 89.5192 -5.55315 0
-10.7636 89.4588 -6.01574 0
-11.3224 89.334 -6.51659 0
-10.072 84.9331 -9.53928 0
-9.95755 84.6819 -10.3827 0
-9.79019 85.1256 -7.79992 0
-10.0785 85.0582 -8.43348 0
-10.786 85.667 -8.99782 0
-10.9203 86.5231 -8.25637 0
-11.0925 86.4513 -9.30936 0
-8.60843 85.7879 -7.36305 0
-9.13529 85.5178 -7.54286 0
-8.12096 86.0008 -7.29046 0
-8.9332 86.1144 -6.5504 0
-9.67054 86.3738 -6.15693 0
-10.5583 86.4744 -7.34387 0
-11.1331 87.4313 -7.60737 0
-10.0239 85.6463 -7.1633 0
-10.2101 86.3404 -6.56937 0
-10.0714 87.1332 -6.16248 0
-11.5316 88.0783 -7.00187 0
-11.9104 88.0145 -7.73675 0
-10.818 88.1916 -6.35281 0
-11.6908 88.6645 -6.54071 0
-11.9413 89.1423 -7.08166 0
-10.5726 85.4161 -10.7325 0
-9.82279 85.0774 -11.0166 0
-11.433 87.1828 -9.43705 0
-11.1467 86.2747 -10.1836 0
-10.987 86.2376 -11.0287 0
-10.9475 87.1328 -11.3103 0
-10.2418 86.6294 -11.8079 0
-12.532 88.4542 -7.98812 0
-12.0273 87.9389 -8.61596 0
-12.4688 88.9563 -7.69525 0
-12.7941 88.9202 -8.4261 0
-13.0501 88.8556 -9.21214 0
-11.4944 87.8757 -10.6399 0
-11.1729 87.8673 -11.5826 0
-11.8326 87.8669 -9.65902 0
-12.3049 88.4219 -9.91095 0
-12.8506 88.8031 -10.268 0
-11.7897 88.3249 -11.9058 0
-10.5373 88.2406 -12.4149 0
-12.5976 88.7688 -11.2986 0
-12.1266 89.0253 -12.044 0
-11.449 89.6327 -12.6918 0
-7.50728 81.3728 -11.6825 0
-7.33411 81.2071 -12.0828 0
-8.03187 81.6333 -10.6487 0
-7.69418 81.5279 -11.2545 0
-8.32698 80.8444 -11.5065 0
-9.21671 80.309 -11.1727 0
-9.00707 80.092 -11.6474 0
-9.07916 82.5877 -9.76169 0
-8.55829 82.0362 -10.0052 0
-8.93027 84.2704 -10.6114 0
-9.56313 83.2839 -9.94172 0
-9.97482 82.764 -9.82472 0
-10.2438 83.3496 -10.6724 0
-10.4834 82.2835 -9.77545 0
-9.48588 80.7211 -10.6337 0
-10.1742 80.1681 -10.8302 0
-8.98745 81.3961 -10.4418 0
-9.99979 81.3224 -10.0133 0
-11.0357 81.8944 -10.045 0
-11.3423 80.5493 -10.7293 0
-11.0056 79.7515 -11.0529 0
-11.6137 82.9052 -10.8635 0
-11.6846 81.6072 -10.4736 0
-12.4621 81.9235 -10.5106 0
-13.208 83.1332 -10.6436 0
-13.3009 82.1263 -10.5762 0
-10.0004 85.4014 -11.6466 0
-9.19482 84.9428 -11.1575 0
-9.6537 86.9997 -12.6288 0
-9.85834 86.1421 -12.2153 0
-9.79738 85.7474 -12.5497 0
-9.54427 86.1445 -13.435 0
-9.85486 85.5073 -12.7272 0
-9.93947 88.7067 -13.2332 0
-9.69959 87.84 -12.9677 0
-10.8853 90.3441 -13.297 0
-10.456 89.4679 -13.2944 0
-9.4843 89.2584 -14.0968 0
-9.05603 89.9518 -14.935 0
-8.91576 88.7155 -14.8619 0
-9.24749 86.9291 -14.0477 0
-9.44853 86.7637 -14.1878 0
-9.29734 87.2888 -13.6584 0
-9.02867 87.759 -14.5693 0
-8.8342 88.3967 -15.2312 0
-9.51576 87.4614 -14.8963 0
-9.8868 86.5859 -14.2217 0
-8.91189 89.1938 -15.7817 0
-9.19268 88.2722 -15.3392 0
-9.97483 88.1231 -15.2403 0
-10.5417 88.8302 -15.4755 0
-10.9637 87.9097 -14.9561 0
-13.068 83.897 -11.0306 0
-13.9041 84.1026 -10.7378 0
-11.4642 83.9722 -11.2936 0
-12.284 83.8213 -11.209 0
-12.9437 84.5003 -11.6355 0
-12.5521 85.3645 -12.1975 0
-13.4643 85.4473 -11.8816 0
-10.0721 84.1972 -11.3961 0
-10.7057 84.1078 -11.3062 0
-9.41382 84.625 -11.2878 0
-10.1134 84.8648 -12.0093 0
-10.2278 85.3872 -12.7182 0
-11.6838 85.5259 -12.2759 0
-12.1183 86.261 -12.6851 0
-11.2386 84.8622 -11.7992 0
-10.7825 85.4512 -12.5803 0
-10.2825 85.8675 -13.4594 0
-11.7625 86.6381 -13.642 0
-12.8059 86.5363 -13.3913 0
-10.7899 86.5229 -14.004 0
-11.4153 87.094 -14.5563 0
-12.0642 87.7484 -14.5434 0
-14.5776 84.8425 -11.1094 0
-14.6901 84.0519 -10.9772 0
-14.0908 86.0889 -12.297 0
-14.3195 85.4953 -11.6528 0
-15.1346 85.3415 -11.7974 0
-16.039 85.8896 -12.2112 0
-16.207 85.3784 -11.7407 0
-13.5565 86.984 -13.7624 0
-13.8519 86.4903 -13.0621 0
-12.8547 88.4347 -14.5388 0
-13.2133 87.7052 -14.1832 0
-14.3382 87.712 -13.8456 0
-15.0962 88.1957 -14.3636 0
-15.4779 87.7429 -13.7924 0
-15.8907 86.3783 -12.7645 0
-16.6679 86.2767 -12.7861 0
-14.8339 86.3881 -12.8295 0
-15.7069 87.0319 -13.2759 0
-16.2693 87.6758 -13.7946 0
-16.8721 86.7518 -13.3704 0
-16.9478 85.9352 -12.9906 0
-16.5613 87.9234 -14.4786 0
-16.7123 87.4879 -13.8599 0
-17.1378 87.1943 -14.0285 0
-17.333 87.1803 -14.8869 0
-17.5332 86.7766 -14.4266 0
-6.06361 82.8385 -12.9594 0
-6.70396 82.1285 -12.7863 0
-13.9692 79.52 -15.0076 0
-13.058 80.1607 -15.4205 0
-13.5525 80.1472 -14.9958 0
-12.7285 79.9906 -15.1896 0
-12.237 79.6773 -14.8519 0
-12.8754 79.7674 -14.5908 0
-11.6831 79.3895 -14.4952 0
-10.878 79.622 -14.163 0
-11.8598 79.1669 -13.9144 0
-10.0138 79.7227 -13.9213 0
-9.2899 79.9485 -13.7226 0
-10.0152 79.3253 -13.4517 0
-8.65543 80.3254 -13.5022 0
-7.88595 80.7502 -13.3002 0
-8.76764 80.0765 -13.0257 0
-7.09051 81.4416 -13.55 0
-7.2185 81.405 -13.0605 0
-7.30044 81.3311 -12.5893 0
-14.6837 78.5929 -14.2325 0
-14.9624 78.1266 -14.3467 0
-14.2355 79.6078 -14.4055 0
-14.4559 79.1153 -14.3154 0
-15.1412 79.1117 -14.0158 0
-15.5735 79.6043 -13.7577 0
-15.8375 79.1919 -13.8326 0
-13.7541 79.9655 -14.295 0
-13.9946 79.7821 -14.3455 0
-13.0123 79.5942 -13.9991 0
-13.4268 79.8303 -14.1277 0
-13.9748 80.1432 -13.6621 0
-14.1457 80.5133 -13.0408 0
-14.5482 80.3199 -13.1696 0
-15.2545 79.8555 -13.5284 0
-15.8822 80.1779 -13.6278 0
-14.5714 79.8559 -13.8547 0
-14.9339 80.1229 -13.3098 0
-15.3381 80.5395 -12.9072 0
-16.2527 80.7667 -13.4812 0
-16.6076 80.4435 -13.6218 0
-15.7871 80.9613 -12.4828 0
-16.0186 80.8868 -12.9972 0
-16.7741 81.3443 -13.1315 0
-17.1945 81.9911 -12.9768 0
-17.3571 81.7305 -13.4101 0
-11.8913 79.1382 -13.463 0
-12.5276 79.3145 -13.7248 0
-10.1418 79.1603 -12.9425 0
-10.9395 79.0822 -13.231 0
-11.9511 79.119 -13.0127 0
-12.1527 79.3867 -12.5141 0
-12.8379 79.7446 -12.647 0
-8.86369 79.9574 -12.5466 0
-9.52753 79.4951 -12.7257 0
-8.04492 80.5683 -12.3501 0
-8.94843 80.0254 -12.1141 0
-9.74402 79.5413 -11.7701 0
-11.3338 79.0874 -12.1836 0
-12.5008 79.817 -11.9833 0
-10.2877 79.0883 -12.3877 0
-10.4566 79.0175 -11.8328 0
-10.7008 79.3229 -11.4502 0
-12.8969 80.2264 -11.4466 0
-13.5314 80.6445 -11.5001 0
-12.018 79.9419 -11.3294 0
-13.1928 81.0642 -10.8975 0
-14.0373 82.0867 -10.7844 0
-17.1195 82.232 -12.4132 0
-17.6736 82.6428 -12.704 0
-15.4635 80.9629 -12.0507 0
-16.3028 81.6286 -12.1719 0
-16.8568 82.3403 -11.9057 0
-16.4836 82.4522 -11.5265 0
-17.2435 83.1089 -11.9106 0
-13.7567 80.4026 -12.9117 0
-14.5257 80.8188 -12.4706 0
-13.1731 79.6076 -13.3875 0
-13.3595 80.0954 -12.7688 0
-13.6322 80.4981 -12.1335 0
-15.5229 81.4954 -11.3471 0
-15.9071 82.1943 -11.231 0
-15.0326 80.9481 -11.7653 0
-14.5966 80.8823 -11.5424 0
-14.0966 80.7471 -11.4996 0
-15.3022 81.9921 -10.9975 0
-16.1668 83.1262 -11.3726 0
-14.467 81.1895 -11.0255 0
-14.6803 82.0095 -10.8929 0
-14.7438 83.1088 -10.9416 0
-17.6887 83.3359 -12.7649 0
-17.7055 83.0434 -13.3131 0
-17.3352 83.8757 -11.9955 0
-17.6772 83.6968 -12.2393 0
-17.7466 84.0624 -12.805 0
-17.7689 84.6447 -12.9378 0
-17.7527 84.2588 -13.5016 0
-16.2769 83.9896 -11.5214 0
-16.9671 84.0481 -11.7018 0
-15.4989 83.9044 -11.3443 0
-16.3363 84.6953 -11.5512 0
-17.0788 85.3727 -11.7627 0
-17.6676 84.9244 -12.4658 0
-17.6216 85.0359 -13.2355 0
-17.3838 84.5492 -12.0438 0
-17.381 85.1288 -12.143 0
-17.1493 85.4849 -12.4775 0
-17.4837 85.4414 -13.602 0
-17.7362 85.2487 -14.0116 0
-17.2424 85.6515 -13.1852 0
-17.5968 86.0711 -13.9923 0
-17.9384 86.3941 -14.7971 0
-15.5912 78.1604 -14.1743 0
-16.5891 79.4311 -13.7471 0
-16.0397 78.714 -13.8903 0
-16.3116 78.21 -14.0861 0
-17.1632 78.4444 -14.4036 0
-16.807 77.6221 -14.2895 0
-17.3478 80.7727 -13.8098 0
-17.0061 80.1164 -13.7082 0
-17.8164 82.0249 -13.7959 0
-17.5552 81.4128 -13.8962 0
-17.8627 81.0314 -14.337 0
-18.2756 81.2723 -14.8388 0
-18.2406 80.618 -14.6653 0
-17.6888 79.1993 -14.4242 0
-17.7879 78.7793 -15.0484 0
-17.4001 79.6948 -14.0304 0
-18.1777 79.9237 -14.453 0
-18.4047 80.2277 -15.1899 0
-18.3135 79.1331 -15.7779 0
-17.8601 78.2431 -15.4783 0
-18.6071 80.4817 -15.8471 0
-18.4915 79.8337 -15.8425 0
-18.6641 79.3742 -16.4827 0
-18.9946 79.5733 -17.1121 0
-18.6322 78.8777 -17.1094 0
-17.8432 83.3342 -13.8874 0
-17.7994 82.7007 -13.8648 0
-17.8632 84.4287 -14.1866 0
-17.8494 83.8912 -13.9848 0
-18.0279 83.5223 -14.4867 0
-18.186 83.7224 -15.0898 0
-18.1935 83.148 -14.9861 0
-18.1016 85.595 -14.792 0
-17.9635 85.0114 -14.4368 0
-17.7798 86.4708 -15.5572 0
-18.0765 86.0915 -15.1618 0
-18.2437 85.8151 -15.55 0
-17.8998 85.8091 -16.2965 0
-18.2584 85.4565 -15.9387 0
-18.1922 84.3118 -15.2926 0
-18.1758 83.9055 -15.7494 0
-18.1458 84.6929 -14.8778 0
-18.3238 84.9537 -15.6005 0
-18.1006 85.0198 -16.3194 0
-18.1345 84.094 -16.4148 0
-18.2218 83.5121 -16.2106 0
-17.7757 85.0169 -17.0181 0
-18.0178 84.6008 -16.6727 0
-18.0531 84.2454 -16.999 0
-18.0547 84.3683 -17.6046 0
-17.955 83.8579 -17.3473 0
-18.683 80.2143 -17.0141 0
-18.7758 79.7762 -17.6416 0
-18.5647 81.1174 -15.8518 0
-18.4075 80.6454 -16.4091 0
-18.1175 80.8179 -16.9001 0
-18.0354 81.4442 -16.927 0
-17.8579 81.034 -17.3987 0
-18.2347 81.9124 -14.8978 0
-18.393 81.5105 -15.3589 0
-18.023 82.3128 -14.3804 0
-18.2334 82.5553 -14.9166 0
-18.2865 82.737 -15.4735 0
-18.2856 81.9085 -16.4381 0
-18.0475 82.0825 -16.9819 0
-18.5404 81.7389 -15.8704 0
-18.4291 82.3308 -15.9564 0
-18.3222 82.9289 -16.0465 0
-17.9923 82.6937 -17.0666 0
-17.9555 82.2786 -17.4582 0
-18.1209 83.1091 -16.6195 0
-17.9598 83.3003 -17.1683 0
-18.0101 83.4841 -17.667 0
-17.658 81.2658 -17.8731 0
-17.7237 81.879 -17.8871 0
-10.5585 97.8003 -10.0561 0
-10.992 97.7073 -9.85813 0
-11.4403 98.0431 -9.89033 0
-12.0864 97.6405 -9.93295 0
-11.4871 97.732 -9.87422 0
-11.4303 97.4088 -9.96507 0
-12.0037 96.9948 -10.035 0
-12.6376 97.9424 -9.98378 0
-13.6608 97.4187 -9.79027 0
-12.7771 97.5212 -9.96765 0
-14.365 97.717 -10.0621 0
-15.1208 97.3137 -10.2225 0
-14.5078 97.3329 -9.91217 0
-14.453 97.0012 -9.79594 0
-14.8796 96.6541 -9.965 0
-14.3075 96.662 -9.79972 0
-12.7597 96.8599 -9.97928 0
-12.5875 96.5996 -9.89846 0
-12.8298 97.1693 -9.96021 0
-13.5669 96.7288 -9.81278 0
-14.0865 96.3396 -9.78113 0
-13.1015 96.1651 -9.79152 0
-14.4222 95.9389 -9.94247 0
-13.8021 96.0223 -9.76617 0
-13.5217 95.698 -9.74639 0
-13.8228 95.1692 -9.8235 0
-15.6636 97.7443 -10.5817 0
-16.2716 97.4254 -10.7278 0
-15.6351 97.3408 -10.5077 0
-17.1409 97.9995 -11.0184 0
-17.6348 97.7562 -11.1818 0
-17.0215 97.5421 -10.9266 0
-16.6698 97.1983 -10.928 0
-17.069 96.9433 -11.163 0
-16.3694 96.8513 -10.8646 0
-17.9655 98.6098 -11.5854 0
-18.3507 98.3762 -11.7122 0
-18.005 98.0686 -11.4356 0
-18.6381 99.2193 -12.1956 0
-19.0943 98.8357 -12.705 0
-18.7122 98.6192 -12.1937 0
-18.5239 98.1484 -12.2588 0
-18.6966 97.9256 -12.8327 0
-18.4228 97.6145 -12.4083 0
-17.6403 97.0926 -11.6217 0
-17.2745 96.7065 -11.6284 0
-17.8801 97.5427 -11.59 0
-18.1441 97.3002 -12.0086 0
-18.1846 97.1421 -12.5534 0
-17.3909 96.4697 -12.1353 0
-16.8368 96.3438 -11.6248 0
-18.075 97.0786 -13.1314 0
-17.7945 96.7271 -12.6221 0
-17.3948 96.292 -12.6354 0
-17.2129 96.1982 -13.0998 0
-16.9405 95.8255 -12.5369 0
-14.341 95.0772 -10.0453 0
-14.0517 94.6399 -9.94261 0
-14.9446 95.9118 -10.0969 0
-14.6313 95.507 -10.1045 0
-14.8268 95.0342 -10.2442 0
-15.2107 95.1441 -10.5193 0
-14.8029 94.6156 -10.5106 0
-15.3426 96.6582 -10.2175 0
-15.1699 96.3216 -10.0881 0
-15.5031 96.9857 -10.3647 0
-15.8028 96.73 -10.4933 0
-16.14 96.4602 -10.6768 0
-15.4354 95.6805 -10.561 0
-15.4855 95.3772 -10.8794 0
-15.3457 95.9851 -10.2873 0
-15.7142 96.1505 -10.6096 0
-16.276 96.2488 -11.0258 0
-15.858 95.6101 -11.3379 0
-15.2583 95.1482 -11.2796 0
-16.3918 95.9834 -11.4886 0
-16.4166 95.6943 -11.9539 0
-16.3786 95.391 -12.3767 0
-14.0123 94.1146 -10.2254 0
-14.593 94.284 -10.8687 0
-14.4448 94.0346 -10.498 0
-13.9034 93.5742 -10.5296 0
-13.9624 92.98 -10.8896 0
-15.1523 94.7792 -11.7472 0
-14.7105 94.6174 -11.2567 0
-16.1702 95.1717 -12.7385 0
-15.713 94.9174 -12.2406 0
-14.9134 94.3936 -12.1184 0
-14.647 94.0281 -12.482 0
-14.5583 93.6516 -12.2085 0
-14.2786 93.0599 -11.4147 0
-13.9092 92.4864 -11.4236 0
-14.4736 93.8678 -11.3138 0
-14.5149 93.3267 -11.8969 0
-14.1373 92.9632 -12.3272 0
-13.7285 91.9675 -11.9089 0
-13.2225 92.9219 -12.6276 0
-13.7695 92.239 -12.3672 0
-13.4928 91.4462 -12.3769 0
-12.5468 91.2809 -12.8073 0
-19.2636 99.5647 -13.3676 0
-19.4558 99.2421 -13.8033 0
-19.3891 99.0298 -13.2407 0
-19.4444 99.9675 -14.4987 0
-19.5027 99.5414 -15.1294 0
-19.5364 99.4584 -14.3759 0
-19.4627 99.0516 -14.3303 0
-19.4839 98.8534 -14.7606 0
-19.3723 98.6615 -14.2735 0
-19.6677 99.8268 -16.4045 0
-19.4268 99.6315 -15.9344 0
-20.8408 99.7789 -15.8862 0
-22.5588 99.4554 -15.451 0
-21.2575 99.3155 -15.5187 0
-19.599 99.0404 -15.3218 0
-19.5737 98.757 -15.3323 0
-19.5154 99.3272 -15.6267 0
-20.084 99.1996 -15.5151 0
-21.6413 98.9224 -15.1361 0
-20.5215 98.5223 -14.853 0
-19.5864 98.4908 -15.2839 0
-23.2523 98.0969 -15.0319 0
-21.9481 98.2481 -15.1261 0
-22.204 97.6074 -15.0645 0
-23.1889 96.8831 -14.9617 0
-22.0205 97.088 -14.9161 0
-23.229 97.1861 -15.8649 0
-23.0591 96.6533 -15.9837 0
-23.4969 98.1507 -16.0058 0
-23.3171 97.7253 -15.9339 0
-23.5237 97.2525 -16.8701 0
-24.1558 97.0298 -17.9557 0
-23.8763 96.6573 -18.0295 0
-23.4423 99.2763 -16.1561 0
-23.511 98.6853 -16.1058 0
-25.1008 98.1294 -17.552 0
-24.4005 97.4289 -17.918 0
-24.5749 97.0771 -18.8866 0
-23.9107 98.0929 -17.0219 0
-24.7382 97.7786 -17.7439 0
-25.2866 97.6353 -18.4464 0
-25.0525 96.9798 -19.6451 0
-24.6793 96.7978 -19.8752 0
-25.4176 97.206 -19.3796 0
-25.6433 96.5524 -20.4191 0
-25.7953 95.9848 -21.4279 0
-23.1604 96.2496 -17.0605 0
-22.8973 96.1053 -16.0793 0
-24.0604 96.2885 -19.1005 0
-23.6227 96.2578 -18.1032 0
-23.3141 95.8998 -18.1698 0
-23.6049 95.3736 -19.2442 0
-22.9677 95.5508 -18.2204 0
-25.2125 95.7286 -20.8574 0
-24.5335 96.2605 -20.0292 0
-25.9984 95.4078 -22.296 0
-25.6681 95.4365 -21.6435 0
-25.5306 94.9247 -21.8163 0
-25.5327 94.5976 -22.7065 0
-25.2473 94.607 -22.0154 0
-24.1938 95.1822 -20.281 0
-23.9034 94.9136 -20.2934 0
-24.3946 95.6666 -20.1551 0
-24.8081 94.8348 -21.1765 0
-24.8731 94.4434 -22.1764 0
-24.1113 94.4167 -21.3719 0
-23.6028 94.6385 -20.2597 0
-24.9517 94.0893 -22.9463 0
-24.5389 94.2622 -22.2761 0
-24.5628 93.8912 -22.1714 0
-24.8267 93.4127 -22.8542 0
-24.7013 93.4588 -21.9797 0
-11.9732 92.0013 -13.1704 0
-11.4687 91.1753 -13.2504 0
-13.1645 93.3327 -12.8604 0
-12.3641 92.8431 -13.0024 0
-11.5435 92.6912 -13.5024 0
-11.4546 93.1557 -13.7434 0
-10.6756 92.6468 -13.9584 0
-15.0883 94.3439 -12.9079 0
-14.0639 93.777 -12.7713 0
-16.4615 95.5698 -13.3123 0
-15.839 94.9524 -12.9885 0
-15.4838 94.7538 -13.3111 0
-15.9285 95.1642 -13.8369 0
-14.9628 94.5249 -13.5238 0
-12.495 93.513 -13.3966 0
-12.0335 93.3178 -13.9232 0
-13.3222 93.6054 -13.016 0
-13.6906 93.9426 -13.2743 0
-14.6061 94.1927 -13.7725 0
-12.7765 93.5208 -14.2312 0
-11.6597 93.2464 -14.5294 0
-15.6979 94.3815 -14.3284 0
-14.2569 93.9183 -14.227 0
-14.5498 93.3768 -14.3897 0
-17.2004 92.4074 -14.0778 0
-15.4943 92.1862 -13.7666 0
-17.4933 96.5749 -13.6022 0
-17.0052 96.1061 -13.5217 0
-18.3573 97.4118 -13.5467 0
-17.9579 97.0277 -13.6559 0
-17.8183 97.0093 -14.2069 0
-18.1016 97.3986 -14.6975 0
-17.6518 97.0495 -14.8295 0
-19.0202 98.1692 -13.3222 0
-18.7356 97.7838 -13.3998 0
-19.245 98.5996 -13.2703 0
-19.2197 98.4223 -13.7672 0
-19.1593 98.326 -14.3073 0
-18.4893 97.7165 -14.5182 0
-18.537 97.654 -15.0258 0
-18.613 97.7328 -13.9522 0
-18.8397 98.0392 -14.4204 0
-19.2357 98.2858 -14.7795 0
-19.2247 97.7917 -15.3667 0
-18.916 97.4213 -15.4483 0
-19.5063 98.1633 -15.2883 0
-20.5661 97.4938 -14.974 0
-21.7442 96.617 -14.7487 0
-18.5068 93.0646 -14.1346 0
-19.5584 92.1825 -14.3514 0
-16.8184 94.9997 -14.5919 0
-17.5672 94.0767 -14.479 0
-19.5533 93.7284 -14.0771 0
-20.1074 94.5035 -13.7462 0
-20.9781 93.6931 -14.6524 0
-16.6287 95.7924 -14.1341 0
-16.5338 95.5788 -14.4894 0
-16.7641 96.0146 -13.8929 0
-17.1397 96.5132 -14.6286 0
-17.5978 97.0516 -15.5629 0
-19.3804 95.0466 -14.8084 0
-20.6127 95.1566 -13.8295 0
-17.6693 95.6006 -15.1539 0
-18.3389 96.2159 -15.5865 0
-18.6711 96.8234 -15.505 0
-21.0397 95.6564 -14.327 0
-21.9 94.8328 -15.2985 0
-20.1647 96.3154 -14.9251 0
-21.3958 96.1316 -14.7368 0
-22.6479 95.8578 -15.1922 0
-20.8123 92.566 -15.7354 0
-20.201 91.9087 -15.3826 0
-21.6931 93.8663 -15.9725 0
-21.3392 93.2369 -15.9262 0
-21.5172 92.9054 -16.9682 0
-21.8685 93.3776 -18.0534 0
-21.5602 92.7362 -17.9783 0
-22.3456 95.0254 -16.1802 0
-22.051 94.4485 -16.0764 0
-22.5786 95.6047 -16.1976 0
-22.6398 95.3046 -17.1262 0
-22.6946 95.0889 -18.2161 0
-22.1634 93.9872 -18.1203 0
-22.7557 93.4934 -19.0599 0
-22.1475 94.1537 -17.0527 0
-22.4494 94.5523 -18.1752 0
-23.0168 94.6804 -19.2113 0
-23.4492 93.6065 -20.0878 0
-23.3155 93.0046 -20.0053 0
-23.5177 94.202 -20.1546 0
-24.2796 93.555 -20.9818 0
-24.735 93.0017 -21.8154 0
-10.5645 91.1149 -13.7196 0
-10.3491 92.5691 -14.5673 0
-10.177 91.969 -14.0533 0
-9.66248 91.0978 -14.3083 0
-9.35242 90.8449 -15.1351 0
-11.9221 93.0446 -14.9844 0
-10.7691 92.9856 -14.9225 0
-17.0085 91.0721 -14.1569 0
-14.0295 92.1245 -14.3758 0
-12.7834 91.9376 -15.0259 0
-13.9528 90.9613 -14.8783 0
-11.9664 91.565 -15.6637 0
-9.76555 91.5198 -15.4899 0
-9.34612 90.5629 -15.6699 0
-10.2253 92.3034 -15.2508 0
-10.5299 91.751 -15.8326 0
-11.4063 91.2337 -16.1291 0
-9.83212 90.3987 -15.9356 0
-12.4074 90.5391 -16.1593 0
-10.9698 90.7831 -16.09 0
-10.6 90.0044 -15.8933 0
-11.5433 89.4878 -15.7086 0
-20.6354 91.6443 -16.4986 0
-19.325 91.1702 -14.9847 0
-22.0294 92.3347 -18.8383 0
-21.2932 92.0942 -17.7337 0
-21.0751 91.4273 -17.4076 0
-21.5813 91.0443 -18.2362 0
-20.5666 90.7124 -17.0789 0
-23.766 92.4783 -20.8243 0
-22.9289 92.4767 -19.8531 0
-24.9814 92.4568 -22.563 0
-24.4458 92.5149 -21.7107 0
-24.1528 92.0094 -21.5479 0
-24.4623 91.4943 -22.1784 0
-23.8258 91.4649 -21.2561 0
-22.3166 91.2643 -19.3578 0
-22.0733 90.617 -19.0337 0
-22.5342 91.9195 -19.6649 0
-23.0572 91.3827 -20.3428 0
-23.4952 90.8843 -20.9455 0
-22.3058 90.2584 -19.8165 0
-21.5434 90.0208 -18.706 0
-23.7046 90.4772 -21.5588 0
-22.9619 90.4205 -20.7333 0
-22.4547 89.9244 -20.5028 0
-22.6221 89.5773 -20.9973 0
-21.9491 89.3956 -20.1444 0
-12.7867 89.6385 -15.4347 0
-12.5558 89.1744 -14.9753 0
-14.2118 90.0239 -15.5313 0
-13.416 89.7824 -15.7839 0
-14.0792 89.473 -15.6092 0
-15.5539 89.3706 -16.2055 0
-14.9995 89.099 -15.7181 0
-16.6696 90.4462 -14.8785 0
-15.1778 90.2794 -15.1309 0
-18.2181 90.6609 -14.7002 0
-19.0185 90.3443 -15.7867 0
-19.7792 90.0627 -16.6215 0
-16.9936 89.6301 -16.517 0
-17.6358 89.2947 -17.0993 0
-16.2435 89.8498 -15.7594 0
-18.512 89.8163 -16.4219 0
-20.4025 89.7254 -17.3285 0
-19.8106 88.9629 -17.5724 0
-18.2133 88.8351 -17.4963 0
-20.8135 89.4434 -18.2082 0
-21.1518 89.1745 -18.9827 0
-21.3394 88.9031 -19.6629 0
-13.703 88.9152 -14.7383 0
-15.851 88.8054 -16.0937 0
-14.8046 88.8853 -15.2609 0
-14.7086 88.5868 -14.8957 0
-15.5774 88.4475 -14.9551 0
-18.7393 88.4425 -17.9426 0
-17.0534 88.6846 -16.9282 0
-21.6118 88.5741 -20.0609 0
-20.6238 88.3743 -18.836 0
-19.228 88.0291 -18.2524 0
-19.6866 87.6676 -18.5607 0
-18.1887 88.033 -17.518 0
-16.4866 88.4718 -15.6555 0
-16.3122 88.3097 -15.0499 0
-16.5906 88.5964 -16.3121 0
-17.1531 88.3675 -16.6094 0
-17.6227 88.0312 -16.874 0
-16.8196 87.9884 -15.2363 0
-18.0014 87.6481 -17.1145 0
-17.4302 87.7997 -16.1642 0
-17.2127 87.5652 -15.4676 0
-17.5162 87.1756 -15.7203 0
-18.0156 87.0693 -16.6496 0
-17.6488 86.8437 -16.0343 0
-19.0653 87.2755 -17.9705 0
-18.3729 87.2833 -17.3343 0
-18.5369 86.9259 -17.6387 0
-19.6086 86.6616 -18.5752 0
-18.7007 86.5725 -17.9213 0
-21.3793 87.6662 -19.4689 0
-20.1158 87.349 -18.7753 0
-22.4298 88.6799 -20.9179 0
-21.9931 88.1798 -20.292 0
-22.3265 87.8307 -20.5421 0
-23.0976 87.9586 -21.3782 0
-22.3947 87.6398 -20.8982 0
-20.6264 86.9411 -19.5301 0
-20.6865 86.8251 -19.9719 0
-20.5003 87.0788 -19.0461 0
-21.6088 87.2909 -20.3118 0
-22.5406 87.3815 -21.2209 0
-21.8811 86.8351 -20.8942 0
-20.7745 86.6733 -20.3494 0
-23.4679 87.3453 -21.993 0
-22.7405 87.0731 -21.4702 0
-22.9911 86.753 -21.6766 0
-23.8024 86.6885 -22.5241 0
-23.1997 86.4293 -21.9171 0
-23.4264 89.6041 -21.7211 0
-22.9019 89.1386 -21.3443 0
-24.4031 90.5076 -22.3764 0
-23.9407 90.0377 -22.076 0
-24.2045 89.6197 -22.4526 0
-24.8345 89.6693 -23.2105 0
-24.3974 89.223 -22.8208 0
-25.0377 91.5066 -22.9673 0
-24.7696 91.0051 -22.7143 0
-25.2723 92.462 -23.3326 0
-25.2679 91.9844 -23.1726 0
-25.5903 91.5763 -23.6818 0
-26.0546 91.7104 -24.2782 0
-25.896 91.19 -24.1431 0
-25.2131 90.1696 -23.5985 0
-25.4119 89.758 -23.9452 0
-24.9928 90.5849 -23.1758 0
-25.558 90.6766 -23.8917 0
-26.1148 90.9037 -24.6989 0
-26.0074 89.8912 -24.7211 0
-25.6229 89.3433 -24.2627 0
-26.7346 91.1429 -25.1787 0
-26.3836 90.5696 -25.2579 0
-26.5199 90.1429 -25.3001 0
-27.103 90.3748 -25.3164 0
-26.5954 89.7183 -25.2591 0
-24.3146 87.0141 -23.1298 0
-24.0134 87.6752 -22.4918 0
-24.1888 87.3593 -22.8176 0
-24.7514 87.3805 -23.7196 0
-25.1202 87.7763 -24.1765 0
-23.5494 88.3678 -21.8917 0
-23.8029 87.9908 -22.1848 0
-23.2311 88.7493 -21.6272 0
-23.9651 88.7914 -22.3979 0
-24.6307 88.8306 -23.1463 0
-24.9718 88.1154 -23.8021 0
-24.473 88.038 -22.9997 0
-24.827 88.4626 -23.4629 0
-25.1838 88.9032 -23.8999 0
-25.9774 88.573 -24.7195 0
-25.802 88.9611 -24.6296 0
-26.3825 89.0504 -24.966 0
-25.1522 93.4575 -23.5051 0
-25.1688 92.9555 -23.4658 0
-25.3811 94.097 -23.5047 0
-25.2671 93.7801 -23.5082 0
-25.692 93.5327 -24.0185 0
-26.1254 93.6012 -24.3199 0
-26.0655 93.1244 -24.3368 0
-25.7467 94.8285 -23.2556 0
-25.4294 94.5355 -23.4236 0
-26.2269 95.6182 -22.7387 0
-26.0422 95.1252 -23.0309 0
-25.9102 95.1899 -23.7024 0
-26.1427 94.091 -24.2828 0
-26.4826 93.6843 -24.4427 0
-25.6744 94.4116 -23.9668 0
-26.0612 94.5753 -24.2364 0
-26.706 93.2781 -24.3972 0
-27.8083 91.0404 -25.1073 0
-27.045 91.6583 -24.9131 0
-27.5138 91.3871 -25.0131 0
-27.7786 91.5616 -24.8898 0
-26.1167 92.2022 -24.3859 0
-26.5927 91.9405 -24.6727 0
-25.6459 92.5303 -23.9644 0
-26.0193 92.6409 -24.322 0
-26.2878 92.7372 -24.4808 0
-26.9685 92.2458 -24.636 0
-26.8341 92.0929 -24.7452 0
-26.6431 92.4853 -24.6202 0
-26.5778 92.8056 -24.4358 0
-17.7835 86.5193 -16.3376 0
-18.8999 86.3023 -18.2498 0
-18.2726 86.3738 -17.2324 0
-17.78 86.1402 -16.7046 0
-17.7223 85.7628 -17.0864 0
-21.0934 86.3689 -20.5289 0
-19.9281 86.3774 -19.4855 0
-22.3914 86.2307 -21.2813 0
-21.3912 86.0657 -20.6558 0
-20.5916 85.7589 -19.7825 0
-18.4752 85.7143 -17.8419 0
-17.7922 85.4134 -17.3869 0
-19.1856 86.0222 -18.4697 0
-19.4483 85.7367 -18.6743 0
-19.7609 85.4705 -18.9453 0
-17.9859 85.1193 -17.6561 0
-18.9376 85.1523 -18.3496 0
-18.166 84.8286 -17.9245 0
-18.3471 84.5302 -18.2128 0
-18.7745 99.9641 -12.8338 0
-19.1496 100.104 -13.4436 0
-18.2235 99.5762 -11.7639 0
-18.5 99.8014 -12.2348 0
-17.58 98.8607 -11.4503 0
-17.9101 99.2232 -11.6129 0
-17.7562 99.9046 -11.4748 0
-17.1034 100.269 -11.1033 0
-16.3078 98.368 -10.8193 0
-17.0541 98.5743 -11.1463 0
-14.8272 98.1694 -10.427 0
-15.5161 98.2564 -10.5979 0
-15.1355 98.7656 -10.7723 0
-13.9757 99.1433 -10.8674 0
-14.6926 99.2914 -10.9935 0
-16.3449 99.8826 -11.1493 0
-16.765 99.1599 -11.2909 0
-15.4876 99.5283 -11.1355 0
-13.2586 98.2835 -10.1632 0
-14.0984 98.1799 -10.232 0
-11.8502 98.3653 -10.053 0
-12.4381 98.373 -10.0878 0
-12.1999 98.7782 -10.3028 0
-11.4494 99.1329 -10.444 0
-11.9628 99.2085 -10.538 0
-10.8799 98.1714 -10.1166 0
-11.3146 98.345 -10.0259 0
-10.1234 97.8559 -10.1897 0
-10.4757 98.0075 -10.1878 0
-10.3408 98.2414 -10.3483 0
-9.85293 98.3002 -10.4948 0
-10.2141 98.5135 -10.5582 0
-10.9956 98.9662 -10.4289 0
-11.1536 98.6447 -10.2036 0
-10.5893 98.7407 -10.4981 0
-10.0874 98.8302 -10.8103 0
-13.243 99.1967 -10.7456 0
-13.6644 98.6819 -10.4995 0
-12.5205 99.2673 -10.6286 0
-18.2706 100.405 -12.2028 0
-9.50138 98.1217 -10.3772 0
-9.65052 97.9184 -10.1876 0
-8.39341 96.8913 -10.5807 0
-7.94946 96.5747 -10.68 0
-8.73404 97.1949 -10.4345 0
-7.84357 96.0636 -10.6149 0
-8.09055 95.9723 -10.4152 0
-7.77104 95.4328 -10.572 0
-7.15632 92.8912 -8.45276 0
-7.12537 93.1488 -7.72597 0
-7.22068 92.8015 -9.78723 0
-7.16878 92.7689 -9.17199 0
-7.62535 94.6324 -10.4844 0
-7.8278 94.4984 -10.2707 0
-7.4581 93.121 -9.92221 0
-7.48409 93.7029 -10.2881 0
-6.93181 93.2547 -7.07059 0
-7.01345 92.9673 -6.81066 0
-6.68553 92.8669 -6.23555 0
-6.72994 92.3514 -6.06247 0
-5.92075 91.5729 -5.33476 0
-5.93071 91.0082 -5.02129 0
-6.35089 92.0837 -5.55978 0
-5.32571 90.0556 -5.46569 0
-5.37137 89.4104 -5.64335 0
-5.56465 88.7762 -5.95885 0
-4.92762 87.7832 -6.64405 0
-4.929 87.2468 -6.85906 0
-4.80178 86.8522 -7.20282 0
-4.65829 86.3681 -7.7538 0
-4.51539 86.2631 -8.51704 0
-3.90712 85.8295 -9.35119 0
-4.27198 86.9118 -11.227 0
-4.32822 87.0329 -11.8554 0
-3.75966 85.8906 -9.8228 0
-4.23811 85.9459 -9.48309 0
-4.25073 86.6612 -10.6237 0
-3.85811 86.8019 -10.8895 0
-3.76202 86.1949 -10.3312 0
-4.72529 86.4548 -11.7334 0
-4.25185 85.6242 -12.5543 0
-4.31862 84.9968 -12.9419 0
-4.46208 86.1384 -12.2036 0
-5.79189 82.7094 -13.5035 0
-6.33271 81.9804 -13.8165 0
-4.57812 84.0982 -13.3194 0
-5.25869 83.3612 -13.1322 0
-13.8854 78.8467 -15.4895 0
-14.3451 78.3669 -14.8162 0
-13.7125 79.4261 -15.5738 0
-13.539 79.86 -15.6028 0
-13.3718 80.3018 -15.6297 0
-12.9306 80.4349 -16.0071 0
-12.6016 80.297 -15.7857 0
-12.0849 79.9133 -15.4262 0
-11.5332 79.6188 -15.0603 0
-10.774 79.8668 -14.6914 0
-10.0115 80.1049 -14.3816 0
-9.27319 80.2972 -14.1789 0
-8.54046 80.5473 -13.9846 0
-7.71985 81.0151 -14.3266 0
-6.96078 81.4195 -14.0851 0
-14.6384 77.84 -14.9437 0
-15.3029 77.7098 -14.6008 0
-18.8643 79.0931 -17.7142 0
-18.7315 79.3089 -18.2126 0
-18.307 79.9862 -18.0764 0
-17.9069 80.6343 -17.9518 0
-17.7703 80.893 -18.4487 0
-17.9484 82.4609 -17.8923 0
-17.7517 82.0748 -18.3294 0
-17.9845 83.0621 -17.9856 0
-18.3614 83.651 -18.1917 0
-17.5626 81.5072 -18.3498 0
-15.6249 77.239 -14.8673 0
-16.406 77.1006 -14.6446 0
-17.1093 77.0946 -14.6964 0
-17.4663 77.4153 -15.3112 0
-17.8707 77.737 -16.1123 0
-18.2775 78.1074 -17.0148 0
-18.5616 78.3707 -17.69 0
-19.4189 100.074 -15.2231 0
-19.3487 100.19 -15.9783 0
-19.5078 100.345 -16.5897 0
-21.8348 100.459 -16.0592 0
-20.3785 100.079 -16.5685 0
-26.2392 96.8171 -21.5688 0
-25.9176 96.7099 -21.0818 0
-23.3842 99.8756 -16.1169 0
-24.3296 98.9768 -16.9413 0
-25.2672 98.6397 -17.5147 0
-25.6358 98.0375 -18.2298 0
-25.76 97.5905 -19.1272 0
-25.7762 97.2439 -20.0988 0
-23.9154 86.3528 -22.807 0
-26.9221 89.8814 -25.2388 0
-24.4377 86.6584 -23.407 0
-24.8773 87.0295 -24.0341 0
-25.1813 87.4466 -24.5666 0
-25.4683 87.8719 -25.0386 0
-25.4374 88.1979 -24.6235 0
-26.0719 88.2233 -24.9731 0
-26.5503 88.646 -25.0123 0
-26.712 89.2386 -25.1776 0
-26.1799 95.4696 -23.4334 0
-26.0029 95.0071 -24.0856 0
-26.1872 95.3234 -23.8434 0
-26.4886 94.5825 -24.2474 0
-26.8311 93.7558 -24.3497 0
-27.036 93.3263 -24.1393 0
-26.8882 94.2562 -24.2381 0
-26.3666 96.2795 -22.38 0
-26.3937 95.9066 -23.1238 0
-27.5213 90.5263 -25.018 0
-28.0042 91.143 -24.8059 0
-27.7621 91.6249 -24.6535 0
-27.3781 91.9894 -24.682 0
-27.1748 92.3599 -24.4717 0
-26.8838 92.5893 -24.4475 0
-26.9139 92.8712 -24.2013 0
-23.3505 86.0861 -22.1356 0
-22.5681 85.9011 -21.477 0
-21.6698 85.7546 -20.8103 0
-20.8649 85.5101 -20.0502 0
-20.0207 85.2506 -19.2753 0
-18.5001 84.2026 -18.4842 0
-19.3928 84.6196 -18.9638 0
-20.2582 85.0243 -19.5885 0
-19.358 100.484 -14.5904 0
-19.2493 100.293 -14.0086 0
-18.5555 100.564 -12.7709 0
-19.0816 100.664 -13.3294 0
-17.4839 100.543 -11.4063 0
-16.9217 100.86 -11.3054 0
-13.8476 99.682 -11.1747 0
-16.2494 100.374 -11.4269 0
-15.4175 100.029 -11.4529 0
-14.5546 99.852 -11.3226 0
-11.3163 99.5647 -10.7386 0
-9.72555 98.5753 -10.7315 0
-10.8638 99.3669 -10.7078 0
-10.4686 99.0761 -10.7611 0
-9.94276 99.167 -11.075 0
-9.57647 98.8977 -10.9737 0
-13.1339 99.7486 -11.0272 0
-12.4052 99.7994 -10.8856 0
-11.8351 99.6887 -10.8216 0
-18.0439 101.031 -12.1236 0
-17.7589 100.794 -11.7599 0
-9.36618 98.3325 -10.6276 0
-9.05866 98.0617 -10.5041 0
-9.18391 97.9142 -10.2417 0
-8.86902 97.6279 -10.4132 0
371 1488 1489 0
370 1490 1488 0
370 1488 371 0
91 370 371 0
371 1489 1491 0
371 1491 1492 0
91 371 1492 0
373 1492 1493 0
372 91 1492 0
372 1492 373 0
24 372 373 0
376 374 1490 0
375 92 374 0
375 374 376 0
94 375 376 0
379 377 92 0
378 0 377 0
378 377 379 0
93 378 379 0
380 375 94 0
379 92 375 0
379 375 380 0
93 379 380 0
382 380 94 0
381 93 380 0
381 380 382 0
23 381 382 0
384 372 24 0
383 91 372 0
383 372 384 0
95 383 384 0
385 370 91 0
376 1490 370 0
376 370 385 0
94 376 385 0
386 383 95 0
385 91 383 0
385 383 386 0
94 385 386 0
387 386 95 0
382 94 386 0
382 386 387 0
23 382 387 0
389 384 24 0
388 95 384 0
388 384 389 0
97 388 389 0
391 387 95 0
390 23 387 0
390 387 391 0
96 390 391 0
392 388 97 0
391 95 388 0
391 388 392 0
96 391 392 0
394 392 97 0
393 96 392 0
393 392 394 0
7 393 394 0
99 1494 1495 0
98 1496 1497 0
395 1494 99 0
1497 1494 395 0
98 1497 395 0
397 395 99 0
396 98 395 0
396 395 397 0
25 396 397 0
373 1493 1498 0
373 1498 1499 0
24 373 1499 0
399 396 25 0
398 98 396 0
398 396 399 0
100 398 399 0
1500 1496 98 0
400 398 100 0
1500 98 398 0
1500 398 400 0
1501 1500 400 0
401 400 100 0
1499 1501 400 0
1499 400 401 0
24 1499 401 0
403 399 25 0
402 100 399 0
402 399 403 0
101 402 403 0
404 401 100 0
389 24 401 0
389 401 404 0
97 389 404 0
405 402 101 0
404 100 402 0
404 402 405 0
97 404 405 0
406 405 101 0
394 97 405 0
394 405 406 0
7 394 406 0
407 99 1495 0
407 1495 1502 0
1503 407 1502 0
409 397 99 0
408 25 397 0
408 397 409 0
102 408 409 0
410 407 1503 0
409 99 407 0
409 407 410 0
102 409 410 0
412 410 1503 0
411 102 410 0
411 410 412 0
27 411 412 0
414 403 25 0
413 101 403 0
413 403 414 0
104 413 414 0
416 406 101 0
415 7 406 0
415 406 416 0
103 415 416 0
417 413 104 0
416 101 413 0
416 413 417 0
103 416 417 0
419 417 104 0
418 103 417 0
418 417 419 0
26 418 419 0
421 411 27 0
420 102 411 0
420 411 421 0
105 420 421 0
422 408 102 0
414 25 408 0
414 408 422 0
104 414 422 0
423 420 105 0
422 102 420 0
422 420 423 0
104 422 423 0
424 423 105 0
419 104 423 0
419 423 424 0
26 419 424 0
426 421 27 0
425 105 421 0
425 421 426 0
107 425 426 0
428 424 105 0
427 26 424 0
427 424 428 0
106 427 428 0
429 425 107 0
428 105 425 0
428 425 429 0
106 428 429 0
431 429 107 0
430 106 429 0
430 429 431 0
2 430 431 0
412 1503 1504 0
412 1504 1505 0
27 412 1505 0
108 1506 1507 0
1508 1506 108 0
432 1508 108 0
1505 1508 432 0
27 1505 432 0
434 1507 1509 0
433 108 1507 0
433 1507 434 0
109 433 434 0
435 432 108 0
426 27 432 0
426 432 435 0
107 426 435 0
436 433 109 0
435 108 433 0
435 433 436 0
107 435 436 0
437 436 109 0
431 107 436 0
431 436 437 0
2 431 437 0
1510 434 1509 0
438 109 434 0
438 434 1510 0
1511 438 1510 0
440 437 109 0
439 2 437 0
439 437 440 0
110 439 440 0
441 438 1511 0
440 109 438 0
440 438 441 0
110 440 441 0
443 441 1511 0
442 110 441 0
442 441 443 0
28 442 443 0
443 1511 1512 0
443 1512 1513 0
28 443 1513 0
1514 28 1513 0
444 28 1514 0
444 1514 1515 0
111 444 1515 0
111 1515 1516 0
446 1516 1517 0
445 111 1516 0
445 1516 446 0
30 445 446 0
448 442 28 0
447 110 442 0
447 442 448 0
113 447 448 0
450 439 110 0
449 2 439 0
449 439 450 0
112 449 450 0
451 447 113 0
450 110 447 0
450 447 451 0
112 450 451 0
453 451 113 0
452 112 451 0
452 451 453 0
29 452 453 0
455 445 30 0
454 111 445 0
454 445 455 0
114 454 455 0
456 444 111 0
448 28 444 0
448 444 456 0
113 448 456 0
457 454 114 0
456 111 454 0
456 454 457 0
113 456 457 0
458 457 114 0
453 113 457 0
453 457 458 0
29 453 458 0
460 455 30 0
459 114 455 0
459 455 460 0
116 459 460 0
462 458 114 0
461 29 458 0
461 458 462 0
115 461 462 0
463 459 116 0
462 114 459 0
462 459 463 0
115 462 463 0
465 463 116 0
464 115 463 0
464 463 465 0
8 464 465 0
31 1518 1519 0
446 1517 1520 0
446 1520 1521 0
30 446 1521 0
466 1518 31 0
1522 1518 466 0
117 1522 466 0
467 1522 117 0
1523 1522 467 0
1524 1523 467 0
468 467 117 0
1521 1524 467 0
1521 467 468 0
30 1521 468 0
470 466 31 0
469 117 466 0
469 466 470 0
118 469 470 0
471 468 117 0
460 30 468 0
460 468 471 0
116 460 471 0
472 469 118 0
471 117 469 0
471 469 472 0
116 471 472 0
473 472 118 0
465 116 472 0
465 472 473 0
8 465 473 0
1525 31 1519 0
475 470 31 0
474 118 470 0
474 470 475 0
120 474 475 0
477 473 118 0
476 8 473 0
476 473 477 0
119 476 477 0
478 474 120 0
477 118 474 0
477 474 478 0
119 477 478 0
480 478 120 0
479 119 478 0
479 478 480 0
32 479 480 0
482 1526 1527 0
481 1528 1526 0
481 1526 482 0
121 481 482 0
483 1525 1528 0
475 31 1525 0
475 1525 483 0
120 475 483 0
484 481 121 0
483 1528 481 0
483 481 484 0
120 483 484 0
485 484 121 0
480 120 484 0
480 484 485 0
32 480 485 0
487 482 1527 0
486 121 482 0
486 482 487 0
123 486 487 0
489 485 121 0
488 32 485 0
488 485 489 0
122 488 489 0
490 486 123 0
489 121 486 0
489 486 490 0
122 489 490 0
492 490 123 0
491 122 490 0
491 490 492 0
4 491 492 0
494 430 2 0
493 106 430 0
493 430 494 0
125 493 494 0
496 427 106 0
495 26 427 0
495 427 496 0
124 495 496 0
497 493 125 0
496 106 493 0
496 493 497 0
124 496 497 0
499 497 125 0
498 124 497 0
498 497 499 0
34 498 499 0
501 418 26 0
500 103 418 0
500 418 501 0
127 500 501 0
503 415 103 0
502 7 415 0
502 415 503 0
126 502 503 0
504 500 127 0
503 103 500 0
503 500 504 0
126 503 504 0
506 504 127 0
505 126 504 0
505 504 506 0
33 505 506 0
508 498 34 0
507 124 498 0
507 498 508 0
128 507 508 0
509 495 124 0
501 26 495 0
501 495 509 0
127 501 509 0
510 507 128 0
509 124 507 0
509 507 510 0
127 509 510 0
511 510 128 0
506 127 510 0
506 510 511 0
33 506 511 0
513 508 34 0
512 128 508 0
512 508 513 0
130 512 513 0
515 511 128 0
514 33 511 0
514 511 515 0
129 514 515 0
516 512 130 0
515 128 512 0
515 512 516 0
129 515 516 0
518 516 130 0
517 129 516 0
517 516 518 0
10 517 518 0
520 393 7 0
519 96 393 0
519 393 520 0
132 519 520 0
522 390 96 0
521 23 390 0
521 390 522 0
131 521 522 0
523 519 132 0
522 96 519 0
522 519 523 0
131 522 523 0
525 523 132 0
524 131 523 0
524 523 525 0
36 524 525 0
527 381 23 0
526 93 381 0
526 381 527 0
134 526 527 0
529 378 93 0
528 0 378 0
528 378 529 0
133 528 529 0
530 526 134 0
529 93 526 0
529 526 530 0
133 529 530 0
532 530 134 0
531 133 530 0
