#!ascii - generated by CreateLabelFiles project 
3012 5778
-15.7855 -16.0838 23.7153 0
-15.0133 -14.1708 21.1922 0
-14.735 -12.3305 23.4758 0
-16.4687 -11.5588 26.0896 0
-14.0596 -13.919 25.5267 0
-15.4512 -16.9654 24.3391 0
-18.2065 -13.4008 27.6545 0
-15.4902 -12.3819 26.8453 0
-14.6607 -14.1254 27.0471 0
-15.4469 -14.0951 29.211 0
-13.4536 -14.7642 27.7074 0
-22.8255 -21.1577 20.3939 0
-21.8819 -18.2935 21.4432 0
-23.5328 -23.4665 19.445 0
-18.4073 -15.5998 29.7773 0
-17.5507 -15.6203 30.4492 0
-20.5437 -15.68 27.4006 0
-19.5633 -15.7653 28.7916 0
-21.1195 -18.1991 29.2705 0
-22.0403 -16.8221 24.4139 0
-21.6858 -15.8653 25.8787 0
-22.1305 -17.5725 22.949 0
-23.329 -20.21 23.4498 0
-22.5947 -19.0889 26.4154 0
-24.0475 -22.4929 25.4447 0
-16.8535 -25.3784 20.9608 0
-14.6625 -24.8069 21.0735 0
-18.4765 -23.0758 22.8678 0
-18.3514 -25.1241 21.6051 0
-17.9274 -26.4319 22.543 0
-15.1652 -18.3153 24.2885 0
-17.3991 -20.1691 23.8917 0
-12.6343 -16.0681 26.4903 0
-13.1983 -16.9247 24.7938 0
-13.9801 -19.5812 23.4733 0
-13.3002 -21.6326 23.2331 0
-18.8562 -22.8393 24.4925 0
-13.8288 -16.6578 29.4922 0
-8.40098 0.659582 3.78956 0
-8.78991 1.53115 3.34186 0
-7.73297 -0.796606 4.64885 0
-8.01126 0.000358421 4.27092 0
-7.85835 -0.682611 3.31969 0
-7.38305 -2.16497 2.97939 0
-7.65577 -1.37035 2.55763 0
-6.25042 -1.80184 5.46466 0
-6.87701 -1.30706 4.97291 0
-5.50103 -3.27272 6.30306 0
-6.1074 -2.75654 5.82 0
-6.25032 -3.54753 4.81522 0
-6.28316 -5.58593 4.19298 0
-6.4516 -4.84577 3.79875 0
-6.96501 -2.95495 3.25429 0
-6.74321 -3.86685 2.34934 0
-6.99754 -2.17259 4.07341 0
-6.58085 -4.00137 3.50227 0
-6.42434 -6.32333 2.68851 0
-5.617 -7.24002 0.786281 0
-5.34153 -5.97439 0.408165 0
-6.73226 -9.19029 1.0373 0
-6.04261 -8.57205 0.954368 0
-5.06301 -9.40708 -1.15093 0
-5.71347 -9.95473 -2.65188 0
-4.68386 -9.05756 -3.20665 0
-5.03411 -4.46188 7.48022 0
-5.05138 -3.71134 6.87751 0
-4.05959 -6.42707 8.02 0
-4.27314 -5.33459 7.74562 0
-4.96343 -6.51033 6.65238 0
-5.95638 -8.4859 5.43552 0
-5.9502 -7.52381 5.35757 0
-4.0795 -7.87591 9.00795 0
-4.13943 -7.23015 8.55869 0
-4.908 -9.00669 9.36378 0
-4.2609 -8.42309 9.25998 0
-4.7855 -10.245 7.33407 0
-5.78512 -12.2043 4.14061 0
-5.99517 -11.1171 4.79104 0
-6.0253 -9.51164 5.2832 0
-7.38147 -9.88817 3.68384 0
-4.69661 -8.54801 7.00831 0
-6.10522 -10.3288 5.19784 0
-7.43877 -11.6146 2.1921 0
-9.29325 -10.1662 2.2384 0
-9.17797 -9.59713 2.46152 0
-9.15316 -12.5769 0.424863 0
-9.12653 -11.2108 1.44274 0
-10.8799 -10.5471 0.938649 0
-12.7329 -11.1904 -0.225146 0
-12.4798 -10.0652 0.0716602 0
-6.75995 -10.9658 -2.44146 0
-6.24329 -10.8996 -4.21508 0
-7.18297 -9.39739 1.43271 0
-7.22121 -10.9177 -0.744785 0
-7.9441 -11.3536 -2.21965 0
-9.25063 -10.9024 -1.65176 0
-8.92931 -10.9921 -3.53905 0
-6.31668 -6.11324 4.68668 0
-6.72344 -7.69604 3.19573 0
-5.51545 -4.85078 5.78964 0
-6.05225 -6.76018 5.0422 0
-6.92684 -8.78125 3.74233 0
-9.22733 -10.1135 0.262055 0
-10.4206 -10.0077 -0.888643 0
-7.68201 -9.47436 1.78646 0
-8.15836 -9.44394 2.01131 0
-8.66116 -9.55217 2.28603 0
-11.4036 -9.21443 0.00612919 0
-11.2881 -9.93231 -2.08468 0
-10.7877 -9.0654 1.66703 0
-12.1279 -9.40345 0.406027 0
-7.24785 -10.5685 -5.71753 0
-6.16643 -9.67735 -6.38819 0
-8.75046 -10.7175 -5.32974 0
-6.16662 -10.4531 10.2075 0
-5.56346 -9.67695 9.73812 0
-7.48868 -12.615 11.1456 0
-7.03182 -11.386 10.6564 0
-6.49096 -12.8163 8.28912 0
-7.68924 -16.8078 5.00865 0
-6.92777 -15.5772 4.67018 0
-9.25235 -15.1059 12.0731 0
-8.41751 -13.7972 11.2717 0
-10.5084 -17.5295 14.1184 0
-10.1153 -16.1643 13.1308 0
-10.2865 -18.6161 8.71746 0
-11.3144 -21.529 6.97845 0
-10.5276 -20.5371 5.87604 0
-8.81428 -17.9695 4.97981 0
-10.0558 -19.4832 2.06302 0
-7.88013 -15.9834 8.24017 0
-9.8469 -19.3251 5.16421 0
-11.0483 -21.6256 3.52985 0
-11.4817 -20.3494 1.93436 0
-11.1961 -19.3349 1.19944 0
-12.3287 -22.4073 3.59522 0
-11.6678 -21.4054 2.72273 0
-13.3355 -20.2506 2.8356 0
-10.325 -19.8991 15.9055 0
-10.5167 -18.7848 14.9135 0
-10.6786 -21.0979 16.2922 0
-10.5371 -20.5636 16.1058 0
-10.2123 -21.8821 13.7994 0
-11.3972 -24.0897 12.273 0
-12.1653 -24.0471 10.8095 0
-11.0318 -22.3449 17.5768 0
-10.7873 -21.6709 16.8099 0
-11.6078 -23.5926 19.8371 0
-11.3878 -23.1635 18.4329 0
-10.2906 -23.8639 17.7427 0
-10.4002 -25.1816 17.8393 0
-10.5582 -24.7985 16.5393 0
-11.0195 -23.9307 14.055 0
-12.5528 -26.2075 11.1745 0
-10.0771 -22.648 15.8981 0
-10.5637 -24.3305 15.4712 0
-13.4476 -27.0887 9.36697 0
-15.0532 -21.3603 4.24446 0
-12.7935 -23.667 4.65189 0
-13.5701 -22.8325 4.1362 0
-12.1431 -22.5188 7.91883 0
-12.4447 -23.9185 5.69419 0
-11.5586 -20.3414 10.7082 0
-12.0569 -23.6869 9.12734 0
-12.9505 -26.1863 7.99955 0
-14.6138 -25.4479 5.85676 0
-13.6462 -24.7191 5.55732 0
-13.795 -26.3891 6.50241 0
-13.7918 -27.1013 7.7707 0
-13.107 -12.6094 -0.655861 0
-9.54799 -13.9694 0.143756 0
-11.2639 -13.3835 -0.31818 0
-13.6929 -13.9888 -1.10147 0
-14.4242 -15.3368 -0.950102 0
-6.13272 -13.321 4.08807 0
-8.00453 -14.203 1.43851 0
-5.25651 -11.1545 7.45221 0
-6.49465 -14.3902 4.42289 0
-8.88475 -16.9849 1.7205 0
-12.4937 -15.9609 0.193288 0
-10.062 -15.3545 0.423122 0
-10.442 -16.6627 0.735138 0
-10.8444 -18.0734 0.906442 0
-13.2754 -18.1583 1.20456 0
-15.5202 -18.5603 1.02289 0
-13.2973 -25.3038 22.6178 0
-12.5549 -24.417 21.1931 0
-11.0859 -24.9108 20.5229 0
-8.81884 -1.77871 -1.7179 0
-7.40126 -0.899042 -2.80174 0
-7.52869 -1.62134 -3.19066 0
-8.71696 0.110979 -0.640457 0
-7.18849 -0.547735 -0.0129951 0
-7.08422 -0.768986 -1.38521 0
-5.61991 -1.93682 -2.72906 0
-4.07281 -3.02166 -2.77389 0
-4.00743 -2.89983 -3.78919 0
-9.0893 1.84208 1.22626 0
-8.61954 0.581134 1.71349 0
-8.138 -0.110928 1.04338 0
-9.38945 2.39366 3.07084 0
-8.79068 1.25846 2.57433 0
-8.18222 -0.447119 2.15158 0
-6.92075 -1.84921 1.74068 0
-4.09899 -3.18198 -1.53771 0
-3.36847 -4.92533 -3.11696 0
-6.24561 -1.50731 -0.0520196 0
-5.44992 -2.93661 -0.150382 0
-5.13533 -4.82056 0.015714 0
-3.43629 -6.61947 -3.37802 0
-2.85795 -6.06881 -4.62717 0
-3.91199 -6.84427 -1.83418 0
-3.87799 -7.87856 -3.36906 0
-3.95624 -8.75156 -4.89869 0
-5.67444 -2.27321 -4.51893 0
-4.65632 -3.21261 -5.17405 0
-3.26845 -3.75878 -5.40642 0
-2.93647 -5.66685 -7.15159 0
-3.64683 -6.9289 -7.39207 0
-2.9255 -4.70445 -6.60196 0
-3.08301 -5.11258 -6.01594 0
-4.30732 -6.88405 -7.38737 0
-4.31967 -8.11699 -7.50717 0
-3.38028 -6.53779 -6.23044 0
-4.09949 -7.67329 -6.43926 0
-5.06352 -8.68021 -6.51461 0
-4.86759 -9.40488 -7.44837 0
-5.69493 -9.20581 -7.51316 0
-22.2904 3.96056 -6.59665 0
-20.9124 1.57616 -5.8231 0
-10.6758 -1.98613 -1.62871 0
-16.2991 3.70557 -2.15508 0
-13.6698 2.09177 -1.70297 0
-17.9309 4.42889 -2.27678 0
-19.813 4.13624 -3.14282 0
-17.9703 3.82318 -0.913586 0
-20.6406 3.80634 -5.80046 0
-20.7888 2.99948 -4.3788 0
-21.0418 1.83815 -3.72937 0
-10.206 -0.902465 -0.535963 0
-13.4457 3.01366 -0.717924 0
-11.3356 1.21236 -0.506276 0
-10.0686 0.532789 0.0213537 0
-10.0078 1.99237 0.2052 0
-18.035 3.48904 0.217767 0
-15.5466 3.31062 -0.21243 0
-19.8746 2.2299 -1.26532 0
-17.7695 2.85403 0.928232 0
-15.063 3.39567 1.83466 0
-11.568 3.42297 0.657344 0
-10.15 2.95192 0.90107 0
-13.3363 3.78198 0.354187 0
-13.1946 3.85271 1.37348 0
-12.9239 3.66856 2.22392 0
-10.1099 3.13261 1.86469 0
-11.3197 3.31882 2.51848 0
-10.0609 2.91914 2.74699 0
-20.6752 -0.212983 -5.75968 0
-20.7208 0.4015 -6.10167 0
-24.356 -8.51429 -3.35006 0
-24.1651 -7.97994 -3.57187 0
-24.4282 -9.07524 -3.21416 0
-23.1118 -8.27823 -2.89669 0
-21.6032 -7.65766 -1.95549 0
-21.6156 -7.61123 -2.50612 0
-20.8434 -0.882173 -5.55926 0
-20.5714 -0.243785 -5.13165 0
-21.0423 -1.56765 -5.56132 0
-21.2094 -2.21382 -5.6131 0
-20.8869 -1.56048 -4.96685 0
-21.8915 -2.83492 -5.88806 0
-21.4771 -2.81085 -5.66959 0
-21.8602 -3.44025 -5.79843 0
-21.1362 -2.64469 -4.84144 0
-23.4866 -4.51874 -5.6699 0
-22.7958 -4.11947 -6.1319 0
-22.0427 -4.02962 -5.7551 0
-22.139 -4.59372 -5.66813 0
-21.15 -3.68496 -4.77376 0
-23.3925 -5.25413 -6.19957 0
-22.3706 -5.10384 -5.55772 0
-23.5285 -4.96374 -5.71716 0
-23.6712 -5.40233 -5.43423 0
-23.8107 -5.78508 -5.08541 0
-22.5281 -5.55428 -5.40599 0
-21.2583 -4.8824 -4.77504 0
-23.7924 -6.18546 -4.71532 0
-23.4689 -6.12018 -5.53454 0
-22.4782 -5.98623 -5.00716 0
-22.5065 -6.47411 -4.63801 0
-21.4243 -5.56105 -3.97285 0
-23.4407 -7.00597 -4.81394 0
-22.3779 -6.86935 -4.16568 0
-23.8851 -6.56908 -4.44699 0
-23.956 -7.06234 -4.14178 0
-24.0134 -7.51032 -3.93814 0
-21.9769 -7.12764 -3.5538 0
-20.9537 -6.18742 -2.90313 0
-23.2136 -7.72535 -3.79894 0
-21.6381 -7.37093 -2.96124 0
-20.2168 -6.79638 -1.9235 0
-20.7303 -0.0280415 -3.85631 0
-20.7588 0.555684 -4.16028 0
-20.7388 -1.18932 -3.83547 0
-20.7835 -0.649476 -3.86028 0
-20.5714 0.300961 -2.55039 0
-19.9637 0.715984 -1.22742 0
-20.2017 1.09527 -1.56204 0
-20.4828 -2.2512 -3.71721 0
-20.6604 -1.73551 -3.7562 0
-20.2602 -3.3399 -3.7731 0
-20.3622 -2.72373 -3.68215 0
-19.9958 -1.79651 -2.41156 0
-19.1853 -1.36895 -1.23478 0
-19.3485 -0.828832 -1.26844 0
-19.8028 0.221916 -1.29595 0
-19.1872 1.04717 0.0644727 0
-20.4584 -0.754398 -2.55698 0
-19.5299 -0.260258 -1.32479 0
-18.716 0.190988 -0.0382622 0
-18.2488 1.18864 1.17881 0
-18.457 1.69438 0.752353 0
-18.0666 0.431735 1.25316 0
-18.133 0.795734 1.18045 0
-17.13 1.67898 2.11695 0
-15.9519 2.35427 2.91602 0
-16.155 2.56697 2.41941 0
-20.2014 -4.48972 -3.69975 0
-20.2083 -4.06159 -3.91547 0
-20.0888 -4.83974 -2.64684 0
-20.2799 -4.64508 -3.11935 0
-19.2226 -3.74919 -2.12993 0
-18.2074 -3.06472 -0.879857 0
-18.4729 -2.71722 -1.04938 0
-19.4815 -5.38409 -1.65537 0
-19.7732 -5.12099 -2.14712 0
-18.9327 -5.8646 -0.722641 0
-19.1665 -5.6851 -1.22121 0
-18.0982 -4.71999 -0.676144 0
-17.2023 -4.05515 0.56205 0
-17.4001 -3.87681 0.110104 0
-17.8487 -3.27526 -0.660077 0
-17.2966 -2.37008 0.319099 0
-18.5165 -4.16553 -1.58991 0
-17.562 -3.57506 -0.337358 0
-16.7846 -3.03271 0.946829 0
-16.4724 -1.83043 1.54304 0
-16.7951 -1.5684 1.32891 0
-15.7946 -2.26502 2.07621 0
-16.1562 -2.09195 1.82597 0
-15.5584 -1.16431 2.74328 0
-14.6466 -0.35555 3.8746 0
-14.9336 -0.221222 3.56106 0
-16.0364 1.93718 3.13532 0
-14.8202 2.58787 3.24848 0
-17.8916 -0.107787 1.21587 0
-17.2346 0.850578 2.40287 0
-16.1386 1.54584 3.35375 0
-15.967 1.14735 3.35835 0
-15.0373 1.95856 3.88478 0
-18.9838 -1.82614 -1.21932 0
-18.3917 -0.944071 -0.0377551 0
-19.6129 -2.80441 -2.43002 0
-18.7021 -2.24599 -1.17287 0
-17.7994 -1.73867 0.00120904 0
-16.773 0.121855 2.37708 0
-15.7368 0.652342 3.25756 0
-17.6465 -0.453321 1.2006 0
-17.3461 -0.857965 1.19737 0
-17.0582 -1.24767 1.20813 0
-15.4729 0.232372 3.22524 0
-14.6793 1.06468 3.80566 0
-16.2131 -0.680355 2.371 0
-15.2151 -0.0123932 3.36799 0
-14.217 0.625102 4.15404 0
-13.7258 2.68715 3.49864 0
-13.7102 2.98399 2.93906 0
-13.8825 2.11368 4.00934 0
-13.8057 2.39306 3.82618 0
-12.7022 2.78216 3.59424 0
-11.726 2.88125 3.67116 0
-11.8241 3.08879 3.23869 0
-13.6504 1.5624 4.2963 0
-13.7977 1.7643 4.08217 0
-13.1977 1.14472 4.77497 0
-13.4568 1.37923 4.52374 0
-12.6284 1.79731 4.56015 0
-11.6637 1.94447 4.80413 0
-11.8103 2.08997 4.49556 0
-11.7124 2.64799 4.01145 0
-11.0194 2.79359 3.73949 0
-12.7928 2.25376 4.09925 0
-11.8078 2.35869 4.24883 0
-11.0737 2.31789 4.31736 0
-10.5155 2.67349 3.80568 0
-10.5346 2.87669 3.47105 0
-10.4422 2.26933 4.39431 0
-10.4882 2.46373 4.11947 0
-10.0881 2.54317 3.86988 0
-9.73228 2.28289 3.87613 0
-9.76449 2.49756 3.62648 0
-9.62861 1.919 4.10522 0
-9.32384 1.95512 3.80028 0
-10.2853 2.09822 4.73571 0
-9.90621 2.05015 4.43693 0
-9.42738 1.57676 4.36334 0
-9.03361 1.55612 4.75451 0
-8.9237 1.22511 4.30384 0
-11.4636 1.829 5.17691 0
-10.839 1.9746 4.96738 0
-12.9224 0.921767 5.09258 0
-12.1956 1.43285 5.17471 0
-11.1884 1.70827 5.52067 0
-10.8639 1.56058 5.80587 0
-10.3532 1.70039 5.68975 0
-9.32342 1.77116 5.15579 0
-8.7029 1.50816 5.1042 0
-10.042 1.93893 5.1111 0
-9.77731 1.78514 5.46558 0
-9.57071 1.58734 5.76884 0
-8.59376 1.11903 5.35534 0
-8.3947 0.920297 4.94543 0
-9.40412 1.23055 6.03906 0
-9.02181 1.13824 5.69486 0
-8.50389 0.666889 5.57785 0
-8.28722 0.373212 5.82522 0
-8.10399 0.171039 5.38317 0
-14.3645 -0.422245 4.25481 0
-13.6669 0.272236 4.72785 0
-15.3502 -2.33349 2.28621 0
-14.8541 -1.37325 3.29776 0
-14.0321 -0.448684 4.60506 0
-13.609 -0.501006 4.84823 0
-12.7274 -0.10085 5.16512 0
-16.9192 -4.15455 0.982878 0
-16.1428 -3.29388 1.61495 0
-18.8635 -5.87964 -0.164184 0
-17.8689 -4.97759 0.406053 0
-16.6672 -4.2782 1.44714 0
-16.245 -4.42276 1.8429 0
-15.3724 -3.42983 2.40492 0
-14.126 -1.34738 4.00777 0
-13.3368 -0.522448 5.13344 0
-14.9644 -2.37297 2.64968 0
-14.5989 -2.40208 3.09304 0
-14.3513 -2.53167 3.46101 0
-13.2053 -0.812308 5.28057 0
-12.6214 -0.0735902 5.81103 0
-14.3869 -2.89844 3.82031 0
-13.728 -1.78349 4.50233 0
-13.09 -1.09509 5.45929 0
-13.218 -1.3239 5.85758 0
-12.4564 -0.525539 6.26936 0
-8.53549 0.614429 6.27952 0
-7.90775 0.299211 6.18026 0
-9.86631 1.15908 6.22588 0
-9.19107 0.905797 6.32317 0
-8.9907 0.775294 6.68417 0
-9.57572 0.735011 6.88379 0
-8.8329 0.679536 7.07213 0
-11.5199 1.15273 5.78195 0
-10.5608 1.37152 6.08172 0
-12.5409 0.71138 5.353 0
-12.0351 0.483411 5.50657 0
-11.5886 0.231824 5.68058 0
-10.3008 0.817963 6.70877 0
-10.2655 0.915645 7.14409 0
-10.4262 1.08361 6.38739 0
-10.9502 0.556093 6.22217 0
-11.726 0.247928 6.05313 0
-11.087 0.679774 6.98878 0
-10.2752 1.03534 7.55341 0
-11.9075 0.334455 6.44724 0
-11.8696 0.179021 6.7436 0
-11.815 -0.0112392 7.02099 0
-7.58097 0.125013 6.49345 0
-7.51044 -0.310418 5.86533 0
-8.82822 0.47328 7.39386 0
-8.15604 0.258825 6.95721 0
-7.54552 -0.379987 6.71295 0
-7.49578 -0.821527 6.93866 0
-7.06287 -0.979895 6.31218 0
-10.2236 0.675142 7.74505 0
-9.58663 0.711605 7.67535 0
-11.6743 -0.261071 7.31361 0
-10.9817 0.134991 7.47929 0
-10.1362 0.194439 7.88908 0
-9.87825 -0.00352029 8.20479 0
-9.24753 0.169403 8.17534 0
-8.22657 -0.523147 7.47072 0
-7.38848 -1.12174 7.15742 0
-8.93011 0.112987 7.65139 0
-8.77886 -0.106588 7.9196 0
-8.30183 0.0106758 8.28587 0
-7.17858 -1.2834 7.42801 0
-6.89239 -1.79809 6.67587 0
-8.04269 -0.17653 8.62951 0
-7.43148 -0.332253 8.24151 0
-6.75724 -1.18573 7.82169 0
-6.46091 -1.26855 8.16526 0
-6.18221 -1.94898 7.40017 0
-21.5952 -7.51901 -1.32219 0
-20.2155 -6.65663 -0.732016 0
-23.0926 -8.49686 -2.02336 0
-21.4803 -7.42994 -0.701128 0
-21.2818 -7.31942 -0.0571994 0
-19.9317 -6.48061 0.46651 0
-22.5525 -8.19539 -0.555782 0
-21.2211 -7.49244 0.46648 0
-21.2922 -7.93827 0.86213 0
-20.0178 -7.1896 1.21416 0
-22.5148 -8.69153 0.56327 0
-21.3851 -8.3908 1.26722 0
-21.4887 -8.92885 1.62938 0
-20.3297 -8.0615 1.91047 0
-21.6204 -9.54216 1.95946 0
-21.7289 -10.1351 2.28225 0
-20.6389 -9.07266 2.65186 0
-22.8187 -11.1216 1.71712 0
-21.6319 -10.609 2.51503 0
-21.4356 -10.9518 2.86175 0
-20.6098 -9.83033 3.38996 0
-21.1029 -11.3853 3.19067 0
-20.7794 -11.6929 3.64108 0
-20.1001 -10.6508 4.07951 0
-21.5587 -12.5549 3.31873 0
-20.3773 -11.9152 4.02926 0
-19.858 -12.1903 4.26553 0
-19.2637 -11.2994 4.60557 0
-7.12925 -0.886573 8.81833 0
-6.2463 -1.50107 8.43453 0
-8.64572 -0.19547 8.90233 0
-7.91041 -0.539849 8.87798 0
-7.85279 -0.691935 9.34817 0
-8.47907 -0.527674 9.84691 0
-7.84807 -1.03202 9.65229 0
-10.5332 -0.262013 8.12274 0
-9.53914 -0.201499 8.53062 0
-12.4215 -0.998864 6.96204 0
-11.5225 -0.504351 7.61199 0
-11.312 -0.768391 7.92655 0
-12.1709 -1.46446 7.59315 0
-11.0799 -1.031 8.22927 0
-9.26418 -0.602182 9.37151 0
-9.12472 -0.823281 9.73683 0
-9.3616 -0.401163 8.94843 0
-10.0977 -0.67995 8.88264 0
-10.9421 -1.28392 8.55228 0
-9.81715 -1.12649 9.54255 0
-8.99869 -1.09701 10.024 0
-11.881 -2.00469 8.16662 0
-10.8336 -1.55286 8.86893 0
-10.7454 -1.86933 9.03702 0
-11.7713 -2.60991 8.6332 0
-10.7005 -2.16157 9.19044 0
-13.8997 -2.37885 5.24526 0
-13.3099 -1.57872 6.23823 0
-15.2463 -4.00518 3.14068 0
-14.4466 -3.25833 4.17326 0
-14.5928 -3.5914 4.51931 0
-15.5439 -4.71061 3.84251 0
-14.7284 -3.87687 4.89324 0
-17.3556 -5.15406 1.34645 0
-16.0865 -4.64913 2.21096 0
-18.8123 -5.79572 0.402421 0
-18.6019 -5.79653 0.887192 0
-18.5656 -6.04027 1.2661 0
-16.4436 -5.34184 2.90419 0
-16.5392 -5.74293 3.2567 0
-16.2848 -4.99028 2.55488 0
-17.529 -5.69805 2.07699 0
-18.7141 -6.51489 1.53948 0
-17.85 -6.51359 2.70207 0
-16.7272 -6.06976 3.61593 0
-18.9123 -6.91817 1.8591 0
-19.1485 -7.25813 2.20167 0
-19.3488 -7.61003 2.604 0
-12.8652 -3.18643 8.00481 0
-12.8699 -3.50511 8.19621 0
-12.9823 -2.50027 7.4831 0
-12.9212 -2.83341 7.75348 0
-13.9624 -3.84074 7.21897 0
-15.0749 -4.65569 6.30899 0
-15.0184 -5.07286 6.53337 0
-13.2607 -1.98121 6.91916 0
-13.0731 -2.25537 7.19563 0
-13.2534 -1.79288 6.56741 0
-14.0112 -2.85392 5.97188 0
-14.8767 -3.98685 5.31637 0
-15.024 -4.39671 6.01692 0
-16.1292 -5.69525 5.29671 0
-14.0223 -3.22482 6.67919 0
-15.0075 -4.16128 5.70782 0
-15.8386 -5.21984 4.62502 0
-17.2497 -6.5096 4.37902 0
-17.4243 -6.66472 4.69486 0
-17.0177 -6.29319 3.99646 0
-18.3577 -7.07094 3.4688 0
-19.5632 -7.88965 3.06458 0
-13.8987 -4.6167 7.69626 0
-12.8817 -3.86812 8.44132 0
-16.1045 -6.38342 5.83433 0
-14.9228 -5.51529 6.76629 0
-14.9103 -5.92353 7.05256 0
-15.8728 -7.16308 6.37287 0
-14.8083 -6.31742 7.29146 0
-18.6049 -7.60391 4.25308 0
-17.4169 -7.00144 5.04912 0
-19.6612 -8.33116 3.4315 0
-19.6885 -8.65788 3.83994 0
-19.5567 -9.01427 4.18446 0
-17.1152 -7.80867 5.67555 0
-16.9814 -8.16186 6.00778 0
-17.2655 -7.42683 5.32461 0
-18.3909 -8.38178 4.96412 0
-19.3352 -9.44039 4.5195 0
-17.9921 -9.25057 5.81756 0
-16.7635 -8.59575 6.47578 0
-19.0418 -9.9064 4.89263 0
-18.7302 -10.2992 5.25518 0
-18.288 -10.6096 5.48402 0
-6.10002 -1.79532 8.70452 0
-5.51961 -2.2031 7.99721 0
-7.728 -1.23631 10.0733 0
-7.13522 -1.59082 9.40393 0
-6.12002 -2.26581 8.97988 0
-5.97003 -2.63819 9.31912 0
-5.37183 -3.0064 8.56183 0
-8.89652 -1.41322 10.1113 0
-8.23756 -1.08103 10.4835 0
-10.6296 -2.52296 9.21333 0
-9.60071 -1.77741 9.67793 0
-8.71943 -1.86507 10.0111 0
-8.53874 -2.34793 9.80445 0
-7.90445 -1.99897 10.3335 0
-6.5451 -2.1049 10.1525 0
-5.68594 -2.94809 9.6269 0
-7.45543 -1.48317 10.419 0
-7.28295 -1.90715 10.4264 0
-7.14757 -2.34037 10.4768 0
-5.55104 -3.33798 9.80288 0
-4.97871 -3.86982 9.01333 0
-7.02697 -2.8034 10.4752 0
-6.32004 -2.95088 10.3241 0
-5.42815 -3.75287 9.98823 0
-5.24433 -4.21192 10.149 0
-4.61836 -4.80655 9.42748 0
-12.8174 -4.30305 8.46713 0
-11.7363 -3.23028 8.88696 0
-14.7354 -6.73571 7.50149 0
-13.8395 -5.46636 8.19681 0
-12.7582 -4.72016 8.63394 0
-12.6607 -5.20597 8.78445 0
-11.5541 -4.09848 8.90242 0
-16.5205 -8.96992 6.73699 0
-15.5377 -7.90835 6.89035 0
-17.8304 -10.9467 5.6399 0
-17.3463 -10.0053 6.3762 0
-16.1456 -9.32192 6.90698 0
-15.7842 -9.67148 6.92033 0
-15.011 -8.62383 7.18276 0
-13.4836 -6.42449 8.36715 0
-12.3949 -5.74936 8.73811 0
-14.5067 -7.15688 7.68592 0
-14.1989 -7.64154 7.6703 0
-13.9026 -7.99143 7.647 0
-12.1253 -6.2273 8.75499 0
-11.2528 -5.07884 9.04081 0
-13.6638 -8.40884 7.73662 0
-12.9071 -7.42321 8.32492 0
-11.9198 -6.76456 8.85841 0
-11.7877 -7.23748 9.02261 0
-10.9122 -5.97962 9.29104 0
-6.02917 -3.90872 10.4536 0
-5.05343 -4.65258 10.3261 0
-7.69985 -2.96739 10.2836 0
-6.8912 -3.26917 10.5204 0
-6.74326 -3.73891 10.5964 0
-7.45641 -3.91996 10.4697 0
-6.61768 -4.18147 10.7586 0
-9.32913 -2.75205 9.38932 0
-8.46405 -2.80759 9.84499 0
-10.4958 -2.97128 9.0912 0
-10.4584 -3.369 9.15025 0
-10.4317 -3.80434 9.30747 0
-8.36201 -3.67084 10.2234 0
-8.20285 -4.1426 10.3151 0
-8.48616 -3.20594 10.1255 0
-9.36153 -3.61039 9.82481 0
-10.3056 -4.26262 9.37834 0
-9.05867 -4.53225 9.98264 0
-8.09395 -4.58496 10.5167 0
-10.1345 -4.66264 9.47461 0
-9.95557 -5.02582 9.59018 0
-9.89607 -5.38669 9.80442 0
-5.00552 -5.13931 10.4527 0
-4.3535 -5.58723 9.95079 0
-6.50493 -4.56776 11.0844 0
-5.84214 -4.87136 10.6929 0
-4.94988 -5.59951 10.5995 0
-4.92438 -5.96296 10.9176 0
-4.16179 -6.36649 10.4779 0
-7.95688 -5.04006 10.7202 0
-7.23966 -4.77991 10.9381 0
-9.87391 -5.70019 10.0336 0
-8.87558 -5.37492 10.3689 0
-8.12112 -5.23773 11.0424 0
-8.44731 -5.30918 11.4156 0
-7.44459 -5.34169 11.4819 0
-5.75866 -5.58415 11.3216 0
-4.92454 -6.30986 11.237 0
-6.47706 -4.9126 11.3864 0
-6.57474 -5.23016 11.6304 0
-6.78842 -5.45689 11.8799 0
-5.21593 -6.49498 11.5139 0
-4.48368 -7.02336 10.8889 0
-7.21181 -5.54081 12.1141 0
-6.22756 -5.93709 11.9011 0
-5.5511 -6.65382 11.7953 0
-6.04489 -6.7212 11.9456 0
-5.21205 -7.52784 11.2215 0
-7.13642 -5.95148 12.4291 0
-6.58723 -6.84911 11.986 0
-8.33451 -5.52741 12.0661 0
-7.72715 -5.6381 12.3531 0
-8.38761 -5.83646 12.5166 0
-9.64331 -5.77559 12.7029 0
-9.06037 -5.98361 12.8192 0
-9.59088 -5.73493 11.1043 0
-8.95444 -5.49069 11.7029 0
-11.1445 -6.57598 9.81582 0
-10.2946 -5.96206 10.4373 0
-10.7299 -6.27709 10.8413 0
-11.7945 -7.14507 10.3476 0
-11.2881 -6.41849 11.0952 0
-10.2149 -5.85687 12.2311 0
-10.7909 -5.99635 12.6084 0
-9.58369 -5.71972 11.9508 0
-10.7551 -6.09092 11.6584 0
-11.8076 -6.57891 11.3273 0
-11.8848 -6.28478 12.3033 0
-11.3803 -6.10638 12.9281 0
-12.5117 -7.49678 10.8736 0
-12.2756 -6.73142 11.6235 0
-12.7334 -6.86219 11.9494 0
-13.2014 -7.72179 11.7295 0
-13.0396 -6.92703 12.3734 0
-12.7187 -8.08285 8.53128 0
-12.0293 -7.35587 9.29092 0
-14.3734 -9.30269 7.16864 0
-13.4032 -8.72356 7.69827 0
-13.4207 -8.9059 7.84166 0
-13.9187 -9.90445 7.25874 0
-13.265 -9.21496 7.90843 0
-16.3133 -10.736 6.44037 0
-15.2608 -10.0689 6.81765 0
-18.199 -11.9521 4.98968 0
-17.2293 -11.3163 5.81624 0
-16.6312 -11.6045 5.86723 0
-16.9459 -12.4049 5.40653 0
-16.0489 -11.8167 5.99512 0
-14.6 -10.663 6.77597 0
-14.4012 -10.9811 6.90652 0
-14.9354 -10.3606 6.81716 0
-15.3817 -11.3652 6.36639 0
-15.5747 -12.1113 6.0248 0
-14.7349 -12.1542 6.51893 0
-14.1568 -11.4845 7.02594 0
-15.5673 -13.0045 5.76106 0
-15.0105 -12.5757 6.14156 0
-14.7274 -13.0338 6.28018 0
-14.789 -13.7449 6.19194 0
-14.7038 -13.2019 6.75743 0
-13.4528 -8.45545 11.0023 0
-13.7108 -8.58513 11.4805 0
-12.9874 -8.14676 10.1759 0
-13.2176 -8.32321 10.5032 0
-13.5908 -9.40624 10.2004 0
-13.816 -10.242 9.44372 0
-14.1115 -10.3824 9.9314 0
-12.5041 -7.75779 9.71553 0
-12.7523 -7.95269 9.89586 0
-12.2965 -7.54579 9.58112 0
-12.8627 -8.5035 8.80069 0
-13.3323 -9.46217 8.10433 0
-13.5764 -10.0088 8.90379 0
-14.1211 -11.0336 8.769 0
-13.1486 -9.00237 9.32313 0
-13.4013 -9.7726 8.49956 0
-13.783 -10.5809 7.75089 0
-14.4124 -11.8069 8.12299 0
-14.5637 -12.028 8.6772 0
-14.2536 -11.7033 7.50038 0
-14.7044 -12.6037 7.41269 0
-14.9005 -13.2616 7.469 0
-14.2591 -9.60311 11.0906 0
-14.0342 -8.75894 11.8849 0
-14.5289 -11.3576 9.76279 0
-14.5307 -10.4298 10.3421 0
-14.8414 -10.609 10.7795 0
-15.1084 -11.7696 10.6857 0
-15.0092 -10.9743 11.2566 0
-14.6963 -12.9731 8.6208 0
-14.4309 -12.2766 9.23067 0
-15.296 -14.0218 7.59704 0
-15.0382 -13.4698 8.13989 0
-15.0687 -13.8237 8.6406 0
-15.6452 -14.8617 8.4752 0
-15.4147 -14.162 9.03129 0
-15.1405 -12.5716 10.1244 0
-15.4585 -12.8193 10.5527 0
-14.7996 -12.3829 9.66482 0
-15.1712 -13.4202 9.57599 0
-15.7401 -14.4162 9.42683 0
-15.9996 -13.8189 10.359 0
-15.9199 -12.9749 10.9325 0
-16.229 -15.4908 9.18655 0
-16.0755 -14.6776 9.7818 0
-16.4669 -14.7619 10.2835 0
-16.9333 -15.5708 10.4148 0
-16.8399 -14.7442 10.8175 0
-20.4632 -13.1023 3.91841 0
-19.3028 -12.489 4.46335 0
-17.2205 -16.1567 10.3003 0
-17.5946 -16.4423 10.4561 0
-16.5961 -15.9821 9.12346 0
-16.8397 -16.1674 9.62009 0
-17.5817 -16.7947 10.2276 0
-18.9005 -17.1968 9.97626 0
-18.9287 -17.6928 10.054 0
-16.1329 -15.3149 8.12182 0
-16.3153 -15.7751 8.62585 0
-15.5807 -14.7497 6.93119 0
-15.8803 -14.9004 7.69225 0
-17.165 -15.6821 8.08905 0
-19.5771 -14.8558 8.43349 0
-19.5535 -15.4026 8.93364 0
-19.1293 -16.9034 9.64999 0
-17.239 -16.6474 9.22946 0
-19.3901 -16.1238 9.3449 0
-15.4459 -14.2058 5.75182 0
-15.2058 -14.6081 6.08644 0
-16.9653 -13.242 5.4748 0
-15.9852 -13.802 5.57412 0
-17.719 -14.3282 5.47347 0
-19.936 -14.3653 6.3694 0
-18.1915 -12.9014 4.99353 0
-17.5486 -13.0424 5.14542 0
-18.7709 -12.7519 4.68392 0
-19.4658 -13.4722 4.45231 0
-18.5614 -13.7716 5.07081 0
-19.6518 -14.5773 7.8055 0
-17.403 -15.2121 6.56608 0
-19.7901 -14.5402 7.06094 0
-18.3575 -17.4283 10.33 0
-18.1271 -16.542 10.7707 0
-20.37 -18.5738 10.09 0
-19.2324 -17.9395 10.19 0
-19.5678 -18.3232 10.5188 0
-20.7661 -19.2674 10.8121 0
-19.9821 -18.4098 10.9958 0
-22.1296 -19.9668 11.4019 0
-7.07116 -7.08499 12.1703 0
-6.15034 -7.94253 11.3845 0
-9.7185 -6.12974 13.1428 0
-8.31375 -6.28834 12.8663 0
-7.4928 -7.51372 12.4007 0
-8.00331 -7.87247 12.6339 0
-6.9175 -8.75393 11.827 0
-11.786 -6.37481 13.263 0
-10.7605 -6.07642 13.5327 0
-13.3572 -6.98316 12.7723 0
-12.7246 -6.41608 13.0288 0
-12.1755 -6.38932 13.649 0
-12.3871 -6.6609 13.9854 0
-11.6305 -6.50263 14.1843 0
-9.51978 -6.97974 13.3251 0
-8.43356 -8.34012 13.1367 0
-10.2445 -6.37851 13.5449 0
-10.7073 -6.73276 14.0155 0
-11.0534 -6.93546 14.3811 0
-8.85487 -8.86463 13.5162 0
-7.79806 -9.61029 12.5563 0
-11.1309 -7.0428 14.9925 0
-10.0902 -7.75453 14.3817 0
-9.14636 -9.20164 13.9576 0
-9.63936 -9.69285 14.2087 0
-8.52633 -10.5096 13.3206 0
-14.3095 -9.0007 12.3067 0
-13.8435 -7.95606 12.5456 0
-15.294 -11.2495 11.608 0
-14.6835 -10.2519 12.0016 0
-14.361 -9.54657 12.7772 0
-14.6178 -9.91414 13.1023 0
-13.8575 -9.03111 13.5021 0
-16.4176 -12.9307 11.1861 0
-15.8361 -12.1919 11.4 0
-17.4522 -14.666 11.2483 0
-16.9455 -13.7367 11.1287 0
-16.9846 -12.7433 11.4327 0
-17.7112 -12.5172 11.5495 0
-16.9548 -11.9067 11.847 0
-15.3829 -10.7198 12.5078 0
-15.1373 -9.98252 13.1945 0
-15.7048 -11.3886 11.8175 0
-16.2547 -11.2926 12.0299 0
-16.9455 -10.9994 12.2323 0
-15.729 -9.77255 13.3578 0
-14.7429 -9.30057 13.8852 0
-17.574 -10.6507 12.3609 0
-16.6583 -10.2491 12.8328 0
-16.3125 -9.50348 13.4357 0
-16.9186 -9.2607 13.5923 0
-15.7926 -9.03704 14.2526 0
-10.1353 -8.68559 15.3054 0
-9.68138 -10.0649 14.7138 0
-11.7615 -6.59524 15.4567 0
-10.9511 -7.24238 15.6822 0
-10.6822 -8.01406 16.144 0
-11.4782 -7.74622 16.5796 0
-10.4642 -8.88066 16.5489 0
-12.6964 -7.12076 13.9178 0
-12.159 -7.07711 14.577 0
-13.3109 -7.43032 13.2328 0
-13.1565 -8.04978 13.7216 0
-13.3355 -8.3973 14.1644 0
-12.2688 -7.53337 15.8564 0
-12.4654 -8.03989 16.2973 0
-12.2636 -7.04285 15.2853 0
-12.8127 -7.71186 14.9345 0
-13.7334 -8.50981 14.4127 0
-13.4628 -8.68144 15.6526 0
-12.2674 -8.50497 16.7806 0
-14.1707 -8.98801 14.7255 0
-14.6153 -8.88018 14.9972 0
-14.9658 -8.79591 15.3781 0
-9.51506 -10.3965 15.3272 0
-9.19096 -11.2455 14.081 0
-10.3045 -9.42914 17.2019 0
-9.94235 -10.0215 16.222 0
-9.68867 -11.0419 15.9021 0
-9.87735 -11.5131 16.5843 0
-9.70211 -12.3387 15.189 0
-12.2755 -8.77457 17.1789 0
-11.0562 -8.9533 17.5935 0
-15.4257 -8.76035 15.7831 0
-13.853 -8.79927 16.4281 0
-12.2698 -9.2716 17.4278 0
-12.6569 -9.5597 17.9269 0
-11.3302 -9.99475 18.3551 0
-10.1229 -10.5831 17.8495 0
-10.0935 -12.0314 17.136 0
-10.1922 -9.35593 18.4167 0
-10.4857 -10.0149 18.7163 0
-10.7664 -10.9323 18.6744 0
-10.0555 -13.0552 17.11 0
-9.92288 -13.7102 16.3574 0
-11.0044 -11.9659 18.39 0
-10.5059 -12.5122 17.7868 0
-10.0526 -13.9055 17.4398 0
-10.0566 -14.6225 17.9679 0
-10.2182 -15.2589 17.0872 0
-18.5733 -16.6352 11.2144 0
-18.0439 -15.5876 11.3178 0
-20.2591 -18.678 11.2932 0
-19.2591 -17.6555 11.2053 0
-19.0321 -16.6809 11.5758 0
-19.4302 -16.7107 12.0425 0
-19.1077 -15.576 11.9144 0
-22.3125 -20.4486 11.8127 0
-21.2941 -19.7451 11.3977 0
-22.4392 -20.5064 12.3926 0
-22.4632 -20.7114 12.9664 0
-21.5418 -19.8632 12.5887 0
-19.9651 -17.8036 12.2301 0
-19.8274 -16.7718 12.558 0
-20.5824 -18.793 11.7733 0
-20.7274 -18.8393 12.3864 0
-21.0335 -18.8921 12.9633 0
-20.3191 -16.8403 13.0484 0
-20.076 -15.6884 12.7261 0
-21.401 -19.2866 13.3639 0
-20.7731 -17.9252 13.3303 0
-20.7751 -16.9441 13.5674 0
-21.2284 -17.0959 14.0623 0
-20.9254 -15.9535 13.7072 0
-21.7088 -18.3107 14.2718 0
-21.6309 -17.2464 14.6395 0
-22.161 -20.6797 13.397 0
-21.8594 -19.5603 13.8071 0
-22.064 -19.6498 14.5091 0
-22.5198 -20.8768 14.8159 0
-22.1349 -19.8163 15.1605 0
-22.7725 -21.0943 13.3643 0
-23.0689 -21.5534 14.6243 0
-23.3091 -21.9261 15.0698 0
-22.9098 -21.4682 13.9067 0
-23.6055 -22.2089 14.4361 0
-23.9741 -23.0064 15.3032 0
-23.4745 -22.0042 15.7613 0
-21.6659 -17.4622 15.2721 0
-21.5281 -16.2664 15.0177 0
-22.3224 -19.8964 15.8319 0
-21.8626 -18.7083 15.521 0
-21.6016 -17.6542 15.9121 0
-21.7798 -17.7394 16.6944 0
-21.3634 -16.601 16.3632 0
-23.2456 -22.0578 16.5184 0
-22.8827 -21.0523 16.1547 0
-23.5921 -23.0425 16.9053 0
-23.0419 -22.2568 17.3514 0
-22.8747 -22.3585 18.264 0
-22.5228 -21.443 17.7645 0
-22.1703 -18.9099 17.0369 0
-21.9152 -17.7463 17.4918 0
-22.4419 -20.001 16.5772 0
-22.3134 -20.2101 17.3597 0
-22.2918 -20.229 18.1969 0
-21.8893 -17.6984 18.2929 0
-21.6273 -16.5424 17.9734 0
-22.4068 -20.1361 19.1473 0
-22.1159 -18.9054 18.6732 0
-21.7173 -17.6465 19.1215 0
-21.6001 -17.4788 20.1485 0
-21.0694 -16.4734 19.4521 0
-10.4611 -14.1122 18.3511 0
-10.4124 -15.411 18.1368 0
-11.8057 -11.467 18.5384 0
-11.015 -12.8147 18.5513 0
-11.0333 -13.6128 18.6152 0
-11.8678 -12.9754 18.7874 0
-11.307 -14.2954 18.6125 0
-14.5898 -9.10462 17.2664 0
-12.9657 -10.0126 18.225 0
-17.0009 -8.98156 14.8901 0
-15.9005 -8.81289 16.171 0
-16.4697 -9.12605 16.3352 0
-18.1351 -9.5045 15.4747 0
-16.7273 -9.71234 16.5156 0
-13.1152 -11.7319 18.218 0
-13.1537 -12.3402 18.4272 0
-13.0682 -10.9528 18.1155 0
-14.8937 -10.3101 17.4508 0
-16.5892 -10.2582 16.8244 0
-14.5478 -11.7427 17.8838 0
-13.3019 -13.0222 18.2846 0
-18.0516 -10.6512 16.2679 0
-16.2961 -10.6839 17.2095 0
-15.7677 -11.3514 17.2391 0
-17.228 -11.5619 16.9509 0
-15.4828 -12.1264 17.2279 0
-17.8621 -9.65209 13.0766 0
-17.5799 -9.26602 13.8865 0
-18.35 -11.301 12.032 0
-18.1273 -10.2594 12.4508 0
-18.7041 -10.2512 12.9458 0
-19.361 -11.2217 13.0374 0
-19.318 -10.3744 13.5956 0
-18.3091 -13.4446 11.6744 0
-18.5121 -12.2707 11.6042 0
-18.0727 -14.589 11.7242 0
-18.6952 -14.5129 11.8978 0
-19.2538 -14.4511 12.1203 0
-19.4748 -12.0963 12.5141 0
-19.9134 -12.2536 13.0831 0
-19.0469 -12.1652 11.9981 0
-19.3871 -13.2904 12.3395 0
-19.764 -14.4997 12.5218 0
-20.3642 -13.5165 13.2848 0
-20.3793 -12.4448 13.6633 0
-20.3086 -14.5745 12.8991 0
-20.692 -14.7535 13.4098 0
-21.0578 -14.9402 13.9228 0
-18.9294 -11.2375 16.6541 0
-18.4668 -11.3884 16.7853 0
-18.9584 -10.7686 15.6257 0
-19.1 -10.9476 16.2019 0
-19.9946 -11.2438 16.3362 0
-20.4969 -11.5915 15.9444 0
-20.5592 -11.6674 16.6032 0
-18.6539 -9.68364 14.8266 0
-18.8045 -10.2958 15.2142 0
-18.2164 -9.39401 14.3849 0
-19.0441 -9.92601 14.1984 0
-19.5685 -10.7965 14.141 0
-20.055 -11.5164 15.2694 0
-20.6678 -12.2945 15.4605 0
-19.3579 -10.9899 15.0927 0
-19.7021 -11.3135 14.6341 0
-20.0229 -11.8355 14.1572 0
-20.9095 -13.0073 14.9909 0
-21.0876 -13.0643 15.7 0
-20.6395 -12.7328 14.31 0
-21.0119 -13.965 14.458 0
-21.2528 -15.1241 14.6794 0
-19.4409 -11.5485 17.1367 0
-17.8917 -11.6179 16.8822 0
-20.8847 -12.417 16.8279 0
-20.5226 -11.7403 17.2303 0
-20.0451 -11.6526 17.7709 0
-20.2309 -12.4348 17.9881 0
-19.2986 -11.6487 18.1341 0
-21.3731 -14.1523 15.9399 0
-21.2353 -13.0752 16.4417 0
-21.4615 -15.2446 15.4469 0
-21.3368 -15.3693 16.147 0
-21.1871 -15.4829 16.8453 0
-21.0234 -13.2106 17.7727 0
-20.1791 -13.2667 18.2252 0
-21.1529 -13.153 17.1024 0
-21.1482 -14.3226 17.3164 0
-21.2821 -15.4086 17.6358 0
-20.142 -14.3311 18.5118 0
-19.3168 -13.3255 18.6754 0
-21.0862 -15.355 18.3518 0
-20.6566 -15.3734 18.9923 0
-20.3083 -15.2789 19.7056 0
-10.7253 -16.1003 18.2106 0
-10.6273 -16.7579 17.71 0
-11.6122 -14.9355 18.4078 0
-11.0144 -15.5049 18.4599 0
-11.2 -16.7249 18.1666 0
-11.4746 -17.2671 18.1915 0
-11.1219 -17.9315 17.7834 0
-13.3458 -13.7322 17.9531 0
-12.4067 -14.2903 18.3591 0
-15.2256 -12.8424 17.0765 0
-14.3785 -13.2142 17.4567 0
-13.7435 -14.4135 18.0245 0
-14.0385 -15.0605 17.9893 0
-13.381 -15.593 18.5063 0
-11.8383 -16.6534 18.468 0
-11.7297 -17.7908 18.1613 0
-12.0557 -15.4974 18.493 0
-12.5318 -16.1196 18.5119 0
-12.9726 -16.6681 18.3782 0
-12.0133 -18.2735 18.0568 0
-11.3998 -18.8999 17.6683 0
-13.4064 -17.217 18.1748 0
-12.6691 -17.7206 18.1556 0
-12.2835 -18.709 17.9897 0
-12.6355 -19.1597 17.8884 0
-11.8627 -19.6588 17.3713 0
-17.2474 -12.0894 16.957 0
-16.2186 -12.5783 16.8249 0
-18.6434 -11.7729 18.287 0
-18.0531 -11.7137 17.473 0
-16.6104 -12.4212 17.1188 0
-16.4628 -12.8439 16.9974 0
-15.6666 -13.4578 16.7363 0
-19.0069 -13.1919 19.2873 0
-18.8656 -12.3661 18.786 0
-20.141 -14.8938 20.5372 0
-19.4666 -14.1395 19.9077 0
-18.6981 -13.0082 19.898 0
-18.0818 -12.8277 20.4541 0
-17.7388 -11.9604 19.5719 0
-17.0076 -12.0195 17.6891 0
-16.2304 -13.1742 17.0663 0
-17.9823 -11.9128 18.398 0
-17.5122 -11.9461 18.5203 0
-16.857 -11.9405 18.7634 0
-16.7126 -13.5227 16.9334 0
-16.1164 -14.4003 16.6319 0
-16.3914 -12.0108 18.9654 0
-16.6287 -12.7382 17.8425 0
-16.804 -13.9493 17.0679 0
-16.6833 -14.3878 17.4313 0
-16.3556 -15.374 16.6713 0
-13.6292 -18.7165 17.9093 0
-13.0553 -19.6292 17.7243 0
-14.1539 -16.7614 17.9943 0
-14.048 -17.7439 18.0706 0
-14.6452 -18.2919 17.9212 0
-15.1998 -17.9115 17.33 0
-14.9767 -18.9151 17.6198 0
-14.5431 -14.5217 17.113 0
-14.4355 -15.678 17.834 0
-15.114 -13.5213 16.9086 0
-15.1638 -14.0512 16.792 0
-15.2865 -14.5526 16.6962 0
-15.2943 -16.9244 17.1856 0
-15.6846 -17.5355 16.6528 0
-14.8822 -16.2908 17.6679 0
-15.2061 -15.7405 16.9923 0
-15.5608 -15.1871 16.4676 0
-15.9287 -16.9485 16.3863 0
-16.1373 -18.1409 16.6477 0
-15.7931 -15.7335 16.3547 0
-16.075 -16.2299 16.3055 0
-16.5484 -16.7744 16.4281 0
-13.4064 -20.0834 17.6814 0
-12.4829 -20.4178 17.2537 0
-15.2969 -19.5147 17.3779 0
-14.3445 -19.7998 17.5615 0
-13.5726 -20.5692 17.6093 0
-13.7589 -21.0644 17.656 0
-12.7893 -21.2543 17.5714 0
-16.5577 -18.7689 16.5659 0
-16.0427 -19.201 16.9754 0
-16.809 -17.2668 16.7396 0
-16.9383 -18.2054 16.4724 0
-16.6574 -19.4284 16.5717 0
-16.8291 -20.1138 16.9489 0
-16.4355 -20.5701 16.7036 0
-14.7379 -20.9158 17.1943 0
-13.9176 -21.638 17.5581 0
-15.4775 -20.1364 17.0039 0
-15.6612 -20.7452 16.7275 0
-15.87 -21.4461 17.0923 0
-14.0079 -22.2532 17.753 0
-13.0257 -22.2731 17.9539 0
-15.9789 -22.1895 17.7139 0
-15.0242 -22.2325 17.7013 0
-14.069 -22.9514 18.3889 0
-14.4187 -23.6949 18.9223 0
-13.2568 -23.3158 19.118 0
-15.5215 -23.8171 18.8912 0
-14.8954 -24.4723 19.3986 0
-16.7549 -22.086 17.9226 0
-16.1081 -22.9585 18.4819 0
-16.4745 -23.708 19.0779 0
-17.2224 -23.4596 19.4003 0
-16.881 -24.2149 19.7871 0
-17.0897 -19.3949 17.5641 0
-16.9259 -20.7971 17.6674 0
-16.3767 -16.2454 17.9272 0
-16.645 -17.798 17.772 0
-16.6965 -18.312 18.5804 0
-16.3494 -17.1392 19.6148 0
-16.8712 -18.7906 19.2838 0
-17.1811 -22.0928 19.3187 0
-17.6253 -22.8497 19.9715 0
-17.0191 -21.4873 18.5122 0
-17.1831 -20.4784 19.236 0
-17.1591 -19.3069 20.0851 0
-17.9436 -21.893 20.6235 0
-18.0061 -23.4997 20.6415 0
-16.7262 -17.9918 21.1091 0
-17.601 -19.9044 20.8137 0
-17.7269 -20.5342 21.4567 0
-17.0865 -19.2171 22.3736 0
-17.8586 -21.085 22.1168 0
-16.0169 -13.4231 18.932 0
-16.2266 -14.7664 18.3565 0
-16.5448 -11.4857 20.3594 0
-15.9417 -12.2105 19.5985 0
-15.6371 -12.3891 20.3281 0
-15.8762 -11.656 21.6502 0
-15.4495 -12.647 21.0829 0
-18.7443 -13.5677 21.4091 0
-17.5022 -12.3277 21.0446 0
-20.748 -15.8221 21.1971 0
-19.9886 -14.5064 21.3025 0
-20.0531 -13.8239 22.0213 0
-20.9682 -14.6421 22.6007 0
-19.6753 -13.3796 22.7327 0
-16.6697 -11.3771 22.1787 0
-16.1038 -11.2826 22.7609 0
-17.1403 -11.6086 21.6095 0
-18.0988 -12.1679 22.7805 0
-18.9759 -13.0386 23.4775 0
-16.8782 -11.2571 23.875 0
-15.6955 -11.3097 23.3569 0
-19.9657 -14.0457 24.1483 0
-18.5122 -12.4994 24.1535 0
-18.1729 -12.132 24.8318 0
-19.4404 -13.2774 25.6664 0
-17.8489 -11.9189 25.4968 0
-16.3677 -17.3812 22.6649 0
-16.5026 -17.8521 23.3691 0
-15.8005 -16.1371 21.439 0
-16.089 -16.7742 22.0501 0
-15.4767 -15.554 23.1208 0
-14.9129 -14.1565 23.5312 0
-15.2603 -14.7962 24.0769 0
-15.8988 -15.5409 20.0222 0
-15.8352 -15.8418 20.742 0
-15.9916 -15.148 19.2332 0
-15.5396 -14.022 20.5392 0
-14.9198 -12.7586 21.7225 0
-14.6595 -13.4737 22.9856 0
-14.8812 -13.0327 23.9965 0
-14.8994 -14.4615 21.8528 0
-14.4497 -12.9545 22.3396 0
-14.9021 -11.911 22.8822 0
-15.4654 -11.9355 24.6962 0
-15.6272 -12.7457 25.1911 0
-15.5518 -11.5524 23.9861 0
-16.5051 -11.2318 25.2543 0
-17.7229 -12.1485 26.2793 0
-15.7031 -16.5414 24.1503 0
-16.4712 -18.276 23.823 0
-14.7227 -14.0714 24.9338 0
-15.0498 -14.9618 24.6664 0
-14.7967 -15.4227 24.8788 0
-14.113 -14.8085 25.714 0
-14.7406 -16.2125 25.0239 0
-16.0637 -11.9925 26.5119 0
-15.3003 -13.2774 25.5567 0
-18.6488 -13.2074 27.0616 0
-17.368 -12.3939 26.9295 0
-16.8251 -12.7944 27.279 0
-17.4318 -13.5587 28.1348 0
-15.9464 -12.9481 27.6633 0
-14.2593 -13.9254 26.2833 0
-14.3788 -14.8995 26.4531 0
-14.7036 -13.1621 26.1568 0
-15.063 -13.2411 26.9641 0
-15.4248 -13.6924 27.8069 0
-14.0424 -14.435 27.4005 0
-13.7543 -15.2338 26.7598 0
-15.9671 -13.9126 28.8596 0
-14.8495 -13.8428 28.2469 0
-14.3201 -14.1796 28.5801 0
-15.0517 -14.64 29.3867 0
-13.9356 -14.8074 28.7264 0
-22.0224 -18.5926 20.6217 0
-21.4476 -17.1719 21.0107 0
-22.7641 -21.3346 19.5565 0
-22.4033 -19.9836 20.0676 0
-22.4378 -19.7787 20.9328 0
-22.9031 -21.0541 21.202 0
-22.472 -19.5183 21.7343 0
-23.3172 -23.3278 18.6827 0
-23.0221 -22.3918 19.1232 0
-23.2693 -22.4094 20.6876 0
-23.3678 -22.4186 21.4313 0
-23.2035 -22.4684 19.9085 0
-23.6598 -23.6401 20.1938 0
-23.4571 -22.2961 22.1665 0
-16.4197 -14.9263 29.74 0
-16.0014 -15.4272 29.8815 0
-17.521 -14.7405 29.1433 0
-16.9267 -14.8698 29.4571 0
-17.8995 -15.5355 30.2586 0
-19.4213 -16.1687 30.7765 0
-19.0871 -16.1369 31.1482 0
-18.9527 -14.5037 28.4059 0
-18.2246 -14.6407 28.8788 0
-20.0014 -14.242 27.0009 0
-19.4561 -14.3265 27.6944 0
-20.0308 -15.6913 28.0981 0
-21.0609 -17.3054 27.5467 0
-20.5883 -17.2317 28.2258 0
-19.8393 -16.683 29.6307 0
-19.0133 -15.7155 29.2136 0
-20.303 -16.9477 28.9124 0
-21.3723 -18.4597 28.5678 0
-20.8426 -14.6929 25.4709 0
-20.6513 -14.2552 26.209 0
-21.2516 -15.5776 23.9479 0
-21.0094 -15.2097 24.7295 0
-21.796 -16.4193 25.169 0
-22.6341 -18.1227 24.7362 0
-22.4042 -17.7336 25.4638 0
-21.4173 -16.3629 22.5167 0
-21.6345 -15.8717 23.184 0
-21.2651 -16.8624 21.8069 0
-21.88 -18.033 22.2468 0
-22.6431 -19.2599 22.527 0
-22.9213 -18.4413 23.9797 0
-23.3382 -19.8255 24.1885 0
-22.2667 -17.1495 23.6552 0
-22.8274 -18.8357 23.2518 0
-23.177 -20.6371 22.7387 0
-23.5921 -21.7742 23.6149 0
-23.5941 -21.3812 24.3523 0
-23.4948 -22.186 22.8984 0
-23.7691 -23.7258 23.0565 0
-22.789 -20.3542 27.4623 0
-21.613 -17.4197 26.8885 0
-22.1658 -18.9266 27.1212 0
-21.2133 -15.705 26.647 0
-22.0821 -17.5409 26.1746 0
-22.9027 -19.2366 25.7214 0
-23.1767 -20.5341 26.7308 0
-23.459 -20.7329 25.9717 0
-23.5395 -21.0193 25.1807 0
-17.2223 -16.1001 30.5259 0
-15.6207 -16.003 29.9733 0
-15.387 -24.798 20.1401 0
-14.2032 -24.4513 20.3404 0
-17.309 -24.8144 20.4624 0
-16.4102 -24.6961 20.3096 0
-15.8952 -25.2305 20.8492 0
-16.4302 -26.0481 21.4515 0
-15.113 -25.4755 21.7415 0
-18.2349 -24.0835 21.346 0
-17.9422 -24.6476 20.8073 0
-18.0447 -21.4272 22.8295 0
-18.2536 -22.9823 22.0311 0
-18.5882 -24.4339 22.1588 0
-18.9089 -24.3178 23.1168 0
-18.8085 -25.3042 22.5086 0
-17.4316 -26.0158 21.6905 0
-16.9063 -26.5975 22.234 0
-17.7843 -25.4599 21.1534 0
-18.4358 -25.8854 22.0017 0
-18.755 -26.1986 22.8307 0
-18.9326 -26.4455 23.6384 0
-18.1404 -26.712 23.3913 0
-16.3783 -18.6357 23.9427 0
-17.3121 -19.989 23.5478 0
-14.6192 -16.9942 24.9446 0
-15.3299 -17.6173 24.3246 0
-16.2335 -19.1596 23.9754 0
-15.9542 -19.5975 24.0031 0
-17.334 -20.4078 24.1519 0
-13.312 -15.8272 26.1891 0
-13.739 -16.3409 25.3494 0
-13.5374 -15.474 28.3608 0
-13.0469 -15.3578 27.1966 0
-12.8902 -16.5165 25.5533 0
-12.5969 -17.5356 24.9058 0
-12.8994 -17.8221 24.3046 0
-14.5066 -18.7851 23.8272 0
-15.4087 -20.2757 23.6872 0
-14.1138 -17.5855 24.4679 0
-13.3946 -18.106 23.9032 0
-13.0913 -19.2363 23.5042 0
-14.9649 -21.1737 23.443 0
-16.5628 -21.41 24.0189 0
-12.7573 -20.4134 23.2401 0
-13.6528 -20.731 23.1707 0
-14.3697 -21.7828 23.456 0
-18.889 -25.4727 24.1586 0
-18.8314 -22.8852 23.739 0
-18.9075 -24.3097 23.9235 0
-18.2816 -21.5573 23.5582 0
-18.6639 -21.3594 24.3356 0
-18.5345 -21.3799 24.6462 0
-18.8084 -24.3494 24.6481 0
-18.6725 -22.8318 24.7759 0
-18.223 -21.5482 24.7843 0
-17.1476 -22.3906 24.5965 0
-15.3292 -16.6852 30.0072 0
-14.2511 -15.9557 29.5205 0
-15.1114 -17.4203 30.0582 0
-12.2319 -20.1768 23.6801 0
-12.5332 -21.5115 23.3065 0
-12.4268 -17.2289 25.9724 0
-12.1789 -18.7605 24.443 0
-13.0758 -16.1974 28.1451 0
-12.8747 -17.2464 27.3857 0
-8.94248 1.5429 3.67972 0
-9.07994 2.04157 3.50927 0
-8.49075 0.868251 4.2035 0
-8.80996 1.03363 3.90523 0
-8.62424 1.04557 3.55063 0
-8.34097 0.370887 3.34586 0
-8.55472 0.860114 3.16004 0
-8.0959 0.3266 4.75907 0
-8.26212 0.620313 4.48598 0
-7.74879 -0.404832 5.12483 0
-7.94205 -0.0256255 4.97388 0
-7.87006 -0.371564 4.48324 0
-7.67305 -1.12155 4.18567 0
-7.79743 -0.67966 4.01113 0
-8.12906 -0.000554288 3.56396 0
-8.05287 -0.322951 3.09487 0
-8.19701 0.31619 4.02171 0
-7.93708 -0.29857 3.80571 0
-7.74868 -1.01706 3.56362 0
-7.75869 -1.05393 2.89809 0
-7.96252 -0.607059 2.71671 0
-7.57753 -1.70938 3.35459 0
-7.65873 -1.3934 3.12413 0
-7.47884 -1.81797 2.75668 0
-7.20744 -2.56225 2.59325 0
-7.31742 -2.10149 2.40445 0
-7.0486 -0.93125 5.51766 0
-7.45695 -0.721252 5.29627 0
-6.60629 -1.60023 5.90334 0
-6.68505 -1.13804 5.76122 0
-6.52978 -1.54421 5.21136 0
-6.28053 -2.29939 4.95778 0
-6.58075 -2.02998 4.71426 0
-6.34577 -2.35944 6.33477 0
-6.57582 -2.09268 6.03757 0
-5.72218 -2.68939 6.98665 0
-6.06041 -2.55583 6.67046 0
-5.84742 -2.99903 6.13579 0
-5.37891 -3.73158 5.73298 0
-5.78154 -3.44283 5.58623 0
-6.06343 -2.5891 5.15623 0
-6.39297 -3.20454 4.66906 0
-6.19197 -2.29063 5.61369 0
-5.9315 -3.04298 5.36464 0
-6.08488 -3.91768 5.03241 0
-6.4496 -4.15646 4.30377 0
-6.59415 -3.82204 4.19236 0
-6.13434 -4.7619 4.71472 0
-6.33279 -4.48185 4.4975 0
-6.4054 -5.2403 3.99432 0
-6.38775 -6.37277 3.61049 0
-6.43724 -5.95425 3.44364 0
-7.07192 -2.93341 2.72362 0
-6.87501 -3.50498 2.18128 0
-7.32814 -2.11942 3.51001 0
-7.25356 -2.49318 3.11748 0
-6.93499 -3.29026 2.86859 0
-6.69998 -3.86803 2.94489 0
-6.70044 -4.35076 2.50004 0
-7.37874 -1.48662 4.34505 0
-7.37464 -1.83174 3.9179 0
-7.37143 -1.1026 4.79925 0
-6.87691 -1.72473 4.50268 0
-6.78005 -2.54656 4.28049 0
-6.74484 -3.48714 3.34025 0
-6.4956 -4.48912 3.00338 0
-7.02469 -2.55414 3.66145 0
-6.84212 -3.01745 3.82499 0
-6.69428 -3.45706 4.03193 0
-6.46823 -5.02917 3.155 0
-6.42384 -5.79922 2.59281 0
-6.56149 -4.45554 3.68292 0
-6.46516 -5.52636 3.29221 0
-6.5042 -6.6557 2.68952 0
-6.42497 -4.87606 1.51931 0
-6.26926 -4.30901 1.40324 0
-6.48636 -5.92967 1.9052 0
-6.52278 -5.37035 1.7418 0
-5.49606 -6.61681 0.538417 0
-4.70201 -8.15748 -0.471548 0
-4.61301 -7.32471 -0.695194 0
-6.36876 -7.33422 1.93682 0
-6.38184 -6.74766 1.94088 0
-6.63609 -7.91706 2.00711 0
-6.46884 -7.63257 1.92524 0
-6.36536 -9.00951 0.926178 0
-6.51835 -10.0416 -0.0118267 0
-5.91798 -9.77405 -0.0422912 0
-4.98576 -8.76009 -0.236435 0
-4.8156 -8.72864 -1.47975 0
-5.68213 -7.89986 1.02004 0
-5.38855 -9.26142 -0.0260762 0
-5.3544 -10.0095 -0.832489 0
-4.99094 -9.13931 -2.19347 0
-4.6881 -8.54439 -2.46637 0
-5.76101 -10.1689 -1.6425 0
-5.34667 -9.70791 -1.89261 0
-5.162 -9.60677 -2.91701 0
-5.38074 -10.0827 -3.7098 0
-4.83771 -9.55149 -4.00231 0
-5.18349 -3.05864 7.56373 0
-5.36284 -2.79897 7.28175 0
-5.09698 -3.91346 8.09781 0
-5.22062 -3.47051 7.85973 0
-5.07299 -4.08452 7.17373 0
-4.81894 -5.09256 6.77989 0
-4.92323 -4.72813 6.48018 0
-4.33254 -4.81938 8.35187 0
-4.60022 -4.36204 8.1828 0
-4.14884 -5.87444 8.7555 0
-4.29339 -5.39238 8.53905 0
-4.21001 -5.87217 7.92062 0
-4.53927 -6.95849 7.65888 0
-4.68468 -6.42039 7.58066 0
-4.68545 -5.46212 7.0896 0
-5.15094 -6.03944 6.57647 0
-4.65214 -4.87479 7.6349 0
-4.60295 -5.92363 7.32517 0
-5.01281 -7.0089 6.87996 0
-5.49271 -7.10317 6.05768 0
-5.67619 -6.59962 6.02585 0
-5.33034 -8.14679 6.12991 0
-5.31021 -7.60713 6.09511 0
-5.85378 -8.02409 5.38696 0
-6.51527 -8.90725 4.723 0
-6.40271 -8.44501 4.67285 0
-4.11913 -6.58356 9.41286 0
-4.26045 -6.27335 9.08811 0
-3.90064 -7.29081 9.99183 0
-4.07158 -6.91503 9.65232 0
-4.12598 -7.56205 8.77598 0
-4.46503 -8.73539 8.16659 0
-4.49212 -8.43483 7.93611 0
-4.37512 -7.82853 10.2706 0
-4.01469 -7.56966 10.1278 0
-5.12233 -8.42737 10.4429 0
-4.73053 -8.12236 10.3462 0
-4.58024 -8.70796 9.3272 0
-4.83002 -9.74013 8.36498 0
-4.57132 -9.50049 8.30681 0
-4.45726 -9.06084 8.16539 0
-4.80303 -9.89132 7.33102 0
-4.14444 -8.16168 9.1548 0
-4.53178 -9.29817 8.27053 0
-4.81469 -10.4752 7.33348 0
-5.39315 -10.6482 6.1817 0
-5.42104 -10.2508 6.1769 0
-5.25791 -11.456 5.88236 0
-5.23373 -11.1187 5.95376 0
-5.819 -11.6429 4.43398 0
-6.49158 -12.7067 2.41063 0
-6.38431 -12.1676 2.66372 0
-6.61447 -9.30047 4.71493 0
-7.27893 -9.6266 3.80913 0
-5.35226 -8.64876 6.20004 0
-5.97355 -9.0219 5.45307 0
-6.70138 -9.80981 4.52561 0
-6.76651 -10.2713 4.34886 0
-7.39924 -10.2669 3.3919 0
-4.26543 -7.5212 7.62024 0
-4.80649 -8.0539 7.00875 0
-4.05441 -6.8519 8.24983 0
-4.31421 -7.93802 7.83598 0
-4.7863 -9.03541 7.14367 0
-6.12321 -9.96111 5.28577 0
-6.76533 -10.6742 4.05292 0
-5.38077 -9.11335 6.18671 0
-5.44763 -9.51968 6.20234 0
-5.47206 -9.91651 6.30002 0
-6.8056 -11.1029 3.71298 0
-7.39938 -11.0214 2.59916 0
-6.07281 -10.6877 5.04508 0
-6.61975 -11.607 3.22736 0
-7.39249 -12.1987 1.63105 0
-8.19649 -9.90276 2.96094 0
-8.07 -9.73696 3.07153 0
-8.21725 -10.4131 2.41733 0
-8.24561 -10.1581 2.80087 0
-9.26992 -9.89452 2.46555 0
-10.2384 -9.90319 1.99316 0
-10.2022 -9.57933 2.10631 0
-8.25289 -11.4557 1.67434 0
-8.18112 -10.8687 2.03745 0
-8.32482 -12.7035 0.685443 0
-8.29107 -12.1077 1.1475 0
-9.10779 -11.882 0.877483 0
-10.0397 -12.2536 0.317249 0
-10.0035 -11.5182 0.767455 0
-10.1005 -10.3559 1.59996 0
-10.945 -9.99539 1.26428 0
-9.17599 -10.6556 1.85035 0
-10.0105 -10.8824 1.22684 0
-10.9236 -11.1696 0.67395 0
-11.762 -10.225 0.586347 0
-11.6345 -9.82128 0.742232 0
-11.8598 -11.5377 0.091613 0
-11.7872 -10.8562 0.32373 0
-12.6702 -10.507 -0.0318495 0
-5.94866 -10.437 -3.43567 0
-5.66735 -10.4142 -4.51744 0
-6.41093 -10.5316 -1.67651 0
-6.21988 -10.3359 -2.45774 0
-6.51928 -10.8538 -3.21192 0
-7.0576 -11.455 -3.21054 0
-6.80537 -11.3302 -3.99749 0
-6.90271 -10.2016 0.156745 0
-6.60969 -10.6866 -0.806754 0
-6.7821 -8.22468 2.19969 0
-7.01004 -9.3364 1.22077 0
-7.41596 -10.3377 0.277295 0
-7.61321 -10.2992 0.522438 0
-7.79298 -11.0819 -0.657848 0
-7.29755 -11.5389 -2.43414 0
-7.76328 -11.4928 -3.09939 0
-6.93122 -11.13 -1.63556 0
-7.56229 -11.3983 -1.61524 0
-8.20764 -11.1694 -1.34349 0
-8.40082 -11.3027 -2.89009 0
-8.24328 -11.3958 -3.78119 0
-8.78147 -11.021 -1.05921 0
-8.58102 -11.1352 -1.96196 0
-9.09206 -10.8937 -2.60729 0
-9.72597 -10.7059 -2.27405 0
-9.5847 -10.6175 -3.24605 0
-6.48018 -6.64907 3.80775 0
-6.64974 -7.41976 3.00447 0
-6.05806 -5.03178 4.97444 0
-6.28708 -5.83075 4.41918 0
-6.54576 -6.89815 4.02619 0
-6.53219 -7.1805 4.18716 0
-6.95572 -7.97547 3.39972 0
-4.97567 -4.01373 5.88205 0
-5.56231 -4.5059 5.45696 0
-5.15538 -3.43089 6.56812 0
-4.94179 -4.37192 6.18245 0
-5.47861 -5.23045 6.06778 0
-6.21098 -6.42937 4.89024 0
-6.36445 -7.47199 4.30144 0
-6.03114 -5.38372 5.3116 0
-5.95715 -5.73481 5.58511 0
-5.80891 -6.17919 5.81634 0
-6.3258 -7.755 4.43009 0
-6.91462 -8.48801 3.61899 0
-5.97252 -7.15846 5.22796 0
-6.33267 -8.09447 4.5814 0
-7.03537 -9.02206 3.81584 0
-9.87099 -10.5937 -1.28056 0
-10.3161 -10.5805 -1.88782 0
-8.80459 -10.6182 -0.0640103 0
-9.40675 -10.7005 -0.704822 0
-9.88681 -10.1431 -0.290962 0
-9.62233 -9.73159 0.602336 0
-10.4262 -9.54992 0.178738 0
-7.38771 -9.45339 1.62167 0
-8.0415 -10.13 0.765717 0
-6.95223 -8.47262 2.37298 0
-7.16727 -8.74485 2.57096 0
-7.41813 -8.93154 2.75305 0
-8.78493 -9.59576 1.11239 0
-9.08576 -9.55457 1.33308 0
-8.39638 -9.88463 0.890593 0
-8.03683 -9.31914 1.8762 0
-7.48095 -9.10687 2.83962 0
-8.47488 -9.42179 2.19626 0
-9.45305 -9.36774 1.61416 0
-7.54105 -9.29482 2.93163 0
-7.71985 -9.45296 3.01165 0
-7.86664 -9.65459 3.06089 0
-10.8742 -9.94723 -1.44767 0
-10.7111 -10.5841 -2.47675 0
-10.9367 -8.98862 0.726196 0
-10.9625 -9.38498 -0.357504 0
-11.3785 -9.61096 -1.03149 0
-11.8137 -9.54362 -0.691403 0
-11.807 -9.62201 -1.66709 0
-9.77748 -9.28468 1.8429 0
