#!ascii - generated by CreateLabelFiles project 
6611 12737
15.1742 14.3016 0.23397 0
14.5019 13.9949 0.536929 0
13.929 14.0805 0.395892 0
13.8546 13.5949 0.573822 0
16.7713 18.7183 -1.12641 0
15.9785 17.7225 -0.933356 0
15.8845 17.2526 -0.647956 0
16.0502 18.2235 -1.19571 0
15.2175 17.7378 -1.06384 0
14.3512 17.275 -0.882887 0
13.9935 14.5677 0.185873 0
13.3293 14.1533 0.264348 0
15.4463 15.2731 -0.186662 0
14.6975 14.9484 0.0375689 0
14.0296 15.0452 0.00316209 0
14.0827 15.5059 -0.19421 0
13.3717 15.1007 -0.057479 0
16.9544 16.0795 -0.18399 0
16.2248 15.6726 -0.248827 0
17.0787 16.6523 -0.208037 0
16.4585 16.7748 -0.308788 0
14.8441 15.9275 -0.252713 0
14.1222 15.9585 -0.287527 0
15.5473 15.8247 -0.246693 0
15.6447 16.3664 -0.249324 0
15.751 16.8095 -0.413234 0
14.1769 16.4065 -0.356025 0
13.3938 15.9983 -0.277582 0
15.008 16.8312 -0.460333 0
14.2581 16.8372 -0.572525 0
13.5097 16.833 -0.736746 0
12.6971 14.1994 0.158012 0
12.7049 13.7347 0.308378 0
12.6698 15.1425 -0.0770807 0
12.6944 14.6748 0.0194226 0
12.0781 14.21 -0.0117898 0
11.4135 14.2342 -0.137803 0
11.4788 13.7653 -0.00861094 0
12.6565 16.0093 -0.370123 0
12.6544 15.5859 -0.193827 0
12.7015 16.4047 -0.641853 0
11.8676 16.0693 -0.372885 0
11.1314 15.6641 -0.308112 0
11.346 14.7247 -0.193809 0
10.8496 14.1838 -0.184806 0
11.9939 15.1663 -0.171858 0
11.2612 15.1983 -0.257663 0
10.7204 15.1011 -0.47294 0
10.2611 14.1362 -0.237261 0
10.3706 13.6707 -0.112135 0
10.2425 14.569 -0.485527 0
9.85427 13.9751 -0.544156 0
9.69621 13.3106 -0.779749 0
16.0685 12.3339 0.071797 0
15.1912 12.6062 0.234251 0
15.5939 12.4205 0.0303618 0
15.4492 11.9941 0.220208 0
14.9259 11.755 0.633933 0
15.3416 11.5812 0.584331 0
14.2589 12.974 0.598615 0
14.7502 12.7843 0.447913 0
13.2406 13.1755 0.491372 0
13.7809 13.0892 0.584324 0
13.6698 12.5631 0.572231 0
13.1033 12.1859 0.679124 0
13.5889 12.0728 0.703396 0
14.4944 11.9208 0.745933 0
14.3674 11.515 1.01612 0
14.6002 12.3296 0.521266 0
14.0447 12.0078 0.766624 0
13.483 11.6366 0.86237 0
13.7981 11.1293 1.10567 0
14.2109 11.0819 1.24187 0
12.888 11.3038 0.981082 0
13.3608 11.1756 0.996168 0
13.2204 10.7162 1.20758 0
12.6408 10.535 1.49794 0
13.0797 10.2612 1.51691 0
12.1346 13.3273 0.337815 0
12.6873 13.2528 0.405613 0
11.025 13.2739 0.106257 0
11.5401 13.3297 0.195836 0
11.564 12.9069 0.362915 0
11.0627 12.4407 0.381159 0
11.5057 12.4868 0.490309 0
10.1281 13.0385 -0.290242 0
10.4793 13.2141 0.0320782 0
9.5939 12.6559 -1.04185 0
9.84925 12.8377 -0.674819 0
9.92321 12.3374 -0.624114 0
9.65542 11.7209 -0.890944 0
9.98281 11.8508 -0.580398 0
10.5625 12.3803 0.271653 0
10.5295 11.997 0.43712 0
10.5284 12.7967 0.17222 0
10.2698 12.1097 -0.166164 0
9.93013 11.525 -0.327832 0
10.1185 11.4503 0.342995 0
10.4148 11.6624 0.67835 0
9.58985 11.0375 -0.418517 0
9.83287 11.2329 -0.011431 0
9.72627 10.9292 0.286401 0
9.52153 10.4052 0.144466 0
9.64604 10.6129 0.562386 0
12.1892 10.7963 1.50431 0
12.0801 10.4719 1.80835 0
12.3854 11.5235 1.03119 0
12.2696 11.1217 1.22948 0
11.6892 10.9733 1.51986 0
11.2131 11.0466 1.44766 0
11.1708 10.7133 1.68135 0
12.5601 12.3487 0.625763 0
12.4797 11.9008 0.787949 0
12.6401 12.794 0.504002 0
12.0107 12.4701 0.574183 0
11.4126 12.1058 0.668081 0
11.2489 11.3803 1.20337 0
10.711 11.097 1.37862 0
11.8335 11.6913 1.00912 0
11.3156 11.743 0.93605 0
10.8134 11.7637 0.86372 0
10.2995 10.9729 1.15208 0
10.3005 10.6265 1.36168 0
10.3022 11.3352 0.944849 0
9.91538 10.8117 0.896518 0
9.61825 10.2753 0.800177 0
11.5589 10.3547 1.99171 0
11.9727 10.2422 2.08041 0
10.6812 10.4528 1.79106 0
11.1425 10.4139 1.88764 0
11.0689 10.1692 2.12832 0
10.6437 9.96807 2.22478 0
10.9713 10.069 2.43042 0
9.91312 10.1237 1.32353 0
10.3023 10.2941 1.5602 0
9.47063 9.67687 0.583069 0
9.66052 9.90931 0.976644 0
9.68733 9.59343 1.16554 0
9.46363 9.08547 0.978086 0
9.69208 9.3666 1.39279 0
10.3696 9.70512 1.93829 0
10.3323 9.54612 2.18831 0
10.3166 9.98106 1.7431 0
9.99211 9.53621 1.71609 0
9.75893 9.11461 1.5749 0
10.0089 9.18827 2.16085 0
10.3001 9.423 2.44393 0
9.38712 8.75655 1.48199 0
9.67135 9.002 1.84883 0
9.56355 8.93928 2.14187 0
9.12606 8.6814 2.12465 0
9.53406 8.85816 2.37671 0
10.9022 61.7712 -31.7015 0
11.3762 63.9383 -32.2389 0
10.7133 62.9215 -32.1582 0
11.4293 61.9197 -32.711 0
12.0912 61.8074 -33.3609 0
12.1096 67.0563 -31.6132 0
12.2667 65.8747 -32.3338 0
12.4349 65.9076 -32.9853 0
12.7729 64.631 -32.9483 0
12.1212 62.8329 -33.3417 0
12.7774 61.7702 -33.851 0
12.1198 63.8758 -32.7649 0
12.5599 63.7317 -33.0678 0
13.3234 63.6066 -33.4885 0
13.5377 61.8321 -34.0188 0
13.7733 62.6841 -33.8392 0
11.7769 70.3964 -32.7074 0
11.7108 69.2703 -32.6832 0
12.0597 67.2471 -32.9611 0
13.025 65.7813 -33.5073 0
11.7898 68.1802 -32.7898 0
18.805 9.30995 6.18467 0
17.8525 9.60726 6.25473 0
18.04 9.33227 6.60786 0
17.8654 9.83018 5.88087 0
16.953 9.83663 6.31338 0
18.7481 9.74295 5.42557 0
17.8245 9.97346 5.43889 0
17.6908 9.95988 4.93424 0
16.9157 10.162 5.37757 0
18.4744 9.74525 4.45962 0
17.5911 9.91388 4.41968 0
19.3974 9.57112 4.46369 0
17.483 9.79683 3.84453 0
16.7909 10.0448 4.34443 0
19.0096 9.42354 3.00609 0
18.2169 9.50565 3.3425 0
17.4221 9.68111 3.26969 0
17.4233 9.59517 2.74355 0
16.7406 9.8351 3.21139 0
17.4275 9.55227 2.24099 0
17.5205 9.94583 1.8686 0
16.8285 9.98473 2.31409 0
17.6136 10.4199 1.51797 0
16.9733 10.7621 1.64288 0
16.0653 9.9838 6.2737 0
16.233 9.92493 6.77452 0
16.0665 10.2954 5.29041 0
16.0646 10.1698 5.7817 0
15.3356 9.88605 6.018 0
14.6627 9.82946 5.78254 0
14.7357 9.79946 6.30392 0
16.0385 10.133 4.24489 0
16.0496 10.2291 4.77036 0
16.0804 9.93266 3.11717 0
16.0578 10.0332 3.6791 0
15.4573 10.0681 4.03345 0
14.8822 9.99831 3.8269 0
14.8447 10.1754 4.36082 0
14.7425 10.1544 5.36105 0
14.0899 10.0041 5.55129 0
15.4239 10.3369 5.10191 0
14.8022 10.3449 4.90655 0
14.2758 10.1664 4.63922 0
13.5234 10.1074 5.31495 0
13.5054 9.97388 5.78687 0
13.7469 9.98557 4.37663 0
13.6496 10.0609 4.85017 0
13.0528 9.987 5.00348 0
12.583 9.91204 4.68964 0
12.5374 9.96146 5.18482 0
16.2376 10.2238 2.27356 0
16.1569 10.0547 2.67367 0
16.3594 10.8834 1.58036 0
16.3085 10.4785 1.89113 0
15.6778 10.1679 2.02098 0
15.1249 10.1609 1.82384 0
15.0586 9.97356 2.22207 0
16.3949 11.5881 0.916616 0
16.3863 11.2607 1.26729 0
16.4028 11.9046 0.577752 0
15.7916 11.4818 0.679414 0
15.2035 11.1622 0.909024 0
15.1697 10.3663 1.4526 0
14.6061 10.3233 1.82661 0
15.7693 10.7686 1.31285 0
15.1893 10.765 1.17681 0
14.6371 10.9242 1.22414 0
14.0567 10.4526 1.83429 0
14.0356 10.2369 2.17191 0
14.0766 10.6638 1.49549 0
13.5298 10.2659 1.66534 0
12.9738 9.95394 1.84281 0
12.702 10.0123 4.25727 0
12.1777 9.87917 4.37796 0
13.8158 9.90295 3.86839 0
13.2819 10.0158 4.10183 0
12.8105 10.094 3.83069 0
12.8638 9.96841 3.35313 0
12.3364 10.0957 3.60088 0
14.9395 9.92973 3.2454 0
14.3865 9.90714 3.59644 0
15.534 9.8995 2.88929 0
14.9936 9.85993 2.67177 0
14.4992 9.93803 2.58379 0
13.4059 9.81511 3.12395 0
12.9178 9.81418 2.88553 0
13.8778 9.82091 3.37578 0
13.9379 9.91496 2.9437 0
13.9914 10.0841 2.55204 0
12.9563 9.76778 2.47687 0
12.4252 9.8741 2.74231 0
13.4992 9.98874 2.3251 0
12.9634 9.85432 2.15546 0
12.4354 9.99693 2.0997 0
11.7907 9.77356 4.0507 0
11.6922 9.72242 4.4886 0
11.8589 10.0513 3.38985 0
11.8278 9.91175 3.70822 0
11.3654 9.65897 3.77151 0
10.9779 9.47694 3.48478 0
10.979 9.33161 3.78605 0
11.8937 10.0491 2.69006 0
11.8906 10.036 3.02376 0
11.8884 10.0647 2.36163 0
11.3874 10.031 2.55471 0
10.8942 9.98343 2.73599 0
10.9727 9.64833 3.22687 0
10.6056 9.30558 3.19904 0
11.4074 9.94427 3.17713 0
10.9354 9.83439 2.99118 0
10.5584 9.65991 2.7353 0
10.2619 9.13739 2.91031 0
10.2111 9.02226 3.13214 0
10.262 9.28737 2.68726 0
9.91026 8.98715 2.63796 0
9.50427 8.74809 2.57556 0
19.5942 8.45881 6.82462 0
20.8249 8.05379 6.76453 0
17.4772 9.42368 7.05338 0
18.4264 8.8704 6.89483 0
18.9168 8.43536 7.17657 0
18.2235 8.47144 7.54403 0
19.4252 8.01372 7.42889 0
21.8195 7.31393 7.48792 0
22.1362 6.78453 7.90211 0
21.3955 7.76598 7.15094 0
20.607 7.43767 7.2299 0
19.8232 7.46441 7.57055 0
21.2177 6.64172 7.92686 0
22.2676 6.18697 7.97225 0
18.9595 7.57315 7.97126 0
20.0885 6.98704 7.77318 0
20.2699 6.53905 8.01247 0
19.3461 6.69582 8.37533 0
20.3585 6.06882 8.26042 0
21.3763 5.56283 8.22285 0
20.4077 5.61627 8.5222 0
21.2478 4.34539 7.99783 0
19.4089 5.75246 8.58562 0
20.3391 5.05891 8.47618 0
20.2424 4.50793 8.4434 0
19.1487 4.65967 8.61736 0
20.1072 3.91705 8.41306 0
21.1048 3.14444 8.05641 0
19.9455 3.38282 8.33475 0
18.7384 3.60318 8.48684 0
19.8522 2.88689 8.46813 0
19.6907 2.38004 8.41567 0
18.3675 2.6065 8.36809 0
19.6016 1.93953 8.45023 0
15.7379 9.99707 7.10679 0
16.582 9.89918 7.20278 0
14.2418 9.92416 6.61064 0
14.9391 10.0034 6.90146 0
15.1956 9.9243 7.33496 0
14.5661 9.60199 7.39329 0
15.3757 9.56104 7.5929 0
13.001 10.0066 6.04166 0
13.5656 9.89784 6.29762 0
12.0885 9.94566 5.39079 0
12.5443 9.99663 5.71865 0
12.5485 9.88933 6.1979 0
12.1025 9.66959 6.25669 0
12.6021 9.69585 6.59786 0
13.858 9.69779 7.198 0
13.9793 9.34942 7.44538 0
13.7227 9.94729 6.83867 0
13.1761 9.73107 6.93917 0
12.6713 9.52361 6.99892 0
13.3925 9.14415 7.50721 0
14.0763 9.17219 7.85879 0
12.162 9.33098 7.00324 0
12.7256 9.25787 7.30301 0
12.794 8.95043 7.5644 0
12.2137 8.8036 7.56103 0
12.7887 8.80734 7.92425 0
11.2005 9.59953 4.59453 0
11.6282 9.73177 4.97969 0
10.5862 9.00056 3.78998 0
10.9495 9.24522 4.14748 0
10.8023 9.32542 4.62338 0
10.3993 9.00528 4.5696 0
10.7902 9.2182 5.03572 0
9.79316 8.72008 3.05047 0
10.1721 8.87248 3.38685 0
9.1991 8.34785 2.39438 0
9.46012 8.54096 2.72655 0
9.48785 8.24615 2.86129 0
9.25353 7.72759 2.64735 0
9.41057 8.0694 3.08837 0
10.0981 8.62432 4.03347 0
9.90934 8.62826 4.48094 0
10.1608 8.7054 3.68386 0
9.71186 8.38571 3.51988 0
9.46548 7.8477 3.32823 0
9.56233 8.07634 4.2032 0
9.85744 8.44568 4.85606 0
9.37998 7.32128 3.11104 0
9.40914 7.67954 3.62155 0
9.34397 7.5302 3.92905 0
9.66565 7.19343 3.64418 0
9.24358 7.35961 4.21943 0
11.6536 8.90621 7.27367 0
11.6229 8.70003 7.55773 0
11.6623 9.31198 6.65896 0
11.6473 9.15249 7.00553 0
11.2347 8.87598 6.91443 0
10.9913 8.56042 6.38107 0
10.9183 8.49011 6.7148 0
11.6718 9.59007 5.90941 0
11.6663 9.45863 6.29479 0
11.6596 9.74473 5.48998 0
11.2613 9.36036 5.46741 0
10.8575 9.00935 5.43614 0
11.0656 8.65033 6.03216 0
10.7055 8.22154 5.8401 0
11.3728 9.05251 6.17189 0
10.9955 8.82655 5.75331 0
10.4566 8.64658 5.33793 0
10.0564 7.95386 5.38874 0
10.2441 7.67687 5.57369 0
9.86183 8.21337 5.16825 0
9.34263 7.64156 4.83995 0
9.03746 7.11794 4.49781 0
11.0789 8.58211 7.5339 0
11.5419 8.5421 7.84516 0
10.5674 8.0926 6.47221 0
10.8533 8.34936 7.01739 0
10.7974 8.19861 7.33026 0
10.4714 7.78043 7.08736 0
10.6741 7.9217 7.47973 0
9.72208 7.12836 5.23008 0
10.1791 7.60646 5.86734 0
9.49049 6.70464 4.10662 0
9.08476 6.88517 4.71369 0
9.48082 6.68706 4.82395 0
10.0533 6.21135 4.33486 0
9.86038 6.47152 4.92678 0
10.336 7.31929 6.37867 0
10.2099 7.13116 6.6092 0
10.3551 7.48089 6.09841 0
10.1402 6.78063 5.63138 0
10.0761 6.26821 5.03443 0
10.0874 6.39472 5.93163 0
9.99055 6.91773 6.80547 0
10.4551 5.6379 4.43925 0
10.3173 6.05829 5.10303 0
10.2163 5.8254 5.1509 0
10.5728 5.16906 4.41782 0
10.0182 5.55791 5.10476 0
17.2962 3.29948 8.28414 0
17.0928 2.84654 8.28415 0
17.6928 4.28646 8.2353 0
17.4815 3.794 8.32895 0
16.3207 3.96508 8.24904 0
15.565 4.557 8.29892 0
15.3494 4.11628 8.4142 0
18.1605 5.40388 8.32307 0
17.9111 4.81386 8.27285 0
18.3943 6.42524 8.70692 0
18.3296 5.94139 8.41325 0
17.1701 6.05208 8.37922 0
16.1225 6.55822 8.6755 0
16.0539 6.06607 8.51886 0
15.7516 5.03308 8.28948 0
14.8098 5.07249 8.42914 0
16.7353 4.93638 8.15432 0
15.8835 5.53191 8.39404 0
15.0407 5.99654 8.62099 0
14.0172 5.50928 8.65272 0
13.9146 5.17974 8.99774 0
14.1637 6.33569 8.82232 0
14.115 5.94361 8.74895 0
13.2283 5.81003 8.73979 0
12.4723 5.92705 8.58208 0
12.5251 5.59492 8.71292 0
18.249 7.26299 8.54871 0
18.3751 6.87114 8.74646 0
17.7821 8.06692 8.04992 0
18.0551 7.64856 8.31305 0
17.075 7.65804 8.44305 0
15.9715 8.02869 8.38542 0
16.0749 7.66167 8.54824 0
17.1421 8.86441 7.58435 0
17.5156 8.50142 7.87123 0
16.8781 9.45818 7.44935 0
16.2217 9.39524 7.75743 0
15.5681 9.09612 7.82435 0
15.8722 8.42325 8.26007 0
15.0486 8.43341 8.48344 0
16.6815 8.45227 8.05157 0
15.728 8.84542 8.15058 0
14.8712 9.12423 8.13517 0
14.1858 8.83741 8.62037 0
14.1788 8.43783 8.67497 0
14.1614 9.10947 8.38671 0
13.4613 8.9098 8.36064 0
12.7289 8.68898 8.27054 0
12.5224 6.34683 8.57136 0
11.7272 6.09977 8.43729 0
14.2063 6.79895 8.9291 0
13.3261 6.60913 8.81103 0
12.5504 6.79441 8.55383 0
12.5941 7.2108 8.55512 0
11.8318 6.9697 8.29571 0
16.174 6.97084 8.77459 0
15.1502 6.93534 8.87629 0
17.2904 6.93468 8.81474 0
16.1474 7.31219 8.68715 0
15.1482 7.66719 8.7467 0
13.3697 7.45368 8.86776 0
12.6442 7.59356 8.47663 0
14.2076 7.23247 8.99673 0
14.2169 7.61782 8.92113 0
14.1995 8.04385 8.78737 0
12.6647 7.9902 8.37407 0
11.9603 7.72857 8.15563 0
13.3951 8.25444 8.59377 0
12.6872 8.3826 8.39036 0
12.0502 8.48674 8.16055 0
11.0166 6.3059 8.48812 0
11.0407 5.86042 8.46426 0
11.2034 7.12748 8.12509 0
11.0993 6.72799 8.32446 0
10.3795 6.50382 8.45026 0
10.0269 6.49214 7.93703 0
9.93991 6.09309 8.17004 0
11.38 7.85064 7.97454 0
11.2904 7.50246 8.0405 0
11.4387 8.21669 7.95792 0
10.861 7.97174 7.78747 0
10.4835 7.66165 7.65563 0
10.1724 6.94161 7.81717 0
9.68122 6.43278 7.44417 0
10.6426 7.29324 7.96878 0
10.3257 7.34352 7.78276 0
10.0264 7.30378 7.51884 0
9.45708 6.26653 6.90464 0
9.31524 5.77383 6.75317 0
9.71101 6.65055 6.97359 0
9.6173 5.85916 6.01037 0
9.82656 5.25064 5.06252 0
15.9096 3.05412 8.25942 0
16.9767 2.48504 8.36231 0
14.4318 4.2515 8.73494 0
15.143 3.66533 8.44524 0
14.9734 3.27341 8.49598 0
14.0835 3.45033 8.85674 0
14.8748 2.96868 8.66767 0
13.0701 5.1788 9.35143 0
13.7577 4.81945 9.25085 0
11.8488 5.39148 8.71959 0
12.5167 5.28823 8.97385 0
12.3707 4.92419 9.21465 0
11.6649 4.58931 8.9232 0
12.2134 4.51265 9.36159 0
13.381 3.9441 9.39845 0
13.1837 3.54463 9.40985 0
13.5668 4.3719 9.31846 0
12.7327 4.33883 9.60933 0
11.9845 4.08096 9.42857 0
12.3166 3.4744 9.61577 0
12.9928 3.1449 9.43479 0
11.1523 3.71102 9.03861 0
11.743 3.66629 9.51045 0
11.5344 3.28077 9.55917 0
10.7262 2.84099 9.18306 0
11.3452 2.92399 9.67654 0
10.4209 5.63297 8.43881 0
11.1315 5.45837 8.46115 0
9.61653 5.5993 7.54204 0
10.0279 5.67207 8.13753 0
10.0833 5.1902 7.96407 0
9.57437 4.69325 7.35071 0
10.023 4.69624 7.77069 0
9.32893 5.13871 5.91412 0
9.23363 5.36986 6.68226 0
10.6849 4.55805 4.37451 0
9.78355 4.87393 4.98441 0
9.77137 4.47354 4.90048 0
10.7096 3.70578 4.01364 0
9.93107 4.00307 4.7628 0
9.476 4.47725 6.57 0
9.47605 3.98302 6.3809 0
9.3201 4.97095 6.72844 0
9.50186 4.2464 5.67665 0
10.1241 3.52126 4.65284 0
9.59213 3.28336 5.26065 0
9.26587 3.5365 6.2919 0
10.9024 2.67714 4.06479 0
10.0482 3.02946 4.45534 0
10.0076 2.54981 4.24198 0
10.9529 1.83781 3.57177 0
10.2198 2.11187 4.21625 0
10.086 2.7617 8.60792 0
9.89599 2.30126 8.74249 0
10.5513 3.68996 8.47159 0
10.2833 3.24305 8.52164 0
9.6356 2.75745 8.11864 0
9.21999 2.77172 7.68284 0
9.1318 2.21955 7.67358 0
11.1453 4.57939 8.32012 0
10.8884 4.13902 8.41585 0
11.1796 5.0604 8.46223 0
10.4968 4.65562 8.05866 0
9.9365 4.18937 7.58842 0
9.37914 3.28522 7.68065 0
9.27281 2.76152 7.0139 0
10.0827 3.7098 8.01552 0
9.65587 3.75528 7.63658 0
9.32291 3.70968 7.09637 0
9.29256 2.63301 6.19567 0
9.44692 2.18469 6.20862 0
9.12864 3.08747 6.219 0
9.68449 2.38984 5.11237 0
10.473 1.70624 4.30812 0
9.26979 1.75227 8.32802 0
9.71276 1.89014 8.93154 0
9.23 1.5936 6.86918 0
9.07353 1.68547 7.6938 0
9.05615 1.18047 7.74079 0
9.24126 0.643772 7.03453 0
9.05306 0.739267 7.82751 0
9.91562 1.52668 5.28343 0
9.49476 1.61248 6.16452 0
11.5259 1.1063 3.90723 0
10.6623 1.31728 4.51222 0
10.7766 0.905561 4.67373 0
11.9035 0.243773 4.06441 0
10.9637 0.471803 4.7532 0
9.68058 0.669214 6.26026 0
9.74839 0.2416 6.40347 0
9.5492 1.08209 6.13729 0
10.1402 0.669307 5.49978 0
11.1481 0.0671172 4.87022 0
10.4995 -0.0866405 5.78596 0
9.94281 -0.113884 6.55321 0
12.2254 -0.592522 4.12529 0
11.3129 -0.342264 4.92293 0
11.5169 -0.694282 5.0737 0
12.716 -1.23933 4.37788 0
11.7931 -0.988046 5.24969 0
19.4841 1.62109 8.55727 0
18.0795 1.85108 10.2757 0
18.0291 1.76308 9.25064 0
19.3867 1.44376 8.8069 0
18.1399 1.90269 8.53414 0
14.4232 0.647773 13.8564 0
14.3236 0.203225 14.2823 0
16.7284 1.94398 12.014 0
16.7053 1.80818 12.5561 0
15.7202 2.12166 12.8205 0
14.6953 2.33154 12.4756 0
14.6585 2.08558 12.8825 0
14.5293 1.1443 13.4855 0
13.489 1.011 13.4779 0
15.5802 1.29906 13.5464 0
14.6057 1.63555 13.1729 0
13.5556 1.91611 12.8231 0
12.4423 1.32819 13.1445 0
12.4349 0.889487 13.4991 0
12.4858 2.00542 12.4369 0
12.4491 1.76454 12.7967 0
11.5872 1.28077 12.5267 0
10.6389 1.11238 11.9785 0
10.7391 0.787342 12.2764 0
16.8291 1.99944 10.9853 0
16.7544 1.93882 11.4858 0
16.8814 2.00825 9.93221 0
16.8846 2.04776 10.4663 0
15.8205 2.30764 10.7091 0
14.8882 2.5884 10.44 0
14.8469 2.56127 10.9774 0
16.907 2.14301 8.9844 0
16.8794 2.04614 9.43243 0
16.9554 2.25117 8.64209 0
15.826 2.54657 8.7599 0
14.8725 2.69444 9.02438 0
14.874 2.48972 9.9335 0
13.8977 2.71405 10.2223 0
15.8156 2.24943 9.65736 0
14.8659 2.45436 9.42966 0
13.9362 2.78525 9.36216 0
12.9003 2.82499 10.0738 0
12.8417 2.74209 10.4698 0
12.9556 2.94867 9.77683 0
12.0631 2.90081 9.90212 0
11.1614 2.64928 9.87522 0
10.5481 1.44893 11.6755 0
9.88336 0.894157 11.3071 0
12.5369 2.19249 12.0768 0
11.5171 1.83683 11.8806 0
10.5185 1.68839 11.3497 0
10.4983 1.90135 11.0318 0
9.82532 1.48628 10.6879 0
14.7312 2.4058 11.9928 0
13.6553 2.34569 12.0764 0
15.7624 2.28476 11.7692 0
14.7665 2.44151 11.4831 0
13.8037 2.52846 11.1251 0
11.5814 2.16901 11.1477 0
10.5803 2.0677 10.7101 0
12.617 2.31254 11.6648 0
12.7174 2.39342 11.2178 0
12.7939 2.5418 10.8148 0
10.737 2.19669 10.3744 0
9.83217 1.8891 10.1156 0
11.8171 2.46453 10.4312 0
10.9309 2.40081 10.1141 0
10.3393 2.09017 9.52129 0
9.52977 0.365128 10.4294 0
9.56631 0.122756 10.7834 0
9.42601 0.893221 9.83846 0
9.51426 0.640324 10.106 0
9.40098 -0.396154 9.38973 0
9.74322 -0.519407 8.53153 0
9.74458 -0.785372 8.84373 0
9.31964 1.40583 9.39856 0
9.28046 1.1983 9.63472 0
9.55498 1.48309 9.09894 0
8.97048 0.876675 8.59146 0
9.09542 0.328937 7.9363 0
9.50661 -0.313532 8.2523 0
9.79383 -0.699026 7.72653 0
9.20964 0.158654 8.87695 0
9.26357 -0.0308413 8.0646 0
9.39281 -0.157157 7.30695 0
10.2347 -0.86312 6.85483 0
10.4955 -1.0747 7.11298 0
10.0671 -0.472243 6.71346 0
10.8482 -0.825393 6.07788 0
11.9294 -1.38696 5.384 0
13.3888 0.0953137 14.2494 0
14.2686 -0.00868882 14.8735 0
14.1898 -0.276105 15.4301 0
13.31 -0.4833 15.3305 0
14.1114 -0.783177 15.8963 0
11.6279 0.465113 13.1913 0
12.4406 0.41464 13.8454 0
10.1697 0.247958 11.8669 0
10.8138 0.417315 12.5701 0
10.8502 0.0283607 12.8793 0
10.422 -0.443154 12.4394 0
10.9212 -0.383432 13.2145 0
12.4428 -0.399126 14.7008 0
12.4111 -0.752948 15.1877 0
12.4436 -0.0655654 14.1962 0
11.6909 -0.434986 13.9073 0
10.9785 -0.847106 13.5674 0
11.7011 -1.33302 14.7348 0
12.3906 -1.30479 15.5564 0
10.808 -1.29378 13.0671 0
11.0795 -1.35566 13.9089 0
11.1589 -1.85066 14.2812 0
11.3364 -2.28653 13.7223 0
11.6634 -2.2485 14.5863 0
9.81451 -0.581414 10.0681 0
9.81396 -0.0372392 11.0709 0
10.2383 -1.24812 8.27655 0
9.93692 -1.11455 9.1513 0
10.2703 -1.15759 9.43707 0
10.8222 -1.73258 8.85292 0
10.6832 -1.24938 9.73076 0
11.2416 -1.51636 6.39244 0
10.8099 -1.31797 7.31618 0
13.2544 -1.81404 4.69249 0
12.1806 -1.68724 5.53729 0
12.4527 -1.94787 5.71547 0
13.9121 -2.14817 5.12367 0
12.8198 -2.06444 5.9736 0
11.3566 -1.83995 7.88711 0
11.74 -1.94821 8.2236 0
11.0151 -1.66485 7.56344 0
11.9009 -1.93373 6.85605 0
13.2278 -2.10095 6.30268 0
12.7344 -2.07929 7.58801 0
12.1133 -2.13032 8.57193 0
14.6551 -2.37726 5.77064 0
13.5945 -2.21717 6.67889 0
13.9586 -2.43677 7.0623 0
15.3465 -2.84403 6.56437 0
14.3618 -2.65112 7.44538 0
11.3011 -2.1714 12.8771 0
11.6248 -2.70026 13.1754 0
10.687 -1.24786 12.2415 0
10.9757 -1.68527 12.5599 0
11.6674 -2.09523 11.9647 0
12.1195 -2.01259 11.0798 0
12.3982 -2.48081 11.432 0
10.23 -0.569383 11.6157 0
10.4029 -0.887467 11.9303 0
9.95816 -0.348613 11.3354 0
10.4685 -0.831542 10.6392 0
11.0357 -1.35446 10.0334 0
11.7561 -1.77156 10.6877 0
12.4787 -2.24857 10.1835 0
11.0638 -1.30082 11.2731 0
11.4697 -1.46586 10.329 0
11.6475 -1.93736 9.48056 0
12.9432 -2.44128 9.28341 0
13.3716 -2.63911 9.73788 0
12.5265 -2.28833 8.91622 0
13.5525 -2.50422 8.34324 0
14.7711 -2.90902 7.90428 0
12.2939 -3.07326 12.7113 0
11.9871 -3.22889 13.5816 0
13.2309 -2.84022 10.9876 0
12.6773 -2.98263 11.808 0
12.9776 -3.44328 12.3101 0
13.8183 -3.8881 11.8758 0
13.291 -3.94816 12.8224 0
14.4148 -3.00366 9.29962 0
13.7971 -2.79481 10.1649 0
16.1582 -3.34515 7.45505 0
15.1916 -3.16661 8.38328 0
15.5262 -3.54628 8.8077 0
16.8127 -4.04263 8.33088 0
15.7978 -4.02197 9.16798 0
14.3526 -3.86207 10.9183 0
14.6856 -4.33487 11.429 0
14.0754 -3.32115 10.5421 0
15.0217 -3.94452 10.0487 0
16.0641 -4.51591 9.58219 0
15.7347 -4.76792 11.0342 0
15.0294 -4.81165 11.9381 0
17.1877 -5.25328 9.15958 0
16.4505 -4.80964 10.1023 0
16.8073 -5.15879 10.6445 0
14.0259 -1.19608 16.4078 0
12.4444 -1.85666 15.8789 0
12.299 -2.24003 15.3473 0
12.2214 -2.59737 14.9267 0
12.395 -3.77555 14.024 0
13.0235 -4.16946 13.6587 0
13.5883 -4.59865 13.285 0
13.2187 -17.4263 -4.11234 0
13.8949 -19.009 -1.72039 0
13.4089 -18.2041 -2.6354 0
13.6323 -19.5016 -1.20508 0
13.4207 -19.7586 -0.587774 0
13.1111 -18.9183 -1.44776 0
13.7321 -20.6394 0.227676 0
13.2723 -19.9077 0.207324 0
13.5905 -21.6174 0.455947 0
13.2323 -21.5352 0.71718 0
12.9215 -19.9417 0.55878 0
12.8235 -19.181 0.131047 0
12.7716 -21.3277 0.764046 0
13.0303 -20.6673 0.861295 0
12.5016 -19.7831 0.6995 0
12.0026 -19.5155 0.670134 0
11.9774 -18.8908 0.483134 0
12.0337 -20.0597 0.82218 0
11.597 -19.1167 0.978761 0
12.5212 -21.9559 0.672829 0
12.3119 -21.0043 0.782731 0
11.889 -20.4069 0.739642 0
11.6741 -20.7066 0.55351 0
11.492 -19.8569 0.982368 0
11.8836 -21.4215 0.214171 0
11.5039 -20.7193 0.135008 0
12.3166 -22.0038 0.262589 0
11.391 -20.4234 -0.499823 0
11.0703 -19.9884 0.0231867 0
11.3235 -20.0221 -1.2495 0
10.6394 -19.8027 -1.53679 0
11.1356 -18.5612 1.19655 0
11.1217 -18.1462 1.08546 0
11.0689 -19.2414 1.14087 0
11.1294 -18.9322 1.24748 0
10.6508 -18.0826 1.44035 0
10.1091 -17.5894 1.59427 0
10.0982 -17.2198 1.48865 0
10.5618 -19.29 -0.111057 0
10.818 -19.2515 0.559287 0
9.92291 -19.5567 -1.90235 0
10.2366 -19.4437 -0.99101 0
9.99004 -18.8087 -0.32925 0
9.36785 -18.3165 -0.478739 0
9.62994 -18.2798 0.445811 0
10.0014 -17.9018 1.40597 0
9.42243 -17.2237 1.60717 0
10.5229 -18.7764 1.20945 0
9.89826 -18.2452 1.20222 0
9.05338 -17.7249 0.914306 0
8.64492 -16.8331 1.59961 0
8.65208 -16.4427 1.53378 0
8.17306 -17.2586 0.796254 0
8.44918 -17.0585 1.24402 0
7.78909 -16.4773 1.67242 0
6.99683 -16.1057 1.90813 0
6.86958 -15.7741 1.74347 0
7.06974 -16.4944 2.11319 0
6.36919 -15.7894 2.63445 0
8.11439 -17.5272 0.520507 0
7.63435 -16.9874 1.28422 0
7.06703 -16.776 2.05313 0
6.99347 -17.1691 2.02929 0
6.33389 -16.7014 2.98418 0
8.96122 -18.5267 -1.4288 0
8.52034 -18.0335 -0.441473 0
9.19503 -19.2079 -2.26618 0
8.46726 -18.7786 -2.46553 0
8.14507 -19.3175 -3.27744 0
7.75323 -18.6631 -2.26535 0
7.46387 -17.5808 0.800526 0
6.71567 -17.6714 1.88089 0
7.81721 -17.7805 -0.0463158 0
7.4936 -18.2048 -0.808171 0
7.00147 -18.6884 -1.73836 0
6.41411 -18.1387 1.4934 0
6.02454 -17.7955 2.94456 0
6.81075 -19.3484 -2.54232 0
6.69483 -18.6514 -0.524506 0
6.4416 -18.7195 1.03167 0
6.25217 -19.5681 0.280821 0
6.18859 -18.746 2.42199 0
6.25524 -20.2882 -2.34268 0
6.30332 -20.4966 -0.64658 0
7.42639 -20.145 -3.63804 0
6.82563 -20.2457 -3.16098 0
8.00319 -19.8105 -3.95515 0
6.19732 -20.2242 1.39606 0
5.88279 -15.4301 3.50562 0
5.80076 -14.9495 3.1777 0
5.97783 -16.3947 4.07721 0
5.97225 -15.9053 3.8675 0
5.51685 -14.9257 4.51739 0
5.66081 -14.4067 5.34844 0
5.42564 -13.9124 4.75925 0
6.24337 -17.6237 4.21734 0
5.92661 -16.9388 4.06971 0
6.38113 -18.6286 3.725 0
6.31075 -18.0671 3.98844 0
6.41014 -17.3291 5.41977 0
6.69783 -16.9844 6.28903 0
6.45934 -16.0123 6.36976 0
5.84656 -14.9315 5.73351 0
6.07594 -13.7804 6.03707 0
5.77454 -15.9299 5.30908 0
6.15855 -15.3531 6.25535 0
6.61222 -14.8202 6.92956 0
6.75764 -13.1923 6.38256 0
6.5672 -12.4668 5.98673 0
7.33386 -14.5637 7.04319 0
6.93772 -13.8831 6.75399 0
7.45226 -12.7554 6.43795 0
8.4398 -12.4625 5.99229 0
8.14042 -11.7205 5.70048 0
6.62112 -20.1059 3.16483 0
6.33631 -19.2744 3.3704 0
6.97025 -20.0677 4.55979 0
7.49208 -19.134 5.6362 0
9.81901 -19.3516 6.46016 0
9.68116 -18.5577 6.78969 0
13.8351 -17.1593 6.01627 0
9.16444 -13.2085 6.05394 0
9.77006 -12.2269 5.37658 0
7.78703 -15.3941 7.21306 0
8.34987 -14.3253 6.81378 0
9.81939 -13.9804 6.16288 0
10.5125 -14.6735 6.26603 0
11.2874 -13.8465 5.31613 0
6.82132 -17.7868 6.05946 0
7.08438 -16.6704 6.97367 0
6.55427 -18.527 4.89312 0
7.14797 -18.4091 5.7946 0
7.80283 -18.2516 6.87041 0
9.47094 -15.898 7.00118 0
11.2182 -15.3956 6.30238 0
8.07371 -16.3721 7.10838 0
8.60056 -17.2212 7.03215 0
9.09846 -17.8733 7.01294 0
12.1439 -15.937 6.20514 0
13.0229 -15.1582 5.22631 0
10.8182 -17.3271 6.78051 0
13.1031 -16.4498 6.10469 0
15.2095 -15.88 5.11772 0
11.1053 -12.115 4.71909 0
10.3973 -11.5693 4.27779 0
12.6397 -13.8728 4.43613 0
11.8719 -12.945 4.64549 0
12.1747 -12.4315 3.3957 0
13.1635 -12.8668 1.79727 0
12.2857 -12.3597 1.84878 0
14.6825 -15.0413 4.00546 0
13.6021 -14.5454 4.20982 0
17.183 -15.6021 3.77494 0
15.9238 -15.39 3.82451 0
16.3874 -14.9087 2.4424 0
17.8013 -14.4261 0.977829 0
16.514 -14.1393 1.25038 0
14.1429 -13.2927 1.72924 0
14.1167 -13.1083 0.330205 0
13.9194 -13.9252 2.98824 0
15.3154 -13.7634 1.49378 0
16.6799 -13.442 0.0300831 0
14.8688 -12.5534 -0.913403 0
13.949 -12.6265 -0.914181 0
16.6946 -12.5283 -0.804973 0
16.0032 -12.4309 -0.957303 0
15.383 -11.5752 -1.93711 0
17.5173 -12.5724 -0.666027 0
16.4081 -11.6491 -1.3823 0
18.7798 -15.0481 0.776271 0
18.3734 -13.5064 0.166904 0
18.1777 -16.2362 3.86104 0
18.7955 -15.9618 2.09751 0
12.2437 -16.3782 -5.95957 0
12.6328 -17.151 -4.41348 0
12.4293 -16.8169 -5.22729 0
11.7106 -16.0899 -6.23874 0
11.1764 -15.7017 -6.48399 0
10.2281 -13.4418 -7.93626 0
9.69021 -10.8271 -9.16117 0
9.98646 -10.1219 -9.44493 0
11.0384 -6.90583 -10.0116 0
10.3081 -9.30262 -9.7079 0
10.152 -8.653 -9.6126 0
10.8986 -6.40135 -9.92842 0
11.5286 -5.5031 -10.1373 0
10.0038 -8.0225 -9.5167 0
10.4504 -7.26941 -9.71549 0
10.784 -5.87041 -9.84936 0
10.6171 -5.35059 -9.74034 0
11.1387 -4.52121 -10.0547 0
12.4247 -3.16069 -10.4261 0
11.9295 -4.23881 -10.3742 0
11.6941 -3.77078 -10.3914 0
11.508 -3.20878 -10.3269 0
11.5907 -2.71938 -9.83114 0
12.3379 -2.24609 -9.73788 0
12.836 -17.7792 -2.88705 0
12.7686 -17.4749 -3.60643 0
12.6286 -18.2553 -1.65697 0
12.7495 -18.0825 -2.28135 0
12.2057 -17.3594 -3.2656 0
11.4195 -16.9366 -3.71073 0
11.4666 -16.6469 -4.37229 0
12.259 -18.2753 -0.339814 0
12.4817 -18.3467 -0.896828 0
11.4681 -17.9036 0.246928 0
11.8289 -18.1226 -0.133973 0
11.6567 -17.4088 -0.813149 0
10.7766 -16.9175 -1.32767 0
11.0667 -17.0175 -1.83091 0
11.3416 -17.0815 -3.08861 0
10.6493 -16.4364 -4.12474 0
12.0495 -17.6371 -1.95437 0
11.2607 -17.1204 -2.40257 0
10.4278 -16.6234 -2.83457 0
10.0048 -15.7921 -4.4456 0
10.2562 -15.4337 -4.96103 0
9.65517 -15.8816 -3.33293 0
9.84745 -15.9217 -3.84976 0
9.35775 -15.1479 -4.76372 0
8.80115 -14.165 -5.01007 0
9.02453 -13.8117 -5.49158 0
10.528 -17.2066 0.951304 0
11.0144 -17.5646 0.578598 0
9.34317 -16.426 1.36004 0
10.0042 -16.7893 1.19457 0
9.88093 -16.34 0.795368 0
8.92056 -15.77 0.307015 0
9.54594 -16.0673 -0.0337979 0
7.72093 -15.7436 1.52815 0
8.6285 -16.0509 1.48221 0
6.18232 -15.0114 2.04507 0
6.78624 -15.4172 1.56874 0
6.91348 -14.9374 1.25161 0
6.25448 -14.1522 1.22679 0
7.02684 -14.4538 0.932079 0
8.22323 -15.4712 0.515284 0
7.94334 -15.2147 -0.169936 0
8.48025 -15.7247 1.11862 0
7.61702 -14.9804 0.730264 0
6.85108 -14.2617 0.399553 0
7.12424 -14.5155 -0.543592 0
7.68458 -14.7892 -0.948216 0
6.05103 -13.6296 0.159406 0
6.61363 -14.1481 -0.177822 0
6.39801 -13.8642 -0.871486 0
5.82753 -12.8663 -1.03247 0
6.41994 -13.169 -1.45946 0
8.56211 -14.1891 -4.5701 0
8.30536 -13.054 -5.25303 0
9.33609 -15.7854 -2.85952 0
8.87726 -15.111 -3.83088 0
8.25898 -14.2318 -4.1268 0
7.94327 -14.2465 -3.5655 0
7.67943 -13.3767 -4.32597 0
10.3942 -16.6859 -0.901662 0
9.83924 -16.4258 -1.83624 0
10.901 -16.9632 0.0130492 0
10.0464 -16.3781 -0.453615 0
9.16273 -15.817 -0.904167 0
8.26592 -14.9866 -2.71269 0
7.58985 -14.1388 -2.99495 0
9.01748 -15.7188 -2.30891 0
8.69141 -15.4416 -1.80843 0
8.27347 -15.1007 -1.34709 0
7.14625 -13.8373 -2.50589 0
6.9085 -13.1502 -3.2702 0
7.41053 -14.388 -1.75171 0
6.77627 -13.4889 -1.99705 0
6.2952 -12.5262 -2.13609 0
7.82689 -11.8369 -5.41592 0
7.88041 -11.652 -5.98964 0
7.21554 -12.1408 -4.45432 0
7.6048 -11.9807 -4.8981 0
7.40834 -10.5154 -5.52088 0
7.15368 -9.33167 -5.5568 0
7.21161 -9.21364 -6.13018 0
6.45582 -11.9217 -3.43007 0
6.78364 -12.0987 -3.97583 0
6.03241 -11.3689 -2.24861 0
6.27403 -11.7081 -2.82843 0
6.22679 -10.6977 -3.50159 0
6.16231 -9.45958 -3.42505 0
6.29103 -9.59583 -4.03327 0
6.87223 -9.49183 -5.08184 0
6.85698 -8.22207 -5.61139 0
6.72735 -10.7793 -4.59084 0
6.48158 -9.60719 -4.62227 0
6.45469 -8.39658 -4.50575 0
6.864 -6.96107 -5.41919 0
7.05701 -6.77697 -5.89883 0
6.3638 -7.08836 -4.37073 0
6.57561 -7.08023 -4.94725 0
6.7611 -5.63488 -5.26141 0
6.87394 -4.30389 -5.09481 0
7.1669 -4.14654 -5.53598 0
12.6858 -1.19247 -8.91339 0
13.6918 -0.420058 -8.39741 0
10.9436 -3.34824 -9.59004 0
11.7058 -2.14086 -9.33685 0
11.9991 -1.43683 -8.87659 0
11.3523 -1.78244 -8.70004 0
12.4333 -0.692549 -8.35132 0
10.1324 -6.19128 -9.53333 0
10.4508 -4.77239 -9.61754 0
9.65433 -8.63939 -9.27851 0
9.8621 -7.43527 -9.41987 0
9.66267 -6.77104 -9.38329 0
9.1798 -7.19628 -9.27018 0
9.47936 -5.9819 -9.26752 0
10.486 -3.17154 -9.02163 0
10.7372 -2.11109 -8.65442 0
10.3307 -3.96119 -9.45804 0
9.82973 -4.62308 -9.25585 0
9.37821 -5.0843 -9.09282 0
10.2562 -2.45945 -8.58801 0
11.2263 -0.876269 -8.48432 0
9.07633 -5.40204 -8.83996 0
9.59231 -3.99973 -8.74469 0
9.88531 -2.75005 -8.42276 0
9.54601 -2.94897 -8.21806 0
10.3416 -1.25894 -8.06928 0
9.38368 -11.4624 -8.81878 0
9.4918 -10.0564 -9.09495 0
10.199 -13.9366 -7.40942 0
9.74811 -12.7402 -8.12998 0
9.16378 -12.0191 -8.37689 0
9.11921 -12.4177 -7.81796 0
8.84279 -11.1804 -8.41477 0
11.2624 -16.1398 -5.81734 0
10.6914 -15.0632 -6.65864 0
12.038 -16.8064 -4.73575 0
11.3784 -16.3883 -5.07956 0
10.7906 -15.76 -5.35294 0
9.69454 -13.5504 -7.01051 0
9.11049 -12.7548 -7.18758 0
10.2085 -14.3212 -6.82734 0
10.2326 -14.6719 -6.2073 0
10.3213 -15.0928 -5.55412 0
9.17517 -13.146 -6.57042 0
8.59637 -11.8841 -7.34287 0
9.86157 -14.3981 -5.75426 0
9.23512 -13.4433 -5.98031 0
8.56458 -12.418 -6.26208 0
8.96706 -4.4607 -8.23367 0
9.21702 -3.10784 -7.99697 0
8.65438 -6.73004 -8.92334 0
8.80664 -5.67856 -8.53112 0
8.53246 -5.90309 -8.20508 0
8.17794 -7.29813 -8.18987 0
8.1882 -6.05727 -7.94667 0
9.0084 -8.45177 -9.06632 0
8.72281 -7.63388 -9.1033 0
9.28986 -9.27104 -9.03734 0
9.00119 -9.77088 -8.67565 0
8.71074 -10.2156 -8.29516 0
8.33138 -8.32014 -8.24291 0
8.0125 -8.5531 -7.9243 0
8.52247 -8.00383 -8.67709 0
8.54137 -9.2442 -8.23589 0
8.54177 -10.5437 -7.81776 0
7.88178 -9.76288 -7.59741 0
7.75451 -8.7363 -7.5197 0
8.22129 -10.8207 -7.47651 0
8.16859 -11.0678 -6.9753 0
8.02664 -11.3384 -6.47969 0
8.89717 -3.26642 -7.71346 0
9.54855 -1.61331 -7.73756 0
7.93045 -6.21192 -7.56661 0
8.28011 -4.75642 -7.69841 0
8.57685 -3.40662 -7.40245 0
8.36058 -3.56075 -7.02271 0
8.88767 -2.02638 -7.13495 0
7.53326 -8.95241 -7.10185 0
7.65783 -7.6516 -7.41494 0
7.44458 -10.2674 -6.72839 0
7.30367 -9.10886 -6.67062 0
7.17932 -7.88608 -6.59618 0
7.90257 -5.00948 -6.8998 0
8.04538 -3.68562 -6.69514 0
7.74871 -6.338 -7.15852 0
7.53547 -6.45323 -6.7541 0
7.27915 -6.59639 -6.34463 0
7.7365 -3.80892 -6.34473 0
8.20497 -2.35821 -6.52338 0
7.37624 -5.30761 -6.10317 0
7.45901 -3.97071 -5.94215 0
7.58083 -2.6384 -5.75619 0
12.8451 0.476434 -8.3552 0
13.4032 0.502631 -8.34075 0
14.261 1.67697 -8.51801 0
11.8276 0.566266 -8.19957 0
12.3065 0.548567 -8.40389 0
10.9321 0.427413 -7.74565 0
11.3859 0.475077 -7.92664 0
12.4774 2.09993 -7.9625 0
12.8959 3.66798 -8.64934 0
13.3858 3.41324 -8.70421 0
14.2566 2.96665 -8.78763 0
13.2836 1.8217 -8.50589 0
13.8094 3.18538 -8.81507 0
14.5351 4.30926 -8.85967 0
15.2681 4.92722 -8.74784 0
9.98852 0.0616616 -7.42105 0
10.4602 0.261272 -7.59168 0
9.28262 -0.490849 -6.92161 0
9.60665 -0.200213 -7.19046 0
10.7157 1.87309 -7.45501 0
11.3346 3.50883 -7.79762 0
11.579 3.82889 -8.13655 0
8.59052 -0.973598 -6.23934 0
8.92393 -0.776121 -6.63767 0
8.02499 -1.28508 -5.45281 0
8.27629 -1.09916 -5.80351 0
9.05511 0.592112 -6.01966 0
9.80969 2.36232 -5.97055 0
10.2191 2.50137 -6.49603 0
11.2887 3.04745 -7.23498 0
12.1365 4.54338 -7.7458 0
9.91509 1.17187 -6.88131 0
10.7852 2.8175 -6.86732 0
11.8926 3.81976 -6.8186 0
12.7487 5.11106 -7.52055 0
12.8053 5.37856 -8.03166 0
12.7072 4.29046 -6.57189 0
12.8477 4.65414 -7.00785 0
13.5111 5.33471 -7.28668 0
14.6466 5.19696 -6.9724 0
14.6454 5.49492 -7.37796 0
14.7879 4.7853 -8.72326 0
15.9758 5.50996 -7.88629 0
12.3778 3.82247 -8.5616 0
13.6111 4.45608 -8.72347 0
11.4829 2.31872 -7.79355 0
11.9651 3.86912 -8.36925 0
12.5917 4.72723 -8.63965 0
14.754 5.26403 -8.50249 0
15.5552 5.46863 -7.86241 0
14.1837 4.92496 -8.8294 0
13.5726 5.06596 -8.93126 0
13.1878 5.21811 -8.49918 0
15.1517 5.4182 -7.81669 0
16.5782 5.87549 -7.55991 0
13.8836 5.49423 -8.04046 0
14.7931 5.55733 -7.49681 0
16.0464 5.5132 -7.27943 0
17.8957 6.22197 -7.55672 0
18.2094 6.52633 -7.66524 0
17.4816 5.66677 -7.30795 0
17.666 5.84546 -7.46136 0
19.1721 6.24453 -7.47696 0
20.3676 6.09873 -7.20307 0
20.517 6.49004 -7.45534 0
21.7924 6.90731 -7.63775 0
22.9618 6.79243 -7.61455 0
5.1665 -14.0379 3.48524 0
5.62606 -14.5562 2.62958 0
5.42945 -12.8938 4.81095 0
5.14231 -13.4948 4.21679 0
4.84552 -13.1297 3.66353 0
4.82722 -12.1739 3.55187 0
4.70491 -12.7971 2.93559 0
6.91713 -11.5029 5.58077 0
6.18351 -12.1262 5.30449 0
8.68405 -11.0967 4.60467 0
7.77397 -11.2149 5.17982 0
7.30163 -10.9533 4.57322 0
7.6413 -10.1861 3.63623 0
6.73734 -10.6781 4.01027 0
5.33219 -11.6703 3.93077 0
5.06518 -11.095 3.34748 0
5.66085 -12.0642 4.55499 0
5.8773 -11.2021 4.27476 0
6.33462 -10.1129 3.53274 0
5.48096 -9.78874 3.13517 0
4.88287 -10.5328 2.72219 0
6.79898 -9.03308 2.79711 0
6.1305 -9.36436 3.06675 0
5.92489 -8.69027 2.62666 0
6.49956 -7.65316 1.88548 0
5.78326 -8.09273 2.14225 0
10.7583 -11.2662 2.81077 0
9.75996 -11.063 3.82237 0
12.3121 -12.0437 0.331293 0
11.576 -11.6732 1.63528 0
10.916 -10.9938 1.36167 0
11.0628 -10.9025 -0.307997 0
10.0686 -10.7031 0.747711 0
13.6399 -11.8324 -2.06137 0
13.0651 -12.3375 -1.03768 0
14.3718 -10.3587 -2.78863 0
13.6642 -10.7823 -3.49412 0
13.1807 -11.0404 -3.87006 0
11.8408 -11.4053 -1.61874 0
11.2888 -10.846 -1.98474 0
12.3996 -11.8649 -1.27064 0
12.4109 -11.396 -2.77649 0
10.9311 -10.1886 -2.2165 0
7.42447 -7.55882 1.30772 0
7.57405 -6.90134 0.76591 0
7.71539 -9.24191 2.03527 0
7.4646 -8.41203 1.68154 0
8.50309 -7.82184 0.397838 0
9.26371 -8.15376 -0.598052 0
9.39266 -7.32447 -0.915408 0
8.1883 -10.5267 2.56241 0
7.7994 -9.97572 2.22181 0
9.0538 -10.7532 3.21386 0
8.95012 -10.7145 1.59417 0
9.3895 -10.3238 0.186177 0
9.2522 -8.96229 -0.220829 0
10.0106 -8.45713 -1.52423 0
8.54387 -9.44414 1.06998 0
9.29767 -9.63152 -0.0290597 0
10.0625 -9.84999 -1.11194 0
10.801 -8.76747 -2.62195 0
10.9087 -8.00502 -2.8514 0
10.82 -9.50883 -2.43174 0
8.69407 -6.28782 -0.411643 0
7.72676 -6.20781 0.281374 0
10.4028 -6.84272 -2.05253 0
9.55748 -6.53925 -1.23018 0
9.73059 -5.81702 -1.60722 0
10.7084 -5.69595 -3.20096 0
9.87175 -5.2465 -2.18395 0
11.1758 -7.32101 -3.10774 0
13.792 -7.3125 -5.695 0
11.6083 -6.21879 -4.06839 0
12.1362 -5.83888 -4.22279 0
11.4555 -6.76785 -3.46142 0
12.8059 -6.90272 -4.65041 0
14.3276 -6.98587 -5.81497 0
13.9231 -6.22618 -4.87172 0
12.5455 -5.57556 -4.3586 0
16.1083 -7.05033 -6.38269 0
15.0065 -6.63507 -5.67618 0
15.6935 -6.23199 -5.51943 0
17.4559 -6.36834 -6.11602 0
16.3068 -5.75704 -5.56042 0
18.5747 -7.02306 -6.24564 0
19.1779 -6.70008 -6.1841 0
17.3677 -7.53509 -6.35145 0
17.9915 -7.2538 -6.26231 0
19.7061 -7.60886 -6.13915 0
21.206 -8.16737 -5.35647 0
20.7224 -7.27704 -5.70669 0
19.7314 -6.4645 -5.92522 0
22.4357 -8.70985 -4.46943 0
21.6339 -8.07703 -5.14368 0
22.1228 -7.94205 -4.84046 0
23.4337 -8.57875 -4.26603 0
22.6498 -7.87862 -4.61679 0
23.1822 -9.22795 -3.92138 0
23.8012 -7.36898 0.911042 0
23.8512 -7.90941 -1.35186 0
24.1117 -7.83432 -1.66759 0
23.9752 -7.30458 0.16435 0
24.3673 -7.68462 -1.74837 0
24.1101 -9.01624 -3.99237 0
24.4649 -8.68655 -3.88497 0
23.6357 -9.10338 -4.00281 0
24.384 -8.65424 -3.14377 0
24.5874 -7.54183 -1.74417 0
24.9097 -7.9437 -3.01548 0
24.7458 -8.19527 -3.79705 0
24.286 -6.98592 -0.109716 0
24.8138 -7.34358 -1.69916 0
24.9358 -7.05718 -1.57523 0
24.4925 -6.47465 -0.136698 0
25.0608 -6.76727 -1.44785 0
22.1304 -7.12903 5.64151 0
21.9601 -6.85813 5.09879 0
21.0083 -6.25022 5.65217 0
21.9508 -6.61353 4.70825 0
18.3915 -5.94523 8.78363 0
18.1436 -5.42262 8.26844 0
20.0769 -5.9843 6.4877 0
19.9462 -5.50423 6.08214 0
20.2818 -6.34739 6.98074 0
19.1185 -5.65426 7.37283 0
17.9917 -4.76777 7.85341 0
18.8241 -4.69617 6.53678 0
19.8905 -5.01944 5.70211 0
17.813 -4.2798 7.42802 0
17.4827 -4.00092 6.98096 0
17.1437 -3.69077 6.5507 0
23.7339 -6.20563 1.08242 0
23.7911 -5.90821 1.03694 0
23.6277 -6.59039 1.4256 0
23.7158 -6.39392 1.26507 0
22.7311 -5.74123 2.3053 0
21.6236 -5.25805 3.26757 0
21.5109 -5.12893 3.01078 0
23.4999 -7.03771 2.01357 0
23.599 -6.86923 1.69794 0
23.3307 -7.12895 2.34583 0
22.8398 -6.97392 3.66193 0
21.9739 -6.14301 4.32252 0
21.8401 -5.4108 3.61813 0
20.561 -4.76279 4.10414 0
22.7784 -6.21737 2.85446 0
21.942 -5.74232 3.96973 0
21.0113 -5.26114 4.92317 0
19.3599 -4.42199 4.89578 0
19.0696 -4.18172 4.48594 0
19.6606 -4.67202 5.30985 0
18.1824 -4.12327 5.68519 0
16.7663 -3.43984 6.11608 0
22.6777 -5.29457 1.97423 0
23.8413 -5.60171 1.00177 0
20.0116 -4.53765 3.38208 0
21.2993 -5.03502 2.7116 0
21.1446 -4.85739 2.47073 0
19.5035 -4.26734 2.76752 0
20.9888 -4.66707 2.24008 0
17.5712 -3.42609 4.87896 0
18.7547 -3.91229 4.10505 0
16.4169 -3.14635 5.6987 0
16.099 -2.81388 5.29798 0
15.791 -2.58196 4.93369 0
18.1284 -3.69806 3.36359 0
17.9575 -3.39965 3.08557 0
18.4187 -3.8545 3.70895 0
16.9862 -2.92619 4.13663 0
15.5141 -2.36644 4.57728 0
16.4391 -2.56601 3.54733 0
17.7487 -3.14666 2.81912 0
15.1176 -2.30342 4.2979 0
14.7738 -2.21781 4.0665 0
14.4689 -2.02139 3.87977 0
26.5018 7.5505 -7.70044 0
22.8746 6.21983 -7.49613 0
24.1102 6.69107 -7.36336 0
25.268 6.52657 -7.28329 0
25.2121 5.87057 -7.32513 0
26.3585 6.26921 -7.50309 0
20.2311 5.68619 -6.91577 0
21.5804 5.91457 -7.14939 0
17.3082 5.15731 -7.14853 0
18.8419 5.40217 -7.19679 0
20.097 5.19805 -6.7597 0
20.0538 4.60697 -6.79001 0
21.4755 4.91611 -6.70331 0
24.0221 5.48389 -7.26733 0
25.1644 5.26809 -7.21373 0
22.816 5.69974 -7.26244 0
22.818 5.18189 -6.9976 0
22.8151 4.63534 -6.83547 0
25.1251 4.67902 -7.00718 0
26.1928 4.99223 -7.14699 0
22.7878 4.10447 -6.53223 0
24.0112 4.39242 -6.76072 0
25.1144 4.11815 -6.74989 0
25.1035 3.52259 -6.4477 0
26.1233 3.80184 -6.68446 0
14.6939 4.84897 -6.57588 0
15.8336 5.09116 -6.81653 0
12.5219 3.95839 -6.14764 0
13.5681 4.61262 -6.30593 0
14.6931 4.52654 -6.14566 0
14.7551 4.14331 -5.72653 0
15.9597 4.34683 -6.08391 0
9.45551 2.31404 -5.42791 0
11.2251 3.21755 -5.95679 0
7.86678 -1.50434 -5.1923 0
8.56291 0.165553 -5.26321 0
9.51831 1.82374 -5.09777 0
9.65867 1.36899 -4.77676 0
11.0048 2.58498 -4.98142 0
13.5411 3.95316 -5.41038 0
14.9489 3.67995 -5.40846 0
12.421 3.66655 -5.67202 0
12.3537 3.40063 -5.20734 0
12.5451 2.90559 -4.89782 0
15.209 3.21209 -5.10367 0
16.3916 3.36285 -5.45321 0
12.8648 2.36882 -4.64501 0
13.9903 2.99224 -4.82638 0
15.5622 2.64852 -4.88048 0
16.0199 1.96813 -4.91909 0
17.1333 2.25103 -4.97704 0
24.0603 3.27272 -6.179 0
25.1388 2.92937 -6.21547 0
21.4608 3.79199 -6.43973 0
22.8183 3.58099 -6.24592 0
22.8934 2.99502 -6.11777 0
21.7333 2.74121 -5.97688 0
23.0543 2.42112 -5.90338 0
18.6407 4.43715 -6.80599 0
20.0315 4.14547 -6.5374 0
17.2425 4.76389 -6.84846 0
17.2465 4.44085 -6.39434 0
17.3446 4.01291 -5.99703 0
20.2651 3.20619 -5.96793 0
20.5421 2.68916 -5.65214 0
20.093 3.69151 -6.25484 0
18.795 3.66885 -5.92884 0
17.562 3.52811 -5.6729 0
19.4087 2.63243 -5.40741 0
20.9093 2.12324 -5.45429 0
17.8774 3.02313 -5.39418 0
18.275 2.45771 -5.19366 0
18.7356 1.80056 -5.15933 0
25.2199 2.34348 -6.09499 0
26.17 2.60431 -6.22672 0
23.3185 1.85531 -5.59433 0
24.314 2.06816 -5.84968 0
25.3814 1.75499 -5.88978 0
25.6029 1.16546 -5.69993 0
26.3697 1.44037 -6.01978 0
21.3279 1.51959 -5.30832 0
22.3589 1.6467 -5.38128 0
19.2527 1.10508 -5.1038 0
20.3063 1.37879 -5.18908 0
21.7618 0.912811 -5.02872 0
22.2722 0.292559 -4.63784 0
23.1408 0.464457 -4.85569 0
24.8281 0.900771 -5.32382 0
25.7933 0.584125 -5.66213 0
23.6346 1.26902 -5.32822 0
23.9731 0.693187 -5.09457 0
24.2704 0.122908 -4.9085 0
26.0006 0.029353 -5.48201 0
26.7056 0.267597 -6.00268 0
24.5904 -0.499233 -4.66542 0
25.3127 -0.231308 -5.02765 0
25.9074 -0.549888 -5.41379 0
26.0334 -1.28473 -5.57463 0
26.4257 -0.836872 -5.76014 0
6.88091 -4.55451 -4.57628 0
7.31196 -3.06848 -4.87099 0
6.10865 -7.02575 -3.83301 0
6.1995 -5.73979 -4.27354 0
6.64576 -4.50197 -4.03598 0
6.55892 -4.29293 -3.46868 0
7.21751 -3.14478 -3.84678 0
5.95797 -9.1443 -2.7618 0
6.05697 -8.06841 -3.22349 0
5.67336 -11.1615 -1.76282 0
5.74116 -10.2976 -2.40174 0
5.66577 -8.86424 -2.22597 0
5.4023 -8.54773 -1.83302 0
5.69404 -7.26028 -2.12269 0
6.1069 -5.26451 -2.9856 0
6.60055 -3.89511 -2.80225 0
5.90417 -6.66117 -3.14319 0
5.94968 -6.19639 -2.4607 0
5.91746 -5.61714 -1.91011 0
6.52887 -3.42627 -2.36559 0
7.27742 -2.45521 -2.69812 0
6.08754 -4.98654 -1.3863 0
6.25886 -4.23516 -1.86643 0
6.88714 -2.91618 -2.05107 0
7.62531 -2.37969 -1.83911 0
8.37542 -1.82853 -2.38723 0
5.01774 -12.5367 -0.690106 0
5.15221 -11.8787 -1.2622 0
5.41331 -13.115 0.541037 0
5.2228 -12.9115 -0.047526 0
4.468 -12.1094 -0.349007 0
4.03953 -11.8749 -0.121186 0
4.08942 -11.2288 -0.552548 0
5.45675 -13.8546 1.60214 0
5.45086 -13.4827 1.07649 0
5.4998 -14.2222 2.08024 0
5.06003 -13.3802 2.20285 0
4.72086 -12.4667 2.1667 0
4.35125 -12.1083 0.61415 0
4.0403 -11.18 0.386914 0
4.96682 -12.729 0.960821 0
4.70543 -12.2098 1.42632 0
4.65084 -11.3897 2.10527 0
4.6831 -9.75816 1.38216 0
4.74717 -9.50694 0.63739 0
4.69845 -10.0377 2.07359 0
5.15933 -8.70799 1.96898 0
5.86848 -7.4977 1.5895 0
7.11565 -3.00416 -1.2579 0
8.64133 -2.2697 -2.03103 0
5.79611 -5.97801 -1.06103 0
6.50234 -4.39494 -0.991396 0
7.16623 -3.73658 -0.58191 0
7.18168 -4.48864 0.0661512 0
7.85405 -3.42333 -0.895486 0
4.94043 -9.60423 -1.44703 0
5.15483 -7.88368 -1.36729 0
4.96281 -10.8532 -1.39657 0
4.35294 -10.4695 -0.972596 0
4.11916 -9.92278 -0.521119 0
6.07711 -6.28074 -0.214615 0
6.72939 -5.42246 0.299567 0
5.45138 -7.09108 -0.768033 0
5.04073 -8.13302 -0.361851 0
4.85742 -8.91806 0.119594 0
6.31467 -6.34514 0.486379 0
7.64331 -4.86974 0.218895 0
5.48234 -7.95049 0.567086 0
6.05913 -6.96063 1.00257 0
6.85899 -6.47324 0.718376 0
9.68699 -2.22073 -2.3673 0
10.4382 -1.76099 -2.85324 0
8.54336 -3.22365 -1.36657 0
8.91935 -2.70531 -1.91866 0
10.4655 -2.77784 -3.18569 0
11.3264 -3.41389 -3.7922 0
11.9999 -3.08048 -4.02713 0
8.49635 -4.50263 -0.0751228 0
8.58381 -3.84587 -0.685441 0
8.07327 -5.36371 0.0955591 0
9.13154 -4.81427 -1.09548 0
9.99718 -4.64963 -2.69638 0
10.7881 -3.8236 -3.42508 0
12.3288 -4.29224 -4.10174 0
9.32319 -3.62314 -2.27389 0
10.2872 -4.25048 -2.96781 0
11.3056 -4.94319 -3.78057 0
13.6418 -4.83525 -4.4688 0
14.2401 -4.5485 -4.5295 0
13.0167 -5.2486 -4.46274 0
15.1389 -5.24687 -4.91958 0
16.95 -5.40543 -5.45928 0
25.628 -1.71712 -5.37748 0
26.1228 -1.83546 -5.49927 0
23.8858 -0.771125 -4.29808 0
24.7682 -1.24817 -4.86111 0
25.1424 -1.92819 -4.85063 0
24.6577 -2.13504 -4.31864 0
25.4513 -2.48297 -4.79973 0
21.389 0.107555 -4.43948 0
22.7009 -0.331643 -4.30454 0
18.1817 0.816804 -5.0129 0
19.8134 0.463538 -4.74004 0
20.379 -0.220236 -4.50141 0
19.3508 -0.549179 -4.53807 0
20.9581 -0.938471 -4.35775 0
23.6538 -1.74309 -4.14977 0
24.0814 -2.46852 -4.25213 0
23.1937 -1.04938 -4.20641 0
22.4456 -1.33427 -4.20353 0
21.5943 -1.68569 -4.23115 0
23.4047 -2.80858 -4.28343 0
24.5057 -3.2049 -4.72157 0
20.692 -2.05214 -4.27166 0
22.141 -2.41472 -4.14989 0
22.7475 -3.16378 -4.09554 0
22.0687 -3.52404 -3.95545 0
23.3135 -3.96245 -4.23252 0
14.8589 1.66921 -4.80666 0
16.5516 1.25828 -4.94133 0
11.5176 1.6511 -4.4046 0
13.2588 1.76407 -4.59565 0
13.6489 1.28812 -4.52917 0
12.4001 0.90949 -4.21967 0
14.2908 0.664213 -4.44657 0
8.66335 -0.308345 -4.59228 0
9.84153 1.09356 -4.45203 0
7.86654 -1.70858 -4.71473 0
7.90093 -1.84009 -4.33522 0
7.92899 -1.63721 -3.78335 0
10.5543 0.662036 -3.93595 0
11.095 0.56661 -3.74598 0
10.097 0.860401 -4.12305 0
9.05478 -0.257574 -3.66235 0
8.11685 -1.31488 -3.06668 0
10.0058 -0.080377 -3.24793 0
11.822 0.0084287 -3.82074 0
8.54272 -1.11188 -2.77327 0
9.1797 -1.01429 -2.82051 0
9.97583 -1.27452 -3.23116 0
20.6326 -3.13181 -3.92128 0
21.4053 -3.85922 -3.74396 0
19.0672 -1.64673 -4.42934 0
19.8109 -2.40407 -4.23762 0
18.8466 -2.74037 -4.25387 0
17.0673 -2.27586 -4.43062 0
17.9288 -3.08213 -4.25816 0
17.7192 -0.099881 -4.67727 0
18.3469 -0.871087 -4.55424 0
17.124 0.598175 -4.87702 0
16.0584 0.375324 -4.71823 0
14.9113 0.0527881 -4.45988 0
16.2966 -1.44876 -4.49965 0
15.252 -1.68991 -4.43625 0
17.34 -1.18424 -4.54327 0
15.5867 -0.727656 -4.39625 0
13.7586 -0.276631 -4.25406 0
13.3995 -1.27325 -4.24871 0
14.3129 -2.00841 -4.38388 0
12.5978 -0.598114 -4.19155 0
11.4867 -0.915978 -4.19086 0
10.9441 -1.34756 -3.5152 0
20.6182 -4.19474 -3.71504 0
22.1102 -4.60769 -3.75255 0
16.9725 -3.38698 -4.19686 0
18.9013 -3.82288 -3.95263 0
19.8307 -4.541 -3.76808 0
19.2354 -4.79945 -4.07276 0
20.8862 -5.22777 -3.95516 0
13.48 -2.36488 -4.3913 0
15.1046 -2.86573 -4.27173 0
11.8777 -2.04436 -3.94385 0
12.7252 -2.73708 -4.37315 0
13.6542 -3.62822 -4.34099 0
17.4417 -4.23361 -4.1539 0
18.6342 -4.93585 -4.27473 0
16.1237 -3.63121 -4.18808 0
15.452 -3.92256 -4.26057 0
14.8114 -4.28953 -4.29933 0
18.0548 -4.97433 -4.76092 0
19.7846 -5.64366 -4.76517 0
16.249 -4.66608 -4.54756 0
17.5071 -5.13164 -5.18937 0
18.7188 -5.65703 -5.98023 0
26.3881 -2.37655 -5.41439 0
26.5843 -1.94218 -5.59992 0
25.785 -3.15773 -5.09952 0
26.1931 -2.80278 -5.22574 0
26.2336 -2.59857 -4.72183 0
26.3224 -2.92828 -4.34066 0
26.2761 -2.34223 -4.15377 0
24.9462 -3.8778 -4.8656 0
25.3621 -3.49637 -4.99492 0
23.8775 -4.66726 -4.29069 0
24.3886 -4.24321 -4.54095 0
25.3277 -4.39919 -4.65252 0
25.4954 -4.76474 -4.18051 0
25.8712 -4.37139 -4.33858 0
26.4198 -3.51732 -4.54164 0
26.0689 -3.04371 -3.3301 0
26.0433 -3.58695 -4.87666 0
26.2865 -4.00327 -4.55566 0
26.1398 -4.14801 -3.68583 0
25.8451 -3.09228 -2.08714 0
25.982 -2.60569 -1.82482 0
25.9209 -4.20498 -2.62864 0
25.8743 -3.64719 -2.39923 0
25.8195 -3.23551 -1.02596 0
25.0584 -3.25575 -0.179859 0
25.1024 -2.7694 0.13739 0
22.8309 -5.42597 -3.92605 0
23.3918 -5.11694 -4.16267 0
21.778 -5.82609 -4.0017 0
22.3122 -5.55719 -3.74404 0
23.6013 -6.13136 -4.21685 0
24.3814 -6.73196 -3.96578 0
24.6426 -6.37211 -4.07062 0
20.7697 -6.28412 -4.95447 0
21.2647 -6.08551 -4.42091 0
20.2538 -6.288 -5.54987 0
21.7392 -6.92923 -5.02704 0
23.1483 -7.75299 -4.324 0
23.956 -6.97094 -3.88909 0
25.0612 -7.22096 -3.76962 0
22.6613 -6.44502 -4.0513 0
23.5718 -7.43189 -4.0143 0
24.2825 -8.05152 -3.99401 0
25.255 -7.20656 -3.41413 0
25.3038 -6.63785 -3.05677 0
25.0881 -7.73382 -3.69867 0
25.26 -7.10532 -2.70883 0
25.169 -6.37247 -1.25771 0
25.1729 -3.75382 -0.446756 0
24.2967 -3.30624 0.483568 0
26.0523 -4.71639 -2.68004 0
25.8982 -4.25928 -1.52905 0
25.3117 -4.25597 -0.650206 0
25.355 -4.71188 -0.767504 0
24.5489 -4.23282 0.091467 0
25.1864 -5.25615 -4.20449 0
25.5821 -5.04063 -3.65277 0
24.5089 -5.40924 -4.42067 0
24.7595 -5.77189 -4.1022 0
25.2208 -6.08405 -3.72345 0
25.9336 -5.22491 -1.77638 0
25.3591 -5.10789 -0.862943 0
25.8049 -5.17028 -2.70883 0
25.5758 -5.61421 -2.84232 0
