#!ascii - generated by CreateLabelFiles project 
6611 12737
4228 4227 1068 0
4223 1067 4227 0
4223 4227 4228 0
274 4223 4228 0
4230 4225 275 0
4229 1068 4225 0
4229 4225 4230 0
1070 4229 4230 0
4232 4228 1068 0
4231 274 4228 0
4231 4228 4232 0
1069 4231 4232 0
4233 4229 1070 0
4232 1068 4229 0
4232 4229 4233 0
1069 4232 4233 0
4235 4233 1070 0
4234 1069 4233 0
4234 4233 4235 0
71 4234 4235 0
4237 3898 65 0
4236 984 3898 0
4236 3898 4237 0
1072 4236 4237 0
4239 3903 984 0
4238 254 3903 0
4238 3903 4239 0
1071 4238 4239 0
4240 4236 1072 0
4239 984 4236 0
4239 4236 4240 0
1071 4239 4240 0
4242 4240 1072 0
4241 1071 4240 0
4241 4240 4242 0
276 4241 4242 0
4244 3917 254 0
4243 989 3917 0
4243 3917 4244 0
1073 4243 4244 0
4245 6423 989 0
6474 6423 4245 0
6475 6474 4245 0
4246 4243 1073 0
4245 989 4243 0
4245 4243 4246 0
6475 4245 4246 0
4247 4246 1073 0
6476 6475 4246 0
6476 4246 4247 0
6477 6476 4247 0
4249 4241 276 0
4248 1071 4241 0
4248 4241 4249 0
1074 4248 4249 0
4250 4238 1071 0
4244 254 4238 0
4244 4238 4250 0
1073 4244 4250 0
4251 4248 1074 0
4250 1071 4248 0
4250 4248 4251 0
1073 4250 4251 0
6478 4251 1074 0
4247 1073 4251 0
4247 4251 6478 0
6477 4247 6478 0
4252 4249 276 0
6479 1074 4249 0
6479 4249 4252 0
1075 6479 4252 0
6480 6478 1074 0
6481 6479 1075 0
6480 1074 6479 0
6482 6481 1075 0
4254 4234 71 0
4253 1069 4234 0
4253 4234 4254 0
1077 4253 4254 0
4256 4231 1069 0
4255 274 4231 0
4255 4231 4256 0
1076 4255 4256 0
4257 4253 1077 0
4256 1069 4253 0
4256 4253 4257 0
1076 4256 4257 0
4259 4257 1077 0
4258 1076 4257 0
4258 4257 4259 0
277 4258 4259 0
4261 4222 274 0
4260 1066 4222 0
4260 4222 4261 0
1078 4260 4261 0
4262 4219 1066 0
4237 65 4219 0
4237 4219 4262 0
1072 4237 4262 0
4263 4260 1078 0
4262 1066 4260 0
4262 4260 4263 0
1072 4262 4263 0
4264 4263 1078 0
4242 1072 4263 0
4242 4263 4264 0
276 4242 4264 0
4266 4258 277 0
4265 1076 4258 0
4265 4258 4266 0
1079 4265 4266 0
4267 4255 1076 0
4261 274 4255 0
4261 4255 4267 0
1078 4261 4267 0
4268 4265 1079 0
4267 1076 4265 0
4267 4265 4268 0
1078 4267 4268 0
4269 4268 1079 0
4264 1078 4268 0
4264 4268 4269 0
276 4264 4269 0
4271 4266 277 0
4270 1079 4266 0
4270 4266 4271 0
6483 4270 4271 0
4272 4269 1079 0
4252 276 4269 0
4252 4269 4272 0
1075 4252 4272 0
6484 4270 6483 0
4272 1079 4270 0
4272 4270 6484 0
1075 4272 6484 0
6482 1075 6484 0
4274 4254 71 0
4273 1077 4254 0
4273 4254 4274 0
1081 4273 4274 0
4276 4259 1077 0
4275 277 4259 0
4275 4259 4276 0
1080 4275 4276 0
4277 4273 1081 0
4276 1077 4273 0
4276 4273 4277 0
1080 4276 4277 0
4279 4277 1081 0
4278 1080 4277 0
4278 4277 4279 0
279 4278 4279 0
4280 4271 277 0
6485 6483 4271 0
6485 4271 4280 0
1082 6485 4280 0
6486 6485 1082 0
4281 6486 1082 0
6487 6486 4281 0
278 6487 4281 0
4283 4278 279 0
4282 1080 4278 0
4282 4278 4283 0
1083 4282 4283 0
4284 4275 1080 0
4280 277 4275 0
4280 4275 4284 0
1082 4280 4284 0
4285 4282 1083 0
4284 1080 4282 0
4284 4282 4285 0
1082 4284 4285 0
4286 4285 1083 0
4281 1082 4285 0
4281 4285 4286 0
278 4281 4286 0
4288 4283 279 0
4287 1083 4283 0
4287 4283 4288 0
1085 4287 4288 0
4290 4286 1083 0
4289 278 4286 0
4289 4286 4290 0
1084 4289 4290 0
4291 4287 1085 0
4290 1083 4287 0
4290 4287 4291 0
1084 4290 4291 0
4293 4291 1085 0
4292 1084 4291 0
4292 4291 4293 0
19 4292 4293 0
4295 4292 19 0
4294 1084 4292 0
4294 4292 4295 0
1086 4294 4295 0
4297 4289 1084 0
4296 278 4289 0
4296 4289 4297 0
6488 4296 4297 0
4298 4294 1086 0
4297 1084 4294 0
4297 4294 4298 0
6488 4297 4298 0
4299 4298 1086 0
6489 6488 4298 0
6489 4298 4299 0
6490 6489 4299 0
6491 6487 278 0
6492 4296 6488 0
6491 278 4296 0
6491 4296 6492 0
4301 4295 19 0
4300 1086 4295 0
4300 4295 4301 0
1088 4300 4301 0
4303 4299 1086 0
4302 6490 4299 0
4302 4299 4303 0
1087 4302 4303 0
4304 4300 1088 0
4303 1086 4300 0
4303 4300 4304 0
1087 4303 4304 0
4306 4304 1088 0
4305 1087 4304 0
4305 4304 4306 0
281 4305 4306 0
4307 6493 6490 0
6494 6493 4307 0
1090 6494 4307 0
4309 6495 6496 0
4308 6497 6495 0
4308 6495 4309 0
1089 4308 4309 0
4310 6494 1090 0
4309 6496 6494 0
4309 6494 4310 0
1089 4309 4310 0
4312 4310 1090 0
4311 1089 4310 0
4311 4310 4312 0
280 4311 4312 0
4314 4305 281 0
4313 1087 4305 0
4313 4305 4314 0
1091 4313 4314 0
4315 4302 1087 0
4307 6490 4302 0
4307 4302 4315 0
1090 4307 4315 0
4316 4313 1091 0
4315 1087 4313 0
4315 4313 4316 0
1090 4315 4316 0
4317 4316 1091 0
4312 1090 4316 0
4312 4316 4317 0
280 4312 4317 0
4319 4314 281 0
4318 1091 4314 0
4318 4314 4319 0
1093 4318 4319 0
4321 4317 1091 0
4320 280 4317 0
4320 4317 4321 0
1092 4320 4321 0
4322 4318 1093 0
4321 1091 4318 0
4321 4318 4322 0
1092 4321 4322 0
4324 4322 1093 0
4323 1092 4322 0
4323 4322 4324 0
72 4323 4324 0
1095 6498 6499 0
4325 6500 6501 0
6502 6500 4325 0
1094 6502 4325 0
4326 6498 1095 0
4325 6501 6498 0
4325 6498 4326 0
1094 4325 4326 0
4328 4326 1095 0
4327 1094 4326 0
4327 4326 4328 0
282 4327 4328 0
1096 6503 6504 0
944 6368 6505 0
4329 6503 1096 0
6505 6503 4329 0
944 6505 4329 0
4330 4329 1096 0
3744 944 4329 0
3744 4329 4330 0
240 3744 4330 0
4332 4327 282 0
4331 1094 4327 0
4331 4327 4332 0
1097 4331 4332 0
4333 6502 1094 0
6504 6502 4333 0
1096 6504 4333 0
4334 4331 1097 0
4333 1094 4331 0
4333 4331 4334 0
1096 4333 4334 0
4335 4334 1097 0
4330 1096 4334 0
4330 4334 4335 0
240 4330 4335 0
4337 4332 282 0
4336 1097 4332 0
4336 4332 4337 0
1098 4336 4337 0
4338 4335 1097 0
3735 240 4335 0
3735 4335 4338 0
941 3735 4338 0
4339 4336 1098 0
4338 1097 4336 0
4338 4336 4339 0
941 4338 4339 0
4340 4339 1098 0
3732 941 4339 0
3732 4339 4340 0
59 3732 4340 0
4342 4323 72 0
4341 1092 4323 0
4341 4323 4342 0
1100 4341 4342 0
4344 4320 1092 0
4343 280 4320 0
4343 4320 4344 0
1099 4343 4344 0
4345 4341 1100 0
4344 1092 4341 0
4344 4341 4345 0
1099 4344 4345 0
4347 4345 1100 0
4346 1099 4345 0
4346 4345 4347 0
283 4346 4347 0
4349 4311 280 0
4348 1089 4311 0
4348 4311 4349 0
1101 4348 4349 0
4350 4308 1089 0
6499 6497 4308 0
6499 4308 4350 0
1095 6499 4350 0
4351 4348 1101 0
4350 1089 4348 0
4350 4348 4351 0
1095 4350 4351 0
4352 4351 1101 0
4328 1095 4351 0
4328 4351 4352 0
282 4328 4352 0
4354 4346 283 0
4353 1099 4346 0
4353 4346 4354 0
1102 4353 4354 0
4355 4343 1099 0
4349 280 4343 0
4349 4343 4355 0
1101 4349 4355 0
4356 4353 1102 0
4355 1099 4353 0
4355 4353 4356 0
1101 4355 4356 0
4357 4356 1102 0
4352 1101 4356 0
4352 4356 4357 0
282 4352 4357 0
4359 4354 283 0
4358 1102 4354 0
4358 4354 4359 0
1103 4358 4359 0
4360 4357 1102 0
4337 282 4357 0
4337 4357 4360 0
1098 4337 4360 0
4361 4358 1103 0
4360 1102 4358 0
4360 4358 4361 0
1098 4360 4361 0
4362 4361 1103 0
4340 1098 4361 0
4340 4361 4362 0
59 4340 4362 0
4364 4342 72 0
4363 1100 4342 0
4363 4342 4364 0
1105 4363 4364 0
4366 4347 1100 0
4365 283 4347 0
4365 4347 4366 0
1104 4365 4366 0
4367 4363 1105 0
4366 1100 4363 0
4366 4363 4367 0
1104 4366 4367 0
4369 4367 1105 0
4368 1104 4367 0
4368 4367 4369 0
284 4368 4369 0
4371 4359 283 0
4370 1103 4359 0
4370 4359 4371 0
1106 4370 4371 0
4372 4362 1103 0
3699 59 4362 0
3699 4362 4372 0
932 3699 4372 0
4373 4370 1106 0
4372 1103 4370 0
4372 4370 4373 0
932 4372 4373 0
4374 4373 1106 0
3696 932 4373 0
3696 4373 4374 0
237 3696 4374 0
4376 4368 284 0
4375 1104 4368 0
4375 4368 4376 0
1107 4375 4376 0
4377 4365 1104 0
4371 283 4365 0
4371 4365 4377 0
1106 4371 4377 0
4378 4375 1107 0
4377 1104 4375 0
4377 4375 4378 0
1106 4377 4378 0
4379 4378 1107 0
4374 1106 4378 0
4374 4378 4379 0
237 4374 4379 0
4381 4376 284 0
4380 1107 4376 0
4380 4376 4381 0
1108 4380 4381 0
4382 4379 1107 0
3687 237 4379 0
3687 4379 4382 0
929 3687 4382 0
4383 4380 1108 0
4382 1107 4380 0
4382 4380 4383 0
929 4382 4383 0
4384 4383 1108 0
3684 929 4383 0
3684 4383 4384 0
4 3684 4384 0
4385 6506 6507 0
6508 6506 4385 0
1110 6508 4385 0
4387 4209 6473 0
4386 273 4209 0
4386 4209 4387 0
1109 4386 4387 0
4388 6508 1110 0
4387 6473 6508 0
4387 6508 4388 0
1109 4387 4388 0
4390 4388 1110 0
4389 1109 4388 0
4389 4388 4390 0
286 4389 4390 0
4392 4206 273 0
4391 1062 4206 0
4391 4206 4392 0
1112 4391 4392 0
4394 4203 1062 0
4393 70 4203 0
4393 4203 4394 0
1111 4393 4394 0
4395 4391 1112 0
4394 1062 4391 0
4394 4391 4395 0
1111 4394 4395 0
4397 4395 1112 0
4396 1111 4395 0
4396 4395 4397 0
285 4396 4397 0
4399 4389 286 0
4398 1109 4389 0
4398 4389 4399 0
1113 4398 4399 0
4400 4386 1109 0
4392 273 4386 0
4392 4386 4400 0
1112 4392 4400 0
4401 4398 1113 0
4400 1109 4398 0
4400 4398 4401 0
1112 4400 4401 0
4402 4401 1113 0
4397 1112 4401 0
4397 4401 4402 0
285 4397 4402 0
4404 4399 286 0
4403 1113 4399 0
4403 4399 4404 0
1115 4403 4404 0
4406 4402 1113 0
4405 285 4402 0
4405 4402 4406 0
1114 4405 4406 0
4407 4403 1115 0
4406 1113 4403 0
4406 4403 4407 0
1114 4406 4407 0
4409 4407 1115 0
4408 1114 4407 0
4408 4407 4409 0
74 4408 4409 0
4411 4182 70 0
4410 1056 4182 0
4410 4182 4411 0
1117 4410 4411 0
4413 4179 1056 0
4412 270 4179 0
4412 4179 4413 0
1116 4412 4413 0
4414 4410 1117 0
4413 1056 4410 0
4413 4410 4414 0
1116 4413 4414 0
4416 4414 1117 0
4415 1116 4414 0
4415 4414 4416 0
288 4415 4416 0
4418 4170 270 0
4417 1053 4170 0
4417 4170 4418 0
1119 4417 4418 0
4420 4167 1053 0
4419 18 4167 0
4419 4167 4420 0
1118 4419 4420 0
4421 4417 1119 0
4420 1053 4417 0
4420 4417 4421 0
1118 4420 4421 0
4423 4421 1119 0
4422 1118 4421 0
4422 4421 4423 0
287 4422 4423 0
4425 4415 288 0
4424 1116 4415 0
4424 4415 4425 0
1120 4424 4425 0
4426 4412 1116 0
4418 270 4412 0
4418 4412 4426 0
1119 4418 4426 0
4427 4424 1120 0
4426 1116 4424 0
4426 4424 4427 0
1119 4426 4427 0
4428 4427 1120 0
4423 1119 4427 0
4423 4427 4428 0
287 4423 4428 0
4430 4425 288 0
4429 1120 4425 0
4429 4425 4430 0
1122 4429 4430 0
4432 4428 1120 0
4431 287 4428 0
4431 4428 4432 0
1121 4431 4432 0
4433 4429 1122 0
4432 1120 4429 0
4432 4429 4433 0
1121 4432 4433 0
4435 4433 1122 0
4434 1121 4433 0
4434 4433 4435 0
73 4434 4435 0
4437 4408 74 0
4436 1114 4408 0
4436 4408 4437 0
1124 4436 4437 0
4439 4405 1114 0
4438 285 4405 0
4438 4405 4439 0
1123 4438 4439 0
4440 4436 1124 0
4439 1114 4436 0
4439 4436 4440 0
1123 4439 4440 0
4442 4440 1124 0
4441 1123 4440 0
4441 4440 4442 0
289 4441 4442 0
4444 4396 285 0
4443 1111 4396 0
4443 4396 4444 0
1125 4443 4444 0
4445 4393 1111 0
4411 70 4393 0
4411 4393 4445 0
1117 4411 4445 0
4446 4443 1125 0
4445 1111 4443 0
4445 4443 4446 0
1117 4445 4446 0
4447 4446 1125 0
4416 1117 4446 0
4416 4446 4447 0
288 4416 4447 0
4449 4441 289 0
4448 1123 4441 0
4448 4441 4449 0
1126 4448 4449 0
4450 4438 1123 0
4444 285 4438 0
4444 4438 4450 0
1125 4444 4450 0
4451 4448 1126 0
4450 1123 4448 0
4450 4448 4451 0
1125 4450 4451 0
4452 4451 1126 0
4447 1125 4451 0
4447 4451 4452 0
288 4447 4452 0
4454 4449 289 0
4453 1126 4449 0
4453 4449 4454 0
1127 4453 4454 0
4455 4452 1126 0
4430 288 4452 0
4430 4452 4455 0
1122 4430 4455 0
4456 4453 1127 0
4455 1126 4453 0
4455 4453 4456 0
1122 4455 4456 0
4457 4456 1127 0
4435 1122 4456 0
4435 4456 4457 0
73 4435 4457 0
4459 4437 74 0
4458 1124 4437 0
4458 4437 4459 0
1129 4458 4459 0
4461 4442 1124 0
4460 289 4442 0
4460 4442 4461 0
1128 4460 4461 0
4462 4458 1129 0
4461 1124 4458 0
4461 4458 4462 0
1128 4461 4462 0
4464 4462 1129 0
4463 1128 4462 0
4463 4462 4464 0
291 4463 4464 0
4466 4454 289 0
4465 1127 4454 0
4465 4454 4466 0
1131 4465 4466 0
4468 4457 1127 0
4467 73 4457 0
4467 4457 4468 0
1130 4467 4468 0
4469 4465 1131 0
4468 1127 4465 0
4468 4465 4469 0
1130 4468 4469 0
4471 4469 1131 0
4470 1130 4469 0
4470 4469 4471 0
290 4470 4471 0
4473 4463 291 0
4472 1128 4463 0
4472 4463 4473 0
1132 4472 4473 0
4474 4460 1128 0
4466 289 4460 0
4466 4460 4474 0
1131 4466 4474 0
4475 4472 1132 0
4474 1128 4472 0
4474 4472 4475 0
1131 4474 4475 0
4476 4475 1132 0
4471 1131 4475 0
4471 4475 4476 0
290 4471 4476 0
4478 4473 291 0
4477 1132 4473 0
4477 4473 4478 0
1134 4477 4478 0
4480 4476 1132 0
4479 290 4476 0
4479 4476 4480 0
1133 4479 4480 0
4481 4477 1134 0
4480 1132 4477 0
4480 4477 4481 0
1133 4480 4481 0
4483 4481 1134 0
4482 1133 4481 0
4482 4481 4483 0
20 4482 4483 0
4485 4049 18 0
4484 1023 4049 0
4484 4049 4485 0
1136 4484 4485 0
4487 4046 1023 0
4486 262 4046 0
4486 4046 4487 0
1135 4486 4487 0
4488 4484 1136 0
4487 1023 4484 0
4487 4484 4488 0
1135 4487 4488 0
4490 4488 1136 0
4489 1135 4488 0
4489 4488 4490 0
293 4489 4490 0
4492 4037 262 0
4491 1020 4037 0
4491 4037 4492 0
1138 4491 4492 0
4494 4034 1020 0
4493 67 4034 0
4493 4034 4494 0
1137 4493 4494 0
4495 4491 1138 0
4494 1020 4491 0
4494 4491 4495 0
1137 4494 4495 0
4497 4495 1138 0
4496 1137 4495 0
4496 4495 4497 0
292 4496 4497 0
4499 4489 293 0
4498 1135 4489 0
4498 4489 4499 0
1139 4498 4499 0
4500 4486 1135 0
4492 262 4486 0
4492 4486 4500 0
1138 4492 4500 0
4501 4498 1139 0
4500 1135 4498 0
4500 4498 4501 0
1138 4500 4501 0
4502 4501 1139 0
4497 1138 4501 0
4497 4501 4502 0
292 4497 4502 0
4504 4499 293 0
4503 1139 4499 0
4503 4499 4504 0
1141 4503 4504 0
4506 4502 1139 0
4505 292 4502 0
4505 4502 4506 0
1140 4505 4506 0
4507 4503 1141 0
4506 1139 4503 0
4506 4503 4507 0
1140 4506 4507 0
4509 4507 1141 0
4508 1140 4507 0
4508 4507 4509 0
75 4508 4509 0
4511 4001 67 0
4510 1011 4001 0
4510 4001 4511 0
1143 4510 4511 0
4513 3998 1011 0
4512 259 3998 0
4512 3998 4513 0
1142 4512 4513 0
4514 4510 1143 0
4513 1011 4510 0
4513 4510 4514 0
1142 4513 4514 0
4516 4514 1143 0
4515 1142 4514 0
4515 4514 4516 0
294 4515 4516 0
4518 3989 259 0
4517 1008 3989 0
4517 3989 4518 0
1144 4517 4518 0
4519 3986 1008 0
4211 5 3986 0
4211 3986 4519 0
1065 4211 4519 0
4520 4517 1144 0
4519 1008 4517 0
4519 4517 4520 0
1065 4519 4520 0
4521 4520 1144 0
4216 1065 4520 0
4216 4520 4521 0
275 4216 4521 0
4523 4515 294 0
4522 1142 4515 0
4522 4515 4523 0
1145 4522 4523 0
4524 4512 1142 0
4518 259 4512 0
4518 4512 4524 0
1144 4518 4524 0
4525 4522 1145 0
4524 1142 4522 0
4524 4522 4525 0
1144 4524 4525 0
4526 4525 1145 0
4521 1144 4525 0
4521 4525 4526 0
275 4521 4526 0
4528 4523 294 0
4527 1145 4523 0
4527 4523 4528 0
1146 4527 4528 0
4529 4526 1145 0
4230 275 4526 0
4230 4526 4529 0
1070 4230 4529 0
4530 4527 1146 0
4529 1145 4527 0
4529 4527 4530 0
1070 4529 4530 0
4531 4530 1146 0
4235 1070 4530 0
4235 4530 4531 0
71 4235 4531 0
4533 4508 75 0
4532 1140 4508 0
4532 4508 4533 0
1148 4532 4533 0
4535 4505 1140 0
4534 292 4505 0
4534 4505 4535 0
1147 4534 4535 0
4536 4532 1148 0
4535 1140 4532 0
4535 4532 4536 0
1147 4535 4536 0
4538 4536 1148 0
4537 1147 4536 0
4537 4536 4538 0
295 4537 4538 0
4540 4496 292 0
4539 1137 4496 0
4539 4496 4540 0
1149 4539 4540 0
4541 4493 1137 0
4511 67 4493 0
4511 4493 4541 0
1143 4511 4541 0
4542 4539 1149 0
4541 1137 4539 0
4541 4539 4542 0
1143 4541 4542 0
4543 4542 1149 0
4516 1143 4542 0
4516 4542 4543 0
294 4516 4543 0
4545 4537 295 0
4544 1147 4537 0
4544 4537 4545 0
1150 4544 4545 0
4546 4534 1147 0
4540 292 4534 0
4540 4534 4546 0
1149 4540 4546 0
4547 4544 1150 0
4546 1147 4544 0
4546 4544 4547 0
1149 4546 4547 0
4548 4547 1150 0
4543 1149 4547 0
4543 4547 4548 0
294 4543 4548 0
4550 4545 295 0
4549 1150 4545 0
4549 4545 4550 0
1151 4549 4550 0
4551 4548 1150 0
4528 294 4548 0
4528 4548 4551 0
1146 4528 4551 0
4552 4549 1151 0
4551 1150 4549 0
4551 4549 4552 0
1146 4551 4552 0
4553 4552 1151 0
4531 1146 4552 0
4531 4552 4553 0
71 4531 4553 0
4555 4533 75 0
4554 1148 4533 0
4554 4533 4555 0
1153 4554 4555 0
4557 4538 1148 0
4556 295 4538 0
4556 4538 4557 0
1152 4556 4557 0
4558 4554 1153 0
4557 1148 4554 0
4557 4554 4558 0
1152 4557 4558 0
4560 4558 1153 0
4559 1152 4558 0
4559 4558 4560 0
296 4559 4560 0
4562 4550 295 0
4561 1151 4550 0
4561 4550 4562 0
1154 4561 4562 0
4563 4553 1151 0
4274 71 4553 0
4274 4553 4563 0
1081 4274 4563 0
4564 4561 1154 0
4563 1151 4561 0
4563 4561 4564 0
1081 4563 4564 0
4565 4564 1154 0
4279 1081 4564 0
4279 4564 4565 0
279 4279 4565 0
4567 4559 296 0
4566 1152 4559 0
4566 4559 4567 0
1155 4566 4567 0
4568 4556 1152 0
4562 295 4556 0
4562 4556 4568 0
1154 4562 4568 0
4569 4566 1155 0
4568 1152 4566 0
4568 4566 4569 0
1154 4568 4569 0
4570 4569 1155 0
4565 1154 4569 0
4565 4569 4570 0
279 4565 4570 0
4572 4567 296 0
4571 1155 4567 0
4571 4567 4572 0
1156 4571 4572 0
4573 4570 1155 0
4288 279 4570 0
4288 4570 4573 0
1085 4288 4573 0
4574 4571 1156 0
4573 1155 4571 0
4573 4571 4574 0
1085 4573 4574 0
4575 4574 1156 0
4293 1085 4574 0
4293 4574 4575 0
19 4293 4575 0
4577 4482 20 0
4576 1133 4482 0
4576 4482 4577 0
1158 4576 4577 0
4579 4479 1133 0
4578 290 4479 0
4578 4479 4579 0
1157 4578 4579 0
4580 4576 1158 0
4579 1133 4576 0
4579 4576 4580 0
1157 4579 4580 0
4582 4580 1158 0
4581 1157 4580 0
4581 4580 4582 0
298 4581 4582 0
4584 4470 290 0
4583 1130 4470 0
4583 4470 4584 0
1160 4583 4584 0
4586 4467 1130 0
4585 73 4467 0
4585 4467 4586 0
1159 4585 4586 0
4587 4583 1160 0
4586 1130 4583 0
4586 4583 4587 0
1159 4586 4587 0
4589 4587 1160 0
4588 1159 4587 0
4588 4587 4589 0
297 4588 4589 0
4591 4581 298 0
4590 1157 4581 0
4590 4581 4591 0
1161 4590 4591 0
4592 4578 1157 0
4584 290 4578 0
4584 4578 4592 0
1160 4584 4592 0
4593 4590 1161 0
4592 1157 4590 0
4592 4590 4593 0
1160 4592 4593 0
4594 4593 1161 0
4589 1160 4593 0
4589 4593 4594 0
297 4589 4594 0
4596 4591 298 0
4595 1161 4591 0
4595 4591 4596 0
1163 4595 4596 0
4598 4594 1161 0
4597 297 4594 0
4597 4594 4598 0
1162 4597 4598 0
4599 4595 1163 0
4598 1161 4595 0
4598 4595 4599 0
1162 4598 4599 0
4601 4599 1163 0
4600 1162 4599 0
4600 4599 4601 0
76 4600 4601 0
4603 4434 73 0
4602 1121 4434 0
4602 4434 4603 0
1165 4602 4603 0
4605 4431 1121 0
4604 287 4431 0
4604 4431 4605 0
1164 4604 4605 0
4606 4602 1165 0
4605 1121 4602 0
4605 4602 4606 0
1164 4605 4606 0
4608 4606 1165 0
4607 1164 4606 0
4607 4606 4608 0
299 4607 4608 0
4610 4422 287 0
4609 1118 4422 0
4609 4422 4610 0
1166 4609 4610 0
4611 4419 1118 0
4485 18 4419 0
4485 4419 4611 0
1136 4485 4611 0
4612 4609 1166 0
4611 1118 4609 0
4611 4609 4612 0
1136 4611 4612 0
4613 4612 1166 0
4490 1136 4612 0
4490 4612 4613 0
293 4490 4613 0
4615 4607 299 0
4614 1164 4607 0
4614 4607 4615 0
1167 4614 4615 0
4616 4604 1164 0
4610 287 4604 0
4610 4604 4616 0
1166 4610 4616 0
4617 4614 1167 0
4616 1164 4614 0
4616 4614 4617 0
1166 4616 4617 0
4618 4617 1167 0
4613 1166 4617 0
4613 4617 4618 0
293 4613 4618 0
4620 4615 299 0
4619 1167 4615 0
4619 4615 4620 0
1168 4619 4620 0
4621 4618 1167 0
4504 293 4618 0
4504 4618 4621 0
1141 4504 4621 0
4622 4619 1168 0
4621 1167 4619 0
4621 4619 4622 0
1141 4621 4622 0
4623 4622 1168 0
4509 1141 4622 0
4509 4622 4623 0
75 4509 4623 0
4625 4600 76 0
4624 1162 4600 0
4624 4600 4625 0
1170 4624 4625 0
4627 4597 1162 0
4626 297 4597 0
4626 4597 4627 0
1169 4626 4627 0
4628 4624 1170 0
4627 1162 4624 0
4627 4624 4628 0
1169 4627 4628 0
4630 4628 1170 0
4629 1169 4628 0
4629 4628 4630 0
300 4629 4630 0
4632 4588 297 0
4631 1159 4588 0
4631 4588 4632 0
1171 4631 4632 0
4633 4585 1159 0
4603 73 4585 0
4603 4585 4633 0
1165 4603 4633 0
4634 4631 1171 0
4633 1159 4631 0
4633 4631 4634 0
1165 4633 4634 0
4635 4634 1171 0
4608 1165 4634 0
4608 4634 4635 0
299 4608 4635 0
4637 4629 300 0
4636 1169 4629 0
4636 4629 4637 0
1172 4636 4637 0
4638 4626 1169 0
4632 297 4626 0
4632 4626 4638 0
1171 4632 4638 0
4639 4636 1172 0
4638 1169 4636 0
4638 4636 4639 0
1171 4638 4639 0
4640 4639 1172 0
4635 1171 4639 0
4635 4639 4640 0
299 4635 4640 0
4642 4637 300 0
4641 1172 4637 0
4641 4637 4642 0
1173 4641 4642 0
4643 4640 1172 0
4620 299 4640 0
4620 4640 4643 0
1168 4620 4643 0
4644 4641 1173 0
4643 1172 4641 0
4643 4641 4644 0
1168 4643 4644 0
4645 4644 1173 0
4623 1168 4644 0
4623 4644 4645 0
75 4623 4645 0
4647 4625 76 0
4646 1170 4625 0
4646 4625 4647 0
1175 4646 4647 0
4649 4630 1170 0
4648 300 4630 0
4648 4630 4649 0
1174 4648 4649 0
4650 4646 1175 0
4649 1170 4646 0
4649 4646 4650 0
1174 4649 4650 0
4652 4650 1175 0
4651 1174 4650 0
4651 4650 4652 0
301 4651 4652 0
4654 4642 300 0
4653 1173 4642 0
4653 4642 4654 0
1176 4653 4654 0
4655 4645 1173 0
4555 75 4645 0
4555 4645 4655 0
1153 4555 4655 0
4656 4653 1176 0
4655 1173 4653 0
4655 4653 4656 0
1153 4655 4656 0
4657 4656 1176 0
4560 1153 4656 0
4560 4656 4657 0
296 4560 4657 0
4659 4651 301 0
4658 1174 4651 0
4658 4651 4659 0
1177 4658 4659 0
4660 4648 1174 0
4654 300 4648 0
4654 4648 4660 0
1176 4654 4660 0
4661 4658 1177 0
4660 1174 4658 0
4660 4658 4661 0
1176 4660 4661 0
4662 4661 1177 0
4657 1176 4661 0
4657 4661 4662 0
296 4657 4662 0
4664 4659 301 0
4663 1177 4659 0
4663 4659 4664 0
1178 4663 4664 0
4665 4662 1177 0
4572 296 4662 0
4572 4662 4665 0
1156 4572 4665 0
4666 4663 1178 0
4665 1177 4663 0
4665 4663 4666 0
1156 4665 4666 0
4667 4666 1178 0
4575 1156 4666 0
4575 4666 4667 0
19 4575 4667 0
4669 4577 20 0
4668 1158 4577 0
4668 4577 4669 0
1180 4668 4669 0
4671 4582 1158 0
4670 298 4582 0
4670 4582 4671 0
1179 4670 4671 0
4672 4668 1180 0
4671 1158 4668 0
4671 4668 4672 0
1179 4671 4672 0
4674 4672 1180 0
4673 1179 4672 0
4673 4672 4674 0
303 4673 4674 0
4676 4596 298 0
4675 1163 4596 0
4675 4596 4676 0
1182 4675 4676 0
4678 4601 1163 0
4677 76 4601 0
4677 4601 4678 0
1181 4677 4678 0
4679 4675 1182 0
4678 1163 4675 0
4678 4675 4679 0
1181 4678 4679 0
4681 4679 1182 0
4680 1181 4679 0
4680 4679 4681 0
302 4680 4681 0
4683 4673 303 0
4682 1179 4673 0
4682 4673 4683 0
1183 4682 4683 0
4684 4670 1179 0
4676 298 4670 0
4676 4670 4684 0
1182 4676 4684 0
4685 4682 1183 0
4684 1179 4682 0
4684 4682 4685 0
1182 4684 4685 0
4686 4685 1183 0
4681 1182 4685 0
4681 4685 4686 0
302 4681 4686 0
4688 4683 303 0
4687 1183 4683 0
4687 4683 4688 0
1185 4687 4688 0
4690 4686 1183 0
4689 302 4686 0
4689 4686 4690 0
1184 4689 4690 0
4691 4687 1185 0
4690 1183 4687 0
4690 4687 4691 0
1184 4690 4691 0
4693 4691 1185 0
4692 1184 4691 0
4692 4691 4693 0
77 4692 4693 0
4695 4647 76 0
4694 1175 4647 0
4694 4647 4695 0
1187 4694 4695 0
4697 4652 1175 0
4696 301 4652 0
4696 4652 4697 0
1186 4696 4697 0
4698 4694 1187 0
4697 1175 4694 0
4697 4694 4698 0
1186 4697 4698 0
4700 4698 1187 0
4699 1186 4698 0
4699 4698 4700 0
304 4699 4700 0
4702 4664 301 0
4701 1178 4664 0
4701 4664 4702 0
1188 4701 4702 0
4703 4667 1178 0
4301 19 4667 0
4301 4667 4703 0
1088 4301 4703 0
4704 4701 1188 0
4703 1178 4701 0
4703 4701 4704 0
1088 4703 4704 0
4705 4704 1188 0
4306 1088 4704 0
4306 4704 4705 0
281 4306 4705 0
4707 4699 304 0
4706 1186 4699 0
4706 4699 4707 0
1189 4706 4707 0
4708 4696 1186 0
4702 301 4696 0
4702 4696 4708 0
1188 4702 4708 0
4709 4706 1189 0
4708 1186 4706 0
4708 4706 4709 0
1188 4708 4709 0
4710 4709 1189 0
4705 1188 4709 0
4705 4709 4710 0
281 4705 4710 0
4712 4707 304 0
4711 1189 4707 0
4711 4707 4712 0
1190 4711 4712 0
4713 4710 1189 0
4319 281 4710 0
4319 4710 4713 0
1093 4319 4713 0
4714 4711 1190 0
4713 1189 4711 0
4713 4711 4714 0
1093 4713 4714 0
4715 4714 1190 0
4324 1093 4714 0
4324 4714 4715 0
72 4324 4715 0
4717 4692 77 0
4716 1184 4692 0
4716 4692 4717 0
1192 4716 4717 0
4719 4689 1184 0
4718 302 4689 0
4718 4689 4719 0
1191 4718 4719 0
4720 4716 1192 0
4719 1184 4716 0
4719 4716 4720 0
1191 4719 4720 0
4722 4720 1192 0
4721 1191 4720 0
4721 4720 4722 0
305 4721 4722 0
4724 4680 302 0
4723 1181 4680 0
4723 4680 4724 0
1193 4723 4724 0
4725 4677 1181 0
4695 76 4677 0
4695 4677 4725 0
1187 4695 4725 0
4726 4723 1193 0
4725 1181 4723 0
4725 4723 4726 0
1187 4725 4726 0
4727 4726 1193 0
4700 1187 4726 0
4700 4726 4727 0
304 4700 4727 0
4729 4721 305 0
4728 1191 4721 0
4728 4721 4729 0
1194 4728 4729 0
4730 4718 1191 0
4724 302 4718 0
4724 4718 4730 0
1193 4724 4730 0
4731 4728 1194 0
4730 1191 4728 0
4730 4728 4731 0
1193 4730 4731 0
4732 4731 1194 0
4727 1193 4731 0
4727 4731 4732 0
304 4727 4732 0
4734 4729 305 0
4733 1194 4729 0
4733 4729 4734 0
1195 4733 4734 0
4735 4732 1194 0
4712 304 4732 0
4712 4732 4735 0
1190 4712 4735 0
4736 4733 1195 0
4735 1194 4733 0
4735 4733 4736 0
1190 4735 4736 0
4737 4736 1195 0
4715 1190 4736 0
4715 4736 4737 0
72 4715 4737 0
4739 4717 77 0
4738 1192 4717 0
4738 4717 4739 0
1197 4738 4739 0
4741 4722 1192 0
4740 305 4722 0
4740 4722 4741 0
1196 4740 4741 0
4742 4738 1197 0
4741 1192 4738 0
4741 4738 4742 0
1196 4741 4742 0
4744 4742 1197 0
4743 1196 4742 0
4743 4742 4744 0
306 4743 4744 0
4746 4734 305 0
4745 1195 4734 0
4745 4734 4746 0
1198 4745 4746 0
4747 4737 1195 0
4364 72 4737 0
4364 4737 4747 0
1105 4364 4747 0
4748 4745 1198 0
4747 1195 4745 0
4747 4745 4748 0
1105 4747 4748 0
4749 4748 1198 0
4369 1105 4748 0
4369 4748 4749 0
284 4369 4749 0
4751 4743 306 0
4750 1196 4743 0
4750 4743 4751 0
1199 4750 4751 0
4752 4740 1196 0
4746 305 4740 0
4746 4740 4752 0
1198 4746 4752 0
4753 4750 1199 0
4752 1196 4750 0
4752 4750 4753 0
1198 4752 4753 0
4754 4753 1199 0
4749 1198 4753 0
4749 4753 4754 0
284 4749 4754 0
4756 4751 306 0
4755 1199 4751 0
4755 4751 4756 0
1200 4755 4756 0
4757 4754 1199 0
4381 284 4754 0
4381 4754 4757 0
1108 4381 4757 0
4758 4755 1200 0
4757 1199 4755 0
4757 4755 4758 0
1108 4757 4758 0
4759 4758 1200 0
4384 1108 4758 0
4384 4758 4759 0
4 4384 4759 0
6509 4385 6507 0
4760 1110 4385 0
4760 4385 6509 0
1202 4760 6509 0
4762 4390 1110 0
4761 286 4390 0
4761 4390 4762 0
1201 4761 4762 0
4763 4760 1202 0
4762 1110 4760 0
4762 4760 4763 0
1201 4762 4763 0
4765 4763 1202 0
4764 1201 4763 0
4764 4763 4765 0
308 4764 4765 0
4767 4404 286 0
4766 1115 4404 0
4766 4404 4767 0
1204 4766 4767 0
4769 4409 1115 0
4768 74 4409 0
4768 4409 4769 0
1203 4768 4769 0
4770 4766 1204 0
4769 1115 4766 0
4769 4766 4770 0
1203 4769 4770 0
4772 4770 1204 0
4771 1203 4770 0
4771 4770 4772 0
307 4771 4772 0
4774 4764 308 0
4773 1201 4764 0
4773 4764 4774 0
1205 4773 4774 0
4775 4761 1201 0
4767 286 4761 0
4767 4761 4775 0
1204 4767 4775 0
4776 4773 1205 0
4775 1201 4773 0
4775 4773 4776 0
1204 4775 4776 0
4777 4776 1205 0
4772 1204 4776 0
4772 4776 4777 0
307 4772 4777 0
4779 4774 308 0
4778 1205 4774 0
4778 4774 4779 0
1207 4778 4779 0
4781 4777 1205 0
4780 307 4777 0
4780 4777 4781 0
1206 4780 4781 0
4782 4778 1207 0
4781 1205 4778 0
4781 4778 4782 0
1206 4781 4782 0
4784 4782 1207 0
4783 1206 4782 0
4783 4782 4784 0
79 4783 4784 0
4786 4459 74 0
4785 1129 4459 0
4785 4459 4786 0
1209 4785 4786 0
4788 4464 1129 0
4787 291 4464 0
4787 4464 4788 0
1208 4787 4788 0
4789 4785 1209 0
4788 1129 4785 0
4788 4785 4789 0
1208 4788 4789 0
4791 4789 1209 0
4790 1208 4789 0
4790 4789 4791 0
310 4790 4791 0
4793 4478 291 0
4792 1134 4478 0
4792 4478 4793 0
1211 4792 4793 0
4795 4483 1134 0
4794 20 4483 0
4794 4483 4795 0
1210 4794 4795 0
4796 4792 1211 0
4795 1134 4792 0
4795 4792 4796 0
1210 4795 4796 0
4798 4796 1211 0
4797 1210 4796 0
4797 4796 4798 0
309 4797 4798 0
4800 4790 310 0
4799 1208 4790 0
4799 4790 4800 0
1212 4799 4800 0
4801 4787 1208 0
4793 291 4787 0
4793 4787 4801 0
1211 4793 4801 0
4802 4799 1212 0
4801 1208 4799 0
4801 4799 4802 0
1211 4801 4802 0
4803 4802 1212 0
4798 1211 4802 0
4798 4802 4803 0
309 4798 4803 0
4805 4800 310 0
4804 1212 4800 0
4804 4800 4805 0
1214 4804 4805 0
4807 4803 1212 0
4806 309 4803 0
4806 4803 4807 0
1213 4806 4807 0
4808 4804 1214 0
4807 1212 4804 0
4807 4804 4808 0
1213 4807 4808 0
4810 4808 1214 0
4809 1213 4808 0
4809 4808 4810 0
78 4809 4810 0
4812 4783 79 0
4811 1206 4783 0
4811 4783 4812 0
1216 4811 4812 0
4814 4780 1206 0
4813 307 4780 0
4813 4780 4814 0
1215 4813 4814 0
4815 4811 1216 0
4814 1206 4811 0
4814 4811 4815 0
1215 4814 4815 0
4817 4815 1216 0
4816 1215 4815 0
4816 4815 4817 0
311 4816 4817 0
4819 4771 307 0
4818 1203 4771 0
4818 4771 4819 0
1217 4818 4819 0
4820 4768 1203 0
4786 74 4768 0
4786 4768 4820 0
1209 4786 4820 0
4821 4818 1217 0
4820 1203 4818 0
4820 4818 4821 0
1209 4820 4821 0
4822 4821 1217 0
4791 1209 4821 0
4791 4821 4822 0
310 4791 4822 0
4824 4816 311 0
4823 1215 4816 0
4823 4816 4824 0
1218 4823 4824 0
4825 4813 1215 0
4819 307 4813 0
4819 4813 4825 0
1217 4819 4825 0
4826 4823 1218 0
4825 1215 4823 0
4825 4823 4826 0
1217 4825 4826 0
4827 4826 1218 0
4822 1217 4826 0
4822 4826 4827 0
310 4822 4827 0
4829 4824 311 0
4828 1218 4824 0
4828 4824 4829 0
1219 4828 4829 0
4830 4827 1218 0
4805 310 4827 0
4805 4827 4830 0
1214 4805 4830 0
4831 4828 1219 0
4830 1218 4828 0
4830 4828 4831 0
1214 4830 4831 0
4832 4831 1219 0
4810 1214 4831 0
4810 4831 4832 0
78 4810 4832 0
4834 4812 79 0
4833 1216 4812 0
4833 4812 4834 0
1221 4833 4834 0
4836 4817 1216 0
4835 311 4817 0
4835 4817 4836 0
1220 4835 4836 0
4837 4833 1221 0
4836 1216 4833 0
4836 4833 4837 0
1220 4836 4837 0
4839 4837 1221 0
4838 1220 4837 0
4838 4837 4839 0
313 4838 4839 0
4841 4829 311 0
4840 1219 4829 0
4840 4829 4841 0
1223 4840 4841 0
4843 4832 1219 0
4842 78 4832 0
4842 4832 4843 0
1222 4842 4843 0
4844 4840 1223 0
4843 1219 4840 0
4843 4840 4844 0
1222 4843 4844 0
4846 4844 1223 0
4845 1222 4844 0
4845 4844 4846 0
312 4845 4846 0
4848 4838 313 0
4847 1220 4838 0
4847 4838 4848 0
1224 4847 4848 0
4849 4835 1220 0
4841 311 4835 0
4841 4835 4849 0
1223 4841 4849 0
4850 4847 1224 0
4849 1220 4847 0
4849 4847 4850 0
1223 4849 4850 0
4851 4850 1224 0
4846 1223 4850 0
4846 4850 4851 0
312 4846 4851 0
4853 4848 313 0
4852 1224 4848 0
4852 4848 4853 0
1226 4852 4853 0
4855 4851 1224 0
4854 312 4851 0
4854 4851 4855 0
1225 4854 4855 0
4856 4852 1226 0
4855 1224 4852 0
4855 4852 4856 0
1225 4855 4856 0
4858 4856 1226 0
4857 1225 4856 0
4857 4856 4858 0
21 4857 4858 0
4860 4669 20 0
4859 1180 4669 0
4859 4669 4860 0
1228 4859 4860 0
4862 4674 1180 0
4861 303 4674 0
4861 4674 4862 0
1227 4861 4862 0
4863 4859 1228 0
4862 1180 4859 0
4862 4859 4863 0
1227 4862 4863 0
4865 4863 1228 0
4864 1227 4863 0
4864 4863 4865 0
315 4864 4865 0
4867 4688 303 0
4866 1185 4688 0
4866 4688 4867 0
1230 4866 4867 0
4869 4693 1185 0
4868 77 4693 0
4868 4693 4869 0
1229 4868 4869 0
4870 4866 1230 0
4869 1185 4866 0
4869 4866 4870 0
1229 4869 4870 0
4872 4870 1230 0
4871 1229 4870 0
4871 4870 4872 0
314 4871 4872 0
4874 4864 315 0
4873 1227 4864 0
4873 4864 4874 0
1231 4873 4874 0
4875 4861 1227 0
4867 303 4861 0
4867 4861 4875 0
1230 4867 4875 0
4876 4873 1231 0
4875 1227 4873 0
4875 4873 4876 0
1230 4875 4876 0
4877 4876 1231 0
4872 1230 4876 0
4872 4876 4877 0
314 4872 4877 0
4879 4874 315 0
4878 1231 4874 0
4878 4874 4879 0
1233 4878 4879 0
4881 4877 1231 0
4880 314 4877 0
4880 4877 4881 0
1232 4880 4881 0
4882 4878 1233 0
4881 1231 4878 0
4881 4878 4882 0
1232 4881 4882 0
4884 4882 1233 0
4883 1232 4882 0
4883 4882 4884 0
80 4883 4884 0
4886 4739 77 0
4885 1197 4739 0
4885 4739 4886 0
1235 4885 4886 0
4888 4744 1197 0
4887 306 4744 0
4887 4744 4888 0
1234 4887 4888 0
4889 4885 1235 0
4888 1197 4885 0
4888 4885 4889 0
1234 4888 4889 0
4891 4889 1235 0
4890 1234 4889 0
4890 4889 4891 0
316 4890 4891 0
4893 4756 306 0
4892 1200 4756 0
4892 4756 4893 0
1236 4892 4893 0
4894 4759 1200 0
3559 4 4759 0
3559 4759 4894 0
896 3559 4894 0
4895 4892 1236 0
4894 1200 4892 0
4894 4892 4895 0
896 4894 4895 0
4896 4895 1236 0
3556 896 4895 0
3556 4895 4896 0
227 3556 4896 0
4898 4890 316 0
4897 1234 4890 0
4897 4890 4898 0
1237 4897 4898 0
4899 4887 1234 0
4893 306 4887 0
4893 4887 4899 0
1236 4893 4899 0
4900 4897 1237 0
4899 1234 4897 0
4899 4897 4900 0
1236 4899 4900 0
4901 4900 1237 0
4896 1236 4900 0
4896 4900 4901 0
227 4896 4901 0
4903 4898 316 0
4902 1237 4898 0
4902 4898 4903 0
1238 4902 4903 0
4904 4901 1237 0
3547 227 4901 0
3547 4901 4904 0
893 3547 4904 0
4905 4902 1238 0
4904 1237 4902 0
4904 4902 4905 0
893 4904 4905 0
4906 4905 1238 0
3544 893 4905 0
3544 4905 4906 0
56 3544 4906 0
4908 4883 80 0
4907 1232 4883 0
4907 4883 4908 0
1240 4907 4908 0
4910 4880 1232 0
4909 314 4880 0
4909 4880 4910 0
1239 4909 4910 0
4911 4907 1240 0
4910 1232 4907 0
4910 4907 4911 0
1239 4910 4911 0
4913 4911 1240 0
4912 1239 4911 0
4912 4911 4913 0
317 4912 4913 0
4915 4871 314 0
4914 1229 4871 0
4914 4871 4915 0
1241 4914 4915 0
4916 4868 1229 0
4886 77 4868 0
4886 4868 4916 0
1235 4886 4916 0
4917 4914 1241 0
4916 1229 4914 0
4916 4914 4917 0
1235 4916 4917 0
4918 4917 1241 0
4891 1235 4917 0
4891 4917 4918 0
316 4891 4918 0
4920 4912 317 0
4919 1239 4912 0
4919 4912 4920 0
1242 4919 4920 0
4921 4909 1239 0
4915 314 4909 0
4915 4909 4921 0
1241 4915 4921 0
4922 4919 1242 0
4921 1239 4919 0
4921 4919 4922 0
1241 4921 4922 0
4923 4922 1242 0
4918 1241 4922 0
4918 4922 4923 0
316 4918 4923 0
4925 4920 317 0
4924 1242 4920 0
4924 4920 4925 0
1243 4924 4925 0
4926 4923 1242 0
4903 316 4923 0
4903 4923 4926 0
1238 4903 4926 0
4927 4924 1243 0
4926 1242 4924 0
4926 4924 4927 0
1238 4926 4927 0
4928 4927 1243 0
4906 1238 4927 0
4906 4927 4928 0
56 4906 4928 0
4930 4908 80 0
4929 1240 4908 0
4929 4908 4930 0
1245 4929 4930 0
4932 4913 1240 0
4931 317 4913 0
4931 4913 4932 0
1244 4931 4932 0
4933 4929 1245 0
4932 1240 4929 0
4932 4929 4933 0
1244 4932 4933 0
4935 4933 1245 0
4934 1244 4933 0
4934 4933 4935 0
318 4934 4935 0
4937 4925 317 0
4936 1243 4925 0
4936 4925 4937 0
1246 4936 4937 0
4938 4928 1243 0
3511 56 4928 0
3511 4928 4938 0
884 3511 4938 0
4939 4936 1246 0
4938 1243 4936 0
4938 4936 4939 0
884 4938 4939 0
4940 4939 1246 0
3508 884 4939 0
3508 4939 4940 0
224 3508 4940 0
4942 4934 318 0
4941 1244 4934 0
4941 4934 4942 0
1247 4941 4942 0
4943 4931 1244 0
4937 317 4931 0
4937 4931 4943 0
1246 4937 4943 0
4944 4941 1247 0
4943 1244 4941 0
4943 4941 4944 0
1246 4943 4944 0
4945 4944 1247 0
4940 1246 4944 0
4940 4944 4945 0
224 4940 4945 0
4947 4942 318 0
4946 1247 4942 0
4946 4942 4947 0
1248 4946 4947 0
4948 4945 1247 0
3499 224 4945 0
3499 4945 4948 0
881 3499 4948 0
4949 4946 1248 0
4948 1247 4946 0
4948 4946 4949 0
881 4948 4949 0
4950 4949 1248 0
3496 881 4949 0
3496 4949 4950 0
15 3496 4950 0
4952 4857 21 0
4951 1225 4857 0
4951 4857 4952 0
1250 4951 4952 0
4954 4854 1225 0
4953 312 4854 0
4953 4854 4954 0
1249 4953 4954 0
4955 4951 1250 0
4954 1225 4951 0
4954 4951 4955 0
1249 4954 4955 0
4957 4955 1250 0
4956 1249 4955 0
4956 4955 4957 0
320 4956 4957 0
4959 4845 312 0
4958 1222 4845 0
4958 4845 4959 0
1252 4958 4959 0
4961 4842 1222 0
4960 78 4842 0
4960 4842 4961 0
1251 4960 4961 0
4962 4958 1252 0
4961 1222 4958 0
4961 4958 4962 0
1251 4961 4962 0
4964 4962 1252 0
4963 1251 4962 0
4963 4962 4964 0
319 4963 4964 0
4966 4956 320 0
4965 1249 4956 0
4965 4956 4966 0
1253 4965 4966 0
4967 4953 1249 0
4959 312 4953 0
4959 4953 4967 0
1252 4959 4967 0
4968 4965 1253 0
4967 1249 4965 0
4967 4965 4968 0
1252 4967 4968 0
4969 4968 1253 0
4964 1252 4968 0
4964 4968 4969 0
319 4964 4969 0
4971 4966 320 0
4970 1253 4966 0
4970 4966 4971 0
1255 4970 4971 0
4973 4969 1253 0
4972 319 4969 0
4972 4969 4973 0
1254 4972 4973 0
4974 4970 1255 0
4973 1253 4970 0
4973 4970 4974 0
1254 4973 4974 0
4976 4974 1255 0
4975 1254 4974 0
4975 4974 4976 0
81 4975 4976 0
4978 4809 78 0
4977 1213 4809 0
4977 4809 4978 0
1257 4977 4978 0
4980 4806 1213 0
4979 309 4806 0
4979 4806 4980 0
1256 4979 4980 0
4981 4977 1257 0
4980 1213 4977 0
4980 4977 4981 0
1256 4980 4981 0
4983 4981 1257 0
4982 1256 4981 0
4982 4981 4983 0
321 4982 4983 0
4985 4797 309 0
4984 1210 4797 0
4984 4797 4985 0
1258 4984 4985 0
4986 4794 1210 0
4860 20 4794 0
4860 4794 4986 0
1228 4860 4986 0
4987 4984 1258 0
4986 1210 4984 0
4986 4984 4987 0
1228 4986 4987 0
4988 4987 1258 0
4865 1228 4987 0
4865 4987 4988 0
315 4865 4988 0
4990 4982 321 0
4989 1256 4982 0
4989 4982 4990 0
1259 4989 4990 0
4991 4979 1256 0
4985 309 4979 0
4985 4979 4991 0
1258 4985 4991 0
4992 4989 1259 0
4991 1256 4989 0
4991 4989 4992 0
1258 4991 4992 0
4993 4992 1259 0
4988 1258 4992 0
4988 4992 4993 0
315 4988 4993 0
4995 4990 321 0
4994 1259 4990 0
4994 4990 4995 0
1260 4994 4995 0
4996 4993 1259 0
4879 315 4993 0
4879 4993 4996 0
1233 4879 4996 0
4997 4994 1260 0
4996 1259 4994 0
4996 4994 4997 0
1233 4996 4997 0
4998 4997 1260 0
4884 1233 4997 0
4884 4997 4998 0
80 4884 4998 0
5000 4975 81 0
4999 1254 4975 0
4999 4975 5000 0
1262 4999 5000 0
5002 4972 1254 0
5001 319 4972 0
5001 4972 5002 0
1261 5001 5002 0
5003 4999 1262 0
5002 1254 4999 0
5002 4999 5003 0
1261 5002 5003 0
5005 5003 1262 0
5004 1261 5003 0
5004 5003 5005 0
322 5004 5005 0
5007 4963 319 0
5006 1251 4963 0
5006 4963 5007 0
1263 5006 5007 0
5008 4960 1251 0
4978 78 4960 0
4978 4960 5008 0
1257 4978 5008 0
5009 5006 1263 0
5008 1251 5006 0
5008 5006 5009 0
1257 5008 5009 0
5010 5009 1263 0
4983 1257 5009 0
4983 5009 5010 0
321 4983 5010 0
5012 5004 322 0
5011 1261 5004 0
5011 5004 5012 0
1264 5011 5012 0
5013 5001 1261 0
5007 319 5001 0
5007 5001 5013 0
1263 5007 5013 0
5014 5011 1264 0
5013 1261 5011 0
5013 5011 5014 0
1263 5013 5014 0
5015 5014 1264 0
5010 1263 5014 0
5010 5014 5015 0
321 5010 5015 0
5017 5012 322 0
5016 1264 5012 0
5016 5012 5017 0
1265 5016 5017 0
5018 5015 1264 0
4995 321 5015 0
4995 5015 5018 0
1260 4995 5018 0
5019 5016 1265 0
5018 1264 5016 0
5018 5016 5019 0
1260 5018 5019 0
5020 5019 1265 0
4998 1260 5019 0
4998 5019 5020 0
80 4998 5020 0
5022 5000 81 0
5021 1262 5000 0
5021 5000 5022 0
1267 5021 5022 0
5024 5005 1262 0
5023 322 5005 0
5023 5005 5024 0
1266 5023 5024 0
5025 5021 1267 0
5024 1262 5021 0
5024 5021 5025 0
1266 5024 5025 0
5027 5025 1267 0
5026 1266 5025 0
5026 5025 5027 0
323 5026 5027 0
5029 5017 322 0
5028 1265 5017 0
5028 5017 5029 0
1268 5028 5029 0
5030 5020 1265 0
4930 80 5020 0
4930 5020 5030 0
1245 4930 5030 0
5031 5028 1268 0
5030 1265 5028 0
5030 5028 5031 0
1245 5030 5031 0
5032 5031 1268 0
4935 1245 5031 0
4935 5031 5032 0
318 4935 5032 0
5034 5026 323 0
5033 1266 5026 0
5033 5026 5034 0
1269 5033 5034 0
5035 5023 1266 0
5029 322 5023 0
5029 5023 5035 0
1268 5029 5035 0
5036 5033 1269 0
5035 1266 5033 0
5035 5033 5036 0
1268 5035 5036 0
5037 5036 1269 0
5032 1268 5036 0
5032 5036 5037 0
318 5032 5037 0
5039 5034 323 0
5038 1269 5034 0
5038 5034 5039 0
1270 5038 5039 0
5040 5037 1269 0
4947 318 5037 0
4947 5037 5040 0
1248 4947 5040 0
5041 5038 1270 0
5040 1269 5038 0
5040 5038 5041 0
1248 5040 5041 0
5042 5041 1270 0
4950 1248 5041 0
4950 5041 5042 0
15 4950 5042 0
5044 4952 21 0
5043 1250 4952 0
5043 4952 5044 0
1272 5043 5044 0
5046 4957 1250 0
5045 320 4957 0
5045 4957 5046 0
1271 5045 5046 0
5047 5043 1272 0
5046 1250 5043 0
5046 5043 5047 0
1271 5046 5047 0
5049 5047 1272 0
5048 1271 5047 0
5048 5047 5049 0
325 5048 5049 0
5051 4971 320 0
5050 1255 4971 0
5050 4971 5051 0
1274 5050 5051 0
5053 4976 1255 0
5052 81 4976 0
5052 4976 5053 0
1273 5052 5053 0
5054 5050 1274 0
5053 1255 5050 0
5053 5050 5054 0
1273 5053 5054 0
5056 5054 1274 0
5055 1273 5054 0
5055 5054 5056 0
324 5055 5056 0
5058 5048 325 0
5057 1271 5048 0
5057 5048 5058 0
1275 5057 5058 0
5059 5045 1271 0
5051 320 5045 0
5051 5045 5059 0
1274 5051 5059 0
5060 5057 1275 0
5059 1271 5057 0
5059 5057 5060 0
1274 5059 5060 0
5061 5060 1275 0
5056 1274 5060 0
5056 5060 5061 0
324 5056 5061 0
5063 5058 325 0
5062 1275 5058 0
5062 5058 5063 0
1277 5062 5063 0
5065 5061 1275 0
5064 324 5061 0
5064 5061 5065 0
1276 5064 5065 0
5066 5062 1277 0
5065 1275 5062 0
5065 5062 5066 0
1276 5065 5066 0
5068 5066 1277 0
5067 1276 5066 0
5067 5066 5068 0
82 5067 5068 0
5070 5022 81 0
5069 1267 5022 0
5069 5022 5070 0
1279 5069 5070 0
5072 5027 1267 0
5071 323 5027 0
5071 5027 5072 0
1278 5071 5072 0
5073 5069 1279 0
5072 1267 5069 0
5072 5069 5073 0
1278 5072 5073 0
5075 5073 1279 0
5074 1278 5073 0
5074 5073 5075 0
326 5074 5075 0
5077 5039 323 0
5076 1270 5039 0
5076 5039 5077 0
1280 5076 5077 0
5078 5042 1270 0
3367 15 5042 0
3367 5042 5078 0
848 3367 5078 0
5079 5076 1280 0
5078 1270 5076 0
5078 5076 5079 0
848 5078 5079 0
5080 5079 1280 0
3364 848 5079 0
3364 5079 5080 0
215 3364 5080 0
5082 5074 326 0
5081 1278 5074 0
5081 5074 5082 0
1281 5081 5082 0
5083 5071 1278 0
5077 323 5071 0
5077 5071 5083 0
1280 5077 5083 0
5084 5081 1281 0
5083 1278 5081 0
5083 5081 5084 0
1280 5083 5084 0
5085 5084 1281 0
5080 1280 5084 0
5080 5084 5085 0
215 5080 5085 0
5087 5082 326 0
5086 1281 5082 0
5086 5082 5087 0
1282 5086 5087 0
5088 5085 1281 0
3355 215 5085 0
3355 5085 5088 0
845 3355 5088 0
5089 5086 1282 0
5088 1281 5086 0
5088 5086 5089 0
845 5088 5089 0
5090 5089 1282 0
3352 845 5089 0
3352 5089 5090 0
53 3352 5090 0
5092 5067 82 0
5091 1276 5067 0
5091 5067 5092 0
1284 5091 5092 0
5094 5064 1276 0
5093 324 5064 0
5093 5064 5094 0
1283 5093 5094 0
5095 5091 1284 0
5094 1276 5091 0
5094 5091 5095 0
1283 5094 5095 0
5097 5095 1284 0
5096 1283 5095 0
5096 5095 5097 0
327 5096 5097 0
5099 5055 324 0
5098 1273 5055 0
5098 5055 5099 0
1285 5098 5099 0
5100 5052 1273 0
5070 81 5052 0
5070 5052 5100 0
1279 5070 5100 0
5101 5098 1285 0
5100 1273 5098 0
5100 5098 5101 0
1279 5100 5101 0
5102 5101 1285 0
5075 1279 5101 0
5075 5101 5102 0
326 5075 5102 0
5104 5096 327 0
5103 1283 5096 0
5103 5096 5104 0
1286 5103 5104 0
5105 5093 1283 0
5099 324 5093 0
5099 5093 5105 0
1285 5099 5105 0
5106 5103 1286 0
5105 1283 5103 0
5105 5103 5106 0
1285 5105 5106 0
5107 5106 1286 0
5102 1285 5106 0
5102 5106 5107 0
326 5102 5107 0
5109 5104 327 0
5108 1286 5104 0
5108 5104 5109 0
1287 5108 5109 0
5110 5107 1286 0
5087 326 5107 0
5087 5107 5110 0
1282 5087 5110 0
5111 5108 1287 0
5110 1286 5108 0
5110 5108 5111 0
1282 5110 5111 0
5112 5111 1287 0
5090 1282 5111 0
5090 5111 5112 0
53 5090 5112 0
5114 5092 82 0
5113 1284 5092 0
5113 5092 5114 0
1289 5113 5114 0
5116 5097 1284 0
5115 327 5097 0
5115 5097 5116 0
1288 5115 5116 0
5117 5113 1289 0
5116 1284 5113 0
5116 5113 5117 0
1288 5116 5117 0
5119 5117 1289 0
5118 1288 5117 0
5118 5117 5119 0
328 5118 5119 0
5121 5109 327 0
5120 1287 5109 0
5120 5109 5121 0
1290 5120 5121 0
5122 5112 1287 0
3319 53 5112 0
3319 5112 5122 0
836 3319 5122 0
5123 5120 1290 0
5122 1287 5120 0
5122 5120 5123 0
836 5122 5123 0
5124 5123 1290 0
3316 836 5123 0
3316 5123 5124 0
212 3316 5124 0
5126 5118 328 0
5125 1288 5118 0
5125 5118 5126 0
1291 5125 5126 0
5127 5115 1288 0
5121 327 5115 0
5121 5115 5127 0
1290 5121 5127 0
5128 5125 1291 0
5127 1288 5125 0
5127 5125 5128 0
1290 5127 5128 0
5129 5128 1291 0
5124 1290 5128 0
5124 5128 5129 0
212 5124 5129 0
5131 5126 328 0
5130 1291 5126 0
5130 5126 5131 0
1292 5130 5131 0
5132 5129 1291 0
3307 212 5129 0
3307 5129 5132 0
833 3307 5132 0
5133 5130 1292 0
5132 1291 5130 0
5132 5130 5133 0
833 5132 5133 0
5134 5133 1292 0
3304 833 5133 0
3304 5133 5134 0
0 3304 5134 0
436 6510 6176 0
6511 6510 436 0
1745 6511 436 0
5135 6512 6511 0
5135 6511 1745 0
2 5135 1745 0
5136 5135 2 0
6513 6512 5135 0
6513 5135 5136 0
6514 6513 5136 0
2039 5136 2 0
5137 6514 5136 0
5137 5136 2039 0
513 5137 2039 0
5138 6515 6514 0
6516 6515 5138 0
1293 6516 5138 0
5139 5137 513 0
5138 6514 5137 0
5138 5137 5139 0
1293 5138 5139 0
2042 5139 513 0
5140 1293 5139 0
5140 5139 2042 0
128 5140 2042 0
5142 5140 128 0
5141 1293 5140 0
5141 5140 5142 0
1294 5141 5142 0
6517 6516 1293 0
6518 5141 1294 0
6517 1293 5141 0
6517 5141 6518 0
6519 6518 1294 0
2051 5142 128 0
5143 1294 5142 0
5143 5142 2051 0
516 5143 2051 0
5144 6519 1294 0
6520 6519 5144 0
1295 6520 5144 0
5145 5143 516 0
5144 1294 5143 0
5144 5143 5145 0
1295 5144 5145 0
2054 5145 516 0
5146 1295 5145 0
5146 5145 2054 0
31 5146 2054 0
5148 5146 31 0
5147 1295 5146 0
5147 5146 5148 0
1296 5147 5148 0
5149 6520 1295 0
6521 6520 5149 0
6522 6521 5149 0
5150 5147 1296 0
5149 1295 5147 0
5149 5147 5150 0
6522 5149 5150 0
5152 5150 1296 0
5151 6522 5150 0
5151 5150 5152 0
6523 5151 5152 0
6524 5151 6523 0
6525 6522 5151 0
6525 5151 6524 0
2087 5148 31 0
5153 1296 5148 0
5153 5148 2087 0
525 5153 2087 0
5155 5152 1296 0
5154 6523 5152 0
5154 5152 5155 0
1297 5154 5155 0
5156 5153 525 0
5155 1296 5153 0
5155 5153 5156 0
1297 5155 5156 0
2090 5156 525 0
5157 1297 5156 0
5157 5156 2090 0
131 5157 2090 0
5158 6526 6523 0
6527 6526 5158 0
1298 6527 5158 0
6528 6527 1298 0
5159 6528 1298 0
6529 6528 5159 0
329 6529 5159 0
5161 5157 131 0
5160 1297 5157 0
5160 5157 5161 0
1299 5160 5161 0
5162 5154 1297 0
5158 6523 5154 0
5158 5154 5162 0
1298 5158 5162 0
5163 5160 1299 0
5162 1297 5160 0
5162 5160 5163 0
1298 5162 5163 0
5164 5163 1299 0
5159 1298 5163 0
5159 5163 5164 0
329 5159 5164 0
2099 5161 131 0
5165 1299 5161 0
5165 5161 2099 0
528 5165 2099 0
5167 5164 1299 0
5166 329 5164 0
5166 5164 5167 0
1300 5166 5167 0
5168 5165 528 0
5167 1299 5165 0
5167 5165 5168 0
1300 5167 5168 0
2102 5168 528 0
5169 1300 5168 0
5169 5168 2102 0
9 5169 2102 0
5171 5169 9 0
5170 1300 5169 0
5170 5169 5171 0
1302 5170 5171 0
5173 5166 1300 0
5172 329 5166 0
5172 5166 5173 0
1301 5172 5173 0
5174 5170 1302 0
5173 1300 5170 0
5173 5170 5174 0
1301 5173 5174 0
5176 5174 1302 0
5175 1301 5174 0
5175 5174 5176 0
330 5175 5176 0
6530 6529 329 0
5178 5175 330 0
5177 1301 5175 0
5177 5175 5178 0
6531 5177 5178 0
5179 5172 1301 0
6530 329 5172 0
6530 5172 5179 0
6532 6530 5179 0
6533 5177 6531 0
5179 1301 5177 0
5179 5177 6533 0
6532 5179 6533 0
5181 5178 330 0
5180 6531 5178 0
5180 5178 5181 0
1303 5180 5181 0
6534 5180 1303 0
6535 6531 5180 0
6535 5180 6534 0
6536 6534 1303 0
2231 5171 9 0
5182 1302 5171 0
5182 5171 2231 0
561 5182 2231 0
5184 5176 1302 0
5183 330 5176 0
5183 5176 5184 0
1304 5183 5184 0
5185 5182 561 0
5184 1302 5182 0
5184 5182 5185 0
1304 5184 5185 0
2234 5185 561 0
5186 1304 5185 0
5186 5185 2234 0
140 5186 2234 0
5188 5181 330 0
5187 1303 5181 0
5187 5181 5188 0
1306 5187 5188 0
5190 6536 1303 0
5189 6537 6536 0
5189 6536 5190 0
1305 5189 5190 0
5191 5187 1306 0
5190 1303 5187 0
5190 5187 5191 0
1305 5190 5191 0
5193 5191 1306 0
5192 1305 5191 0
5192 5191 5193 0
331 5192 5193 0
5195 5186 140 0
5194 1304 5186 0
5194 5186 5195 0
1307 5194 5195 0
5196 5183 1304 0
5188 330 5183 0
5188 5183 5196 0
1306 5188 5196 0
5197 5194 1307 0
5196 1304 5194 0
5196 5194 5197 0
1306 5196 5197 0
5198 5197 1307 0
5193 1306 5197 0
5193 5197 5198 0
331 5193 5198 0
2243 5195 140 0
5199 1307 5195 0
5199 5195 2243 0
564 5199 2243 0
5201 5198 1307 0
5200 331 5198 0
5200 5198 5201 0
1308 5200 5201 0
5202 5199 564 0
5201 1307 5199 0
5201 5199 5202 0
1308 5201 5202 0
2246 5202 564 0
5203 1308 5202 0
5203 5202 2246 0
34 5203 2246 0
5204 6538 6539 0
6540 6538 5204 0
332 6540 5204 0
5205 6540 332 0
6541 6540 5205 0
6542 6541 5205 0
5207 5205 332 0
5206 6542 5205 0
5206 5205 5207 0
1310 5206 5207 0
5208 6543 6542 0
6544 6543 5208 0
1309 6544 5208 0
5209 5206 1310 0
5208 6542 5206 0
5208 5206 5209 0
1309 5208 5209 0
5211 5209 1310 0
5210 1309 5209 0
5210 5209 5211 0
83 5210 5211 0
5213 5203 34 0
5212 1308 5203 0
5212 5203 5213 0
1312 5212 5213 0
5215 5200 1308 0
5214 331 5200 0
5214 5200 5215 0
1311 5214 5215 0
5216 5212 1312 0
5215 1308 5212 0
5215 5212 5216 0
1311 5215 5216 0
5218 5216 1312 0
5217 1311 5216 0
5217 5216 5218 0
333 5217 5218 0
5220 5192 331 0
5219 1305 5192 0
5219 5192 5220 0
1313 5219 5220 0
5221 5189 1305 0
6545 6537 5189 0
6545 5189 5221 0
6539 6545 5221 0
5222 5219 1313 0
5221 1305 5219 0
5221 5219 5222 0
6539 5221 5222 0
5223 5222 1313 0
5204 6539 5222 0
5204 5222 5223 0
332 5204 5223 0
5225 5217 333 0
5224 1311 5217 0
5224 5217 5225 0
1314 5224 5225 0
5226 5214 1311 0
5220 331 5214 0
5220 5214 5226 0
1313 5220 5226 0
5227 5224 1314 0
5226 1311 5224 0
5226 5224 5227 0
1313 5226 5227 0
5228 5227 1314 0
5223 1313 5227 0
5223 5227 5228 0
332 5223 5228 0
5230 5225 333 0
5229 1314 5225 0
5229 5225 5230 0
1315 5229 5230 0
5231 5228 1314 0
5207 332 5228 0
5207 5228 5231 0
1310 5207 5231 0
5232 5229 1315 0
5231 1314 5229 0
5231 5229 5232 0
1310 5231 5232 0
5233 5232 1315 0
5211 1310 5232 0
5211 5232 5233 0
83 5211 5233 0
2279 5213 34 0
5234 1312 5213 0
5234 5213 2279 0
573 5234 2279 0
5236 5218 1312 0
5235 333 5218 0
5235 5218 5236 0
1316 5235 5236 0
5237 5234 573 0
5236 1312 5234 0
5236 5234 5237 0
1316 5236 5237 0
2282 5237 573 0
5238 1316 5237 0
5238 5237 2282 0
143 5238 2282 0
5240 5230 333 0
5239 1315 5230 0
5239 5230 5240 0
1318 5239 5240 0
5242 5233 1315 0
5241 83 5233 0
5241 5233 5242 0
1317 5241 5242 0
5243 5239 1318 0
5242 1315 5239 0
5242 5239 5243 0
1317 5242 5243 0
5245 5243 1318 0
5244 1317 5243 0
5244 5243 5245 0
334 5244 5245 0
5247 5238 143 0
5246 1316 5238 0
5246 5238 5247 0
1319 5246 5247 0
5248 5235 1316 0
5240 333 5235 0
5240 5235 5248 0
1318 5240 5248 0
5249 5246 1319 0
5248 1316 5246 0
5248 5246 5249 0
1318 5248 5249 0
5250 5249 1319 0
5245 1318 5249 0
5245 5249 5250 0
334 5245 5250 0
2291 5247 143 0
5251 1319 5247 0
5251 5247 2291 0
576 5251 2291 0
