#!ascii - generated by CreateLabelFiles project 
6611 12737
24.6632 -2.12985 -4.30674 0
25.4588 -2.4796 -4.79229 0
21.3851 0.11882 -4.40913 0
22.7007 -0.320442 -4.27654 0
18.1679 0.822361 -4.98404 0
19.8046 0.472345 -4.71114 0
20.3698 -0.212784 -4.47626 0
19.3364 -0.545099 -4.51709 0
20.9493 -0.932374 -4.33627 0
23.6556 -1.73665 -4.13289 0
24.0836 -2.46454 -4.23938 0
23.1945 -1.04075 -4.18454 0
22.4424 -1.32761 -4.18325 0
21.5864 -1.68099 -4.21358 0
23.4028 -2.80602 -4.27028 0
24.5088 -3.20399 -4.7113 0
20.6788 -2.04914 -4.25707 0
22.1337 -2.41144 -4.13589 0
22.7412 -3.16199 -4.08357 0
22.0582 -3.52265 -3.945 0
23.3084 -3.9631 -4.22187 0
14.8349 1.66742 -4.78198 0
16.5326 1.26025 -4.91323 0
11.4905 1.64177 -4.39156 0
13.2315 1.75916 -4.57685 0
13.6217 1.28271 -4.50916 0
12.3712 0.901694 -4.20403 0
14.264 0.658286 -4.42516 0
8.64418 -0.329534 -4.58265 0
9.81792 1.07745 -4.44246 0
7.85228 -1.73479 -4.70628 0
7.88614 -1.86456 -4.32576 0
7.91318 -1.65867 -3.77297 0
10.5276 0.650286 -3.92347 0
11.0672 0.557027 -3.73242 0
10.0717 0.846523 -4.11201 0
9.03237 -0.273303 -3.65021 0
8.0991 -1.33233 -3.05505 0
9.98026 -0.0915237 -3.23413 0
11.7929 -0.000388621 -3.80533 0
8.52302 -1.12659 -2.76046 0
9.1573 -1.02678 -2.80626 0
9.95058 -1.28585 -3.21548 0
20.6165 -3.12964 -3.91088 0
21.3912 -3.858 -3.7347 0
19.0486 -1.64561 -4.41411 0
19.7929 -2.4024 -4.22542 0
18.824 -2.74077 -4.24313 0
17.0403 -2.28105 -4.41882 0
17.9025 -3.0854 -4.24812 0
17.7003 -0.0987774 -4.65657 0
18.3278 -0.870153 -4.53632 0
17.1054 0.599555 -4.85193 0
16.0354 0.372678 -4.69484 0
14.8845 0.0466163 -4.4376 0
16.2695 -1.45484 -4.48433 0
15.2227 -1.69924 -4.41853 0
17.3165 -1.18673 -4.52767 0
15.5596 -0.733906 -4.37627 0
13.7296 -0.285008 -4.23441 0
13.3699 -1.28419 -4.22941 0
14.283 -2.02003 -4.3653 0
12.5679 -0.607903 -4.17366 0
11.4573 -0.92724 -4.17403 0
10.9168 -1.35803 -3.49923 0
20.6001 -4.19433 -3.70722 0
22.0988 -4.60956 -3.74645 0
16.9438 -3.39366 -4.18634 0
18.8769 -3.82447 -3.94349 0
19.8088 -4.54219 -3.76122 0
19.2107 -4.80373 -4.06539 0
20.8679 -5.23068 -3.95089 0
13.4505 -2.37816 -4.37357 0
15.0743 -2.87667 -4.25687 0
11.8495 -2.05646 -3.9282 0
12.6969 -2.75144 -4.35743 0
13.6259 -3.64234 -4.32591 0
17.4131 -4.24157 -4.1434 0
18.6073 -4.94276 -4.26624 0
16.0941 -3.64091 -4.17602 0
15.4226 -3.93473 -4.24709 0
14.7833 -4.30352 -4.28514 0
18.0253 -4.9852 -4.75052 0
19.76 -5.65167 -4.75965 0
16.2194 -4.67933 -4.53555 0
17.4763 -5.14637 -5.17757 0
18.689 -5.67448 -5.96862 0
26.3958 -2.37399 -5.41276 0
26.5917 -1.93859 -5.59805 0
25.7922 -3.15697 -5.09538 0
26.201 -2.80111 -5.22395 0
26.2422 -2.59509 -4.72075 0
26.3312 -2.92474 -4.34224 0
26.2856 -2.33692 -4.15414 0
24.9495 -3.87906 -4.85802 0
25.3676 -3.49661 -4.98906 0
23.874 -4.67044 -4.28204 0
24.3883 -4.24492 -4.53146 0
25.3308 -4.40139 -4.64871 0
25.4983 -4.76712 -4.18044 0
25.8761 -4.37225 -4.33942 0
26.4277 -3.51561 -4.5443 0
26.0756 -3.03836 -3.33484 0
26.0502 -3.58664 -4.87576 0
26.2932 -4.00299 -4.55809 0
26.1448 -4.14587 -3.69071 0
25.8476 -3.08438 -2.09745 0
25.985 -2.59633 -1.83679 0
25.9227 -4.20035 -2.6376 0
25.8765 -3.6409 -2.4087 0
25.8187 -3.2249 -1.04039 0
25.0561 -3.2438 -0.189583 0
25.1016 -2.75648 0.127586 0
22.8213 -5.43073 -3.92002 0
23.3852 -5.12148 -4.15537 0
21.7628 -5.8306 -3.99761 0
22.3002 -5.56123 -3.73941 0
23.5929 -6.13867 -4.21128 0
24.3745 -6.74006 -3.96363 0
24.638 -6.37986 -4.06865 0
20.7483 -6.29281 -4.95142 0
21.2464 -6.09144 -4.41755 0
20.2297 -6.30048 -5.54535 0
21.7206 -6.93853 -5.02386 0
23.133 -7.76116 -4.3203 0
23.9467 -6.97907 -3.88593 0
25.0555 -7.22957 -3.77233 0
22.6484 -6.45156 -4.04666 0
23.5595 -7.44007 -4.01124 0
24.2709 -8.06041 -3.99414 0
25.2507 -7.21443 -3.41982 0
25.3016 -6.64363 -3.06303 0
25.0811 -7.74298 -3.7031 0
25.2562 -7.11116 -2.71714 0
25.1648 -6.37096 -1.26828 0
25.1697 -3.74283 -0.457301 0
24.2932 -3.29422 0.479049 0
26.0546 -4.71357 -2.69063 0
25.8968 -4.25155 -1.54336 0
25.308 -4.24614 -0.661796 0
25.3509 -4.7032 -0.779487 0
24.5436 -4.22192 0.0850471 0
25.1872 -5.26076 -4.20381 0
25.5851 -5.04288 -3.65595 0
24.5063 -5.41508 -4.41576 0
24.7573 -5.77819 -4.09988 0
25.2196 -6.09006 -3.72571 0
25.9334 -5.2211 -1.79025 0
25.355 -5.10066 -0.874833 0
25.8072 -5.16985 -2.71788 0
25.5772 -5.61618 -2.84957 0
25.3832 -6.08043 -3.00033 0
25.1732 -5.51082 -1.04149 0
24.5315 -4.99948 -0.0753083 0
25.3868 -6.05922 -2.18831 0
25.166 -5.93619 -1.1519 0
24.576 -5.80037 -0.107178 0
23.2018 -3.36696 0.743 0
22.9263 -2.89446 0.84025 0
23.5105 -4.16126 0.709815 0
23.3792 -3.80833 0.637698 0
21.8581 -3.37563 1.09292 0
20.2136 -3.32943 1.49483 0
19.9704 -2.9155 1.44269 0
23.7085 -4.89298 0.834041 0
23.6088 -4.52074 0.751586 0
23.8089 -5.25896 0.931484 0
22.422 -4.79106 1.57193 0
20.8091 -4.37015 2.00639 0
20.446 -3.7328 1.55157 0
18.6702 -2.95779 1.89816 0
22.1692 -4.12271 1.20562 0
20.6387 -4.05727 1.7636 0
19.1446 -3.64934 2.25569 0
17.1897 -2.53405 2.4314 0
16.887 -2.21944 2.22957 0
17.4459 -2.88366 2.61383 0
15.7745 -2.22533 3.1251 0
14.1611 -1.70793 3.74412 0
27.583 7.29892 -7.8197 0
27.4036 6.00893 -7.46908 0
27.5136 6.66886 -7.69421 0
28.6332 6.99721 -7.80156 0
29.4595 6.79997 -7.50724 0
29.6161 7.40686 -7.82762 0
27.1964 4.7213 -7.01086 0
27.2907 5.3349 -7.24383 0
27.0468 3.53983 -6.49162 0
27.0907 4.13979 -6.74014 0
28.0687 4.46515 -6.85342 0
28.861 4.23126 -6.69533 0
29.0038 4.85639 -6.88375 0
29.297 6.19837 -7.14977 0
30.1588 6.63842 -7.23095 0
28.2977 5.77506 -7.17729 0
29.146 5.53802 -6.96082 0
29.7803 5.33684 -6.75846 0
30.6485 6.48765 -6.93285 0
30.8473 7.15128 -7.23977 0
30.2775 5.18414 -6.47905 0
30.5334 5.82078 -6.6901 0
30.7363 6.44598 -6.41205 0
30.3986 6.48056 -5.84792 0
30.7224 7.06734 -6.14984 0
27.0478 2.34017 -6.03339 0
27.0305 2.93312 -6.2139 0
27.1189 1.13213 -6.22429 0
27.0704 1.74557 -6.06977 0
27.8122 2.05287 -6.0122 0
28.2363 1.83904 -6.00601 0
28.4063 2.42062 -5.95405 0
27.1795 0.0773591 -5.99989 0
27.2861 0.537722 -6.28147 0
26.79 -0.921197 -5.72216 0
26.9823 -0.453926 -5.89032 0
27.5511 -0.0365943 -5.72794 0
27.846 -0.069805 -5.38675 0
28.0625 0.292339 -5.73434 0
28.2053 1.16639 -6.35705 0
28.528 1.66805 -5.90739 0
27.7537 0.815122 -6.41675 0
28.1274 0.677845 -6.1623 0
28.2796 0.675903 -5.55957 0
28.7126 1.61812 -5.37742 0
28.8919 2.1292 -5.57718 0
28.4771 0.721955 -4.67683 0
28.5575 1.12826 -5.18884 0
28.686 1.68502 -4.5224 0
28.2835 1.8443 -3.31252 0
28.5985 2.25832 -3.88968 0
30.1387 5.89654 -5.58632 0
29.6638 6.49003 -5.3118 0
29.9597 4.56796 -6.29839 0
30.2062 5.20303 -5.96933 0
29.9462 5.263 -5.35329 0
29.8071 4.61453 -5.12853 0
29.3363 5.2013 -4.9017 0
28.6641 3.59535 -6.50402 0
29.4752 3.99304 -6.56135 0
27.8916 3.25198 -6.35537 0
28.5695 2.97638 -6.2599 0
29.0606 2.75435 -6.15001 0
29.8763 3.90054 -5.6749 0
29.5843 3.98704 -4.91545 0
29.7815 3.89121 -6.18846 0
29.5092 3.25704 -6.04134 0
29.1916 2.66743 -5.83426 0
29.2753 3.33108 -4.70856 0
28.9852 3.92439 -4.31335 0
29.1882 2.68384 -5.24754 0
28.9751 2.75805 -4.32514 0
28.322 2.78244 -3.5711 0
28.8115 6.32268 -5.07198 0
29.0104 6.98182 -5.26422 0
28.4509 5.0137 -4.69187 0
28.6433 5.67264 -4.89787 0
27.7021 6.11259 -5.00054 0
26.503 5.86508 -4.9619 0
26.6645 6.44963 -5.27246 0
27.8925 3.74692 -4.17678 0
28.2108 4.34251 -4.48988 0
27.0711 2.73105 -3.36844 0
27.4885 3.23692 -3.75889 0
26.6059 3.70618 -3.95352 0
25.2289 3.70619 -3.74063 0
25.6783 4.17951 -4.13375 0
26.3178 5.32152 -4.62729 0
25.2118 5.63157 -5.01135 0
27.2958 4.85741 -4.50667 0
26.0185 4.75662 -4.37827 0
24.6863 4.66318 -4.26982 0
23.8964 5.59634 -4.57014 0
24.1134 6.08488 -4.89479 0
23.3091 4.82303 -3.61179 0
23.6517 5.21828 -4.0742 0
22.5157 5.77253 -3.75753 0
21.1279 5.91598 -2.95282 0
21.4093 6.23796 -3.40531 0
26.8147 -1.77317 -5.07741 0
26.8509 -1.43755 -5.59319 0
26.3875 -1.97663 -2.8029 0
26.5677 -1.82399 -3.98255 0
26.8648 -1.27012 -3.67873 0
26.7805 -1.172 -2.26061 0
27.0992 -0.818207 -3.35627 0
25.7682 -2.31572 -0.499635 0
26.2231 -2.12574 -1.58904 0
24.0528 -2.40522 0.63176 0
25.0179 -2.32433 0.160762 0
24.8558 -1.99819 0.150888 0
23.4309 -1.64152 0.832054 0
24.4352 -1.64355 0.233334 0
26.2779 -1.45344 -1.28347 0
25.9738 -1.09158 -1.27378 0
26.1225 -1.79152 -1.50592 0
25.3595 -1.64997 -0.518831 0
23.9994 -1.28597 0.229971 0
24.6125 -0.913096 -0.626145 0
25.6467 -0.766312 -1.23079 0
22.5066 -0.807985 0.791431 0
23.6287 -0.87041 0.15429 0
23.2297 -0.448642 0.082321 0
21.7741 0.123356 0.891551 0
22.9005 -0.00949816 0.157877 0
21.221 -2.46682 1.18727 0
22.7086 -2.44609 0.904436 0
18.0184 -2.25218 1.52635 0
19.6439 -2.45811 1.44787 0
19.275 -1.98401 1.45552 0
17.3913 -1.30974 1.53533 0
18.9054 -1.44877 1.45175 0
15.1494 -1.61146 2.79136 0
16.5098 -1.92567 1.97258 0
13.8766 -1.40217 3.60272 0
13.5758 -1.11238 3.43507 0
13.2713 -0.790228 3.29048 0
15.8916 -1.15419 1.79707 0
15.5987 -0.740908 1.80345 0
16.1504 -1.6154 1.76229 0
14.49 -0.979559 2.48094 0
13.0694 -0.407837 3.2722 0
13.8619 -0.300485 2.421 0
15.2801 -0.270497 1.91621 0
12.7742 -0.064094 3.2412 0
12.6143 0.389811 3.21495 0
12.442 0.883128 3.22694 0
20.3671 0.363002 1.53391 0
19.9279 0.8844 1.59247 0
21.1544 -0.639865 1.19902 0
20.7406 -0.146221 1.27955 0
18.8464 0.605082 1.71232 0
17.3614 0.739663 1.74596 0
16.9534 1.28103 1.85831 0
22.078 -1.62848 1.3179 0
21.6084 -1.1737 1.28303 0
22.4374 -2.0345 1.1095 0
20.4934 -1.56888 1.49055 0
18.5155 -0.872479 1.43448 0
17.7614 0.222657 1.63768 0
15.94 0.681713 1.76389 0
19.6219 -0.466144 1.33139 0
18.136 -0.316196 1.49104 0
16.7013 -0.274053 1.62123 0
14.6556 0.651326 2.0188 0
14.288 1.08394 2.03918 0
14.9875 0.210995 2.01869 0
13.4456 0.651475 2.48299 0
12.1358 1.22581 3.02775 0
17.9084 1.70243 1.75524 0
19.3854 1.40718 1.4745 0
15.2002 1.65213 1.80942 0
16.5516 1.82626 1.94443 0
16.0582 2.36191 1.65237 0
14.5599 2.66276 1.96036 0
15.6677 2.89295 1.66801 0
13.0053 1.49844 2.53777 0
14.0491 1.53421 2.06213 0
11.9288 1.66112 3.05739 0
11.861 2.03296 3.30197 0
11.7744 2.46539 3.6531 0
13.6618 2.48526 2.52459 0
13.4886 2.96479 2.78659 0
13.7952 2.03866 2.14606 0
12.7595 2.3652 3.14405 0
11.6698 2.9746 3.50988 0
12.5796 3.37949 3.26041 0
13.4447 3.4686 2.92316 0
11.595 3.48771 3.48871 0
11.6177 3.9113 3.7069 0
11.6087 4.34112 3.85838 0
20.8172 5.62929 -2.51685 0
19.6096 6.01321 -2.26534 0
22.9692 4.45522 -3.11884 0
21.9314 5.08203 -2.7944 0
20.4055 5.32654 -2.04758 0
19.9173 5.07046 -1.58342 0
18.8206 5.38082 -1.49054 0
24.7357 3.22736 -3.39491 0
23.8919 3.81384 -3.3691 0
26.5596 2.2802 -3.00245 0
25.6988 2.74635 -3.1771 0
24.2998 2.79164 -3.01032 0
23.8638 2.37811 -2.62041 0
23.0659 3.01559 -2.48792 0
21.0945 4.45057 -1.85203 0
19.3687 4.79794 -1.08566 0
22.563 4.0854 -2.65864 0
22.1226 3.7121 -2.22592 0
21.6581 3.4467 -1.72909 0
18.7211 4.56676 -0.564463 0
17.8082 4.83576 -0.556427 0
20.9625 3.32383 -1.07915 0
19.7981 3.97245 -0.794934 0
18.0388 4.35781 -0.0227546 0
17.3354 4.18164 0.488659 0
16.5992 4.31013 0.286978 0
27.9198 1.46757 -2.69851 0
27.3552 1.85549 -2.78298 0
28.4332 0.394766 -3.80574 0
28.3477 1.00449 -2.97321 0
27.3111 1.04018 -2.44418 0
26.5429 0.641441 -2.16517 0
26.0887 1.08708 -1.91895 0
27.4645 -0.379892 -5.07838 0
28.0065 -0.0144619 -4.48138 0
26.9951 -0.851658 -5.30447 0
27.1935 -0.641168 -4.48747 0
27.3548 -0.416566 -3.01992 0
27.0016 0.160284 -2.51587 0
25.6962 0.305904 -1.6003 0
27.9343 0.122658 -3.24764 0
27.2382 -0.11856 -2.75999 0
26.4671 -0.497584 -1.95583 0
24.7945 0.0698102 -1.09806 0
24.4299 0.537612 -1.04357 0
25.2573 -0.381921 -1.20982 0
23.8238 -0.125079 -0.665307 0
22.5933 0.493699 0.324988 0
18.1644 3.71985 0.415989 0
16.6277 4.02009 0.998439 0
22.0273 2.63133 -1.28497 0
20.0127 3.2548 -0.349861 0
19.0844 3.34673 0.437405 0
20.0156 2.73973 0.322215 0
18.2582 3.48566 1.14076 0
24.6717 1.90865 -2.40287 0
23.3816 2.08724 -2.10116 0
26.0562 1.8632 -2.59365 0
25.3902 1.47084 -2.16167 0
24.6155 1.0722 -1.79766 0
22.0481 1.99836 -0.508257 0
20.8155 2.07321 0.231114 0
22.8616 2.02139 -1.30238 0
23.4859 1.47653 -1.20897 0
23.9003 0.919803 -1.23338 0
21.5012 1.49403 0.189248 0
19.6426 2.3479 0.908378 0
23.0809 0.84534 -0.568269 0
22.0953 0.982239 0.281614 0
20.8642 1.16366 0.912646 0
15.9457 4.14468 1.59876 0
15.5201 4.4271 1.49235 0
17.0984 3.61966 1.44095 0
16.6709 3.91976 1.69629 0
15.283 4.29214 2.20262 0
14.782 4.48097 2.81685 0
14.4603 4.91868 2.72412 0
18.3198 2.63258 1.33332 0
17.7013 3.1361 1.40997 0
18.83 2.00699 1.37181 0
16.8697 2.89744 1.4176 0
15.2841 3.2948 1.86199 0
15.0476 4.09444 2.71148 0
14.2053 4.58634 3.33235 0
15.9339 3.73021 1.71546 0
15.1754 3.75844 2.28882 0
14.3643 3.64098 2.8466 0
13.4313 4.42579 3.34709 0
13.183 4.83233 3.24033 0
13.4979 3.95999 3.30956 0
12.5141 4.33364 3.43923 0
11.4313 4.59769 3.8476 0
18.1359 5.87539 -1.81215 0
18.4307 6.25435 -2.1014 0
17.382 5.21962 -1.09198 0
17.7941 5.49722 -1.51942 0
16.6876 5.75054 -1.64479 0
15.4977 5.8104 -1.35071 0
15.6771 5.97724 -1.77952 0
16.4364 4.69222 -0.227354 0
16.9471 4.95878 -0.64434 0
15.3345 4.29668 0.575847 0
15.8669 4.42687 0.129115 0
15.2397 4.74557 0.0412428 0
14.2096 4.90999 0.421825 0
14.585 5.0679 -0.0614114 0
15.2957 5.64226 -0.912446 0
14.4812 5.63826 -1.14196 0
16.1091 5.31017 -0.775948 0
14.9661 5.3677 -0.484581 0
13.9541 5.25407 -0.214583 0
13.5485 5.62279 -0.810634 0
13.7168 5.74964 -1.28771 0
13.0994 5.44685 0.144051 0
13.3353 5.47849 -0.352171 0
12.7207 5.75876 -0.420128 0
11.8832 5.85348 -0.122711 0
12.0966 6.066 -0.492207 0
14.4806 4.72326 1.94396 0
14.9265 4.5407 1.28043 0
13.5121 5.09061 2.98449 0
14.0128 4.9335 2.51998 0
13.4889 4.70191 2.20367 0
12.5244 4.78519 2.45315 0
12.9722 4.68176 1.97003 0
12.0927 4.87399 3.42906 0
12.8726 5.00465 3.17495 0
11.239 4.84829 3.83439 0
10.9878 5.04998 3.82189 0
10.7454 5.25004 3.8123 0
12.0004 4.96647 2.84853 0
11.5465 4.95308 2.68859 0
12.4575 4.98173 2.98529 0
11.4329 5.13032 3.31513 0
10.5369 5.55578 3.77762 0
10.8691 5.58764 3.15146 0
11.2657 5.23236 2.54964 0
10.3812 5.93125 3.74181 0
10.2378 6.27667 3.65243 0
10.1202 6.56595 3.48783 0
11.6781 5.68361 0.260055 0
11.148 6.05292 0.172142 0
12.8401 5.43235 0.659927 0
12.2446 5.53121 0.448634 0
11.567 5.80422 0.749766 0
11.4229 5.96031 1.2671 0
10.8893 6.07149 1.06096 0
13.8131 4.7919 0.943146 0
13.3582 5.17449 0.814429 0
14.3362 4.51574 1.04623 0
13.3863 4.64473 1.44237 0
12.4675 4.6804 1.73128 0
11.8381 5.6405 1.44407 0
11.1096 5.93045 1.75873 0
12.56 5.35961 1.12881 0
12.1058 5.0734 1.57068 0
11.6837 5.00283 2.05443 0
10.6747 5.82854 2.24165 0
10.3307 6.06172 2.06021 0
11.0051 5.5238 2.41277 0
10.4831 6.17393 2.85862 0
9.99648 6.82357 3.30689 0
10.4987 6.26775 0.451957 0
10.5872 6.36642 0.0564167 0
10.27 6.26215 1.35649 0
10.4274 6.22726 0.872829 0
9.99487 6.47812 0.718565 0
9.68619 6.81431 1.02698 0
9.58213 6.75012 0.582887 0
9.90049 6.51385 2.45519 0
10.0691 6.30065 1.86812 0
9.76825 6.88569 3.06985 0
9.55318 6.92614 2.82377 0
9.43317 7.10949 2.57336 0
9.77882 6.9163 1.49457 0
9.57161 7.22482 1.40895 0
9.94032 6.62124 1.67646 0
9.63293 6.99938 2.00681 0
9.41055 7.32825 2.33955 0
9.39453 7.51448 1.71404 0
9.37445 7.53063 1.33246 0
9.36566 7.54628 2.13695 0
9.19451 7.86054 2.0472 0
9.12914 8.2581 2.04049 0
20.6224 47.3855 -17.7654 0
20.5864 46.7259 -17.3083 0
20.7262 45.9476 -17.1015 0
21.5918 45.5313 -16.6548 0
20.8989 45.2232 -16.9658 0
21.0708 44.5107 -16.795 0
22.0098 44.0867 -16.2312 0
21.273 43.813 -16.654 0
21.4428 43.1397 -16.4043 0
22.3672 42.8603 -15.5042 0
21.6374 42.4304 -15.9839 0
21.7671 41.615 -15.4682 0
22.6182 41.2022 -14.5017 0
21.9391 40.7509 -14.8851 0
23.6479 41.4066 -14.5689 0
23.8045 40.5154 -14.1839 0
25.1693 39.7908 -14.2027 0
24.3659 39.3851 -13.8565 0
22.2241 39.7667 -14.5687 0
24.6486 38.4591 -13.7749 0
23.4014 39.071 -13.9403 0
22.3751 38.9351 -14.357 0
22.2725 38.3678 -14.3579 0
25.5466 38.2469 -14.133 0
24.867 37.5129 -15.1639 0
23.5228 37.6507 -14.0355 0
21.9737 37.9522 -14.3544 0
24.8569 37.6106 -13.8706 0
24.4637 37.3701 -14.2389 0
23.8351 37.4333 -14.63 0
21.4356 37.6871 -14.265 0
23.0992 37.4254 -14.7862 0
22.3533 37.4466 -14.2875 0
20.8933 37.2958 -14.0787 0
20.7131 36.484 -14.2092 0
21.6471 36.2453 -14.2611 0
20.6913 35.4868 -14.4057 0
23.3077 37.6662 -16.1933 0
22.495 37.145 -14.9606 0
22.0777 36.6255 -15.3165 0
22.1722 36.9674 -17.5978 0
21.5145 36.2689 -15.9011 0
23.0639 37.1918 -18.947 0
22.7062 36.6653 -19.4455 0
23.5392 37.6137 -18.1898 0
24.1179 35.6303 -19.8539 0
22.7533 35.7019 -19.7529 0
20.1023 35.4825 -14.557 0
21.067 35.8959 -16.7806 0
20.7762 35.604 -14.9645 0
19.5364 35.4795 -14.8864 0
19.0523 35.1724 -15.0089 0
22.8194 34.8397 -19.9329 0
21.5915 35.6517 -18.8651 0
25.0757 33.6457 -19.3363 0
24.1257 34.1393 -19.7728 0
22.961 33.9929 -19.8103 0
22.8789 33.3298 -19.4253 0
21.4959 34.1513 -19.4284 0
19.7734 35.1824 -16.2343 0
18.6859 34.9443 -15.2224 0
20.69 35.4605 -17.4552 0
20.3393 34.942 -18.1914 0
19.9739 34.4534 -18.8081 0
18.3107 34.6583 -15.8106 0
19.6334 34.1069 -19.1331 0
18.8265 34.4522 -17.684 0
18.0253 34.2381 -16.3195 0
17.6907 33.8029 -16.8357 0
25.4758 31.9848 -18.4726 0
25.761 31.6353 -17.3451 0
25.3552 31.448 -16.8147 0
24.6916 31.515 -17.4871 0
26.0159 31.1039 -16.4476 0
24.9934 30.9697 -16.649 0
24.6369 30.4466 -16.5488 0
23.9935 30.696 -16.9982 0
18.0947 33.4599 -18.5059 0
17.1897 33.573 -17.5149 0
21.1847 32.9183 -19.4219 0
19.6174 33.3739 -19.1199 0
19.7254 32.5556 -19.0027 0
20.8463 31.9882 -18.8246 0
19.6085 31.9854 -18.7678 0
23.8378 32.7865 -19.1855 0
22.6049 32.7338 -19.3206 0
24.978 32.9097 -19.0927 0
24.6867 32.3639 -18.8238 0
24.3704 31.8316 -18.5952 0
22.0265 31.8664 -18.8851 0
21.7155 31.5518 -18.5597 0
22.32 32.2118 -19.1847 0
23.2457 31.7388 -18.7309 0
24.0233 31.5271 -18.1829 0
22.5744 31.1288 -18.0623 0
21.44 31.1364 -18.3296 0
23.6763 31.2478 -17.7952 0
23.3334 30.8908 -17.469 0
22.879 30.5132 -17.2945 0
16.8943 33.0685 -17.9505 0
19.3569 31.4938 -18.5932 0
18.024 32.2194 -18.5494 0
16.5898 32.3661 -18.3839 0
16.3148 31.7949 -18.4227 0
21.1665 30.7012 -18.1098 0
20.3543 31.0662 -18.3261 0
22.3934 30.2431 -17.0463 0
21.7863 30.4627 -17.5826 0
20.9425 30.1167 -18.089 0
20.7817 29.5062 -18.0448 0
19.9482 30.0137 -18.1061 0
17.3009 31.3346 -18.7229 0
16.1417 31.2212 -18.253 0
19.0918 31.0609 -18.4386 0
18.8752 30.606 -18.2547 0
18.7826 30.085 -17.9983 0
16.1558 30.6172 -18.0544 0
18.6988 29.5934 -17.7843 0
17.3882 30.1502 -18.004 0
16.2231 30.0514 -17.9566 0
16.3261 29.5137 -17.7796 0
17.4963 29.0582 -17.6561 0
16.3775 28.9545 -17.5816 0
19.6753 29.1904 -17.5603 0
18.6499 29.0711 -17.6372 0
18.5672 28.5901 -17.4787 0
19.4085 28.3563 -17.0911 0
18.463 28.0946 -17.2673 0
21.3912 29.3747 -17.417 0
20.6031 29.1697 -17.6725 0
22.9515 30.1171 -16.4611 0
22.0821 29.8441 -16.841 0
21.8951 29.3598 -16.6883 0
22.3373 29.3433 -16.0229 0
21.7349 28.9241 -16.4932 0
20.1886 28.7782 -16.6781 0
20.0113 28.3494 -16.3551 0
20.384 29.0386 -17.1075 0
20.982 28.8838 -16.5678 0
21.6176 28.483 -16.2768 0
20.6555 28.0557 -15.961 0
19.8552 27.9421 -16.0133 0
22.0563 28.4389 -15.6355 0
21.4884 28.05 -16.0249 0
21.3342 27.6818 -15.6809 0
21.7961 27.6118 -15.06 0
21.1989 27.3397 -15.3492 0
25.0162 30.4434 -15.9199 0
24.0359 30.2231 -16.2162 0
24.5848 30.4136 -14.8852 0
22.2939 27.9891 -14.6562 0
22.206 27.582 -14.3133 0
22.5376 28.9096 -15.1765 0
22.4084 28.4388 -14.9252 0
22.7339 28.4433 -14.196 0
23.1528 28.9168 -13.7456 0
23.082 28.4208 -13.4141 0
22.9427 29.771 -15.5441 0
22.718 29.346 -15.3763 0
23.3796 30.0695 -15.8223 0
23.6805 30.1757 -15.1793 0
23.9893 30.2544 -14.5947 0
23.3337 29.4252 -14.0544 0
23.722 29.2189 -13.5412 0
23.0444 29.4252 -14.7477 0
23.5677 29.9549 -14.3424 0
24.248 28.8809 -13.1912 0
22.6116 27.5287 -13.4859 0
22.1557 27.1754 -13.9377 0
23.5531 28.2085 -12.7883 0
23.0445 27.9192 -13.039 0
23.0723 27.3956 -12.6297 0
23.7673 27.0467 -12.1126 0
23.1814 26.7983 -12.2497 0
24.1642 28.3763 -12.7884 0
24.4637 27.2421 -12.1954 0
24.6295 26.7228 -11.8432 0
24.2752 27.8364 -12.479 0
25.0986 27.438 -12.2181 0
25.4753 26.532 -11.473 0
24.8526 26.2628 -11.5297 0
26.0173 26.5879 -10.7875 0
26.1212 26.2779 -10.3109 0
16.4018 28.4074 -17.3312 0
18.397 27.5775 -16.9491 0
17.4026 28.0019 -17.1602 0
16.3668 27.922 -17.1303 0
16.3337 27.4436 -16.8319 0
19.722 27.4668 -15.6552 0
19.1731 27.4292 -16.4105 0
21.0685 26.9537 -14.9576 0
20.3712 27.2576 -15.2569 0
19.5947 27.0151 -15.297 0
19.5023 26.5539 -14.9567 0
18.9501 26.5569 -15.6757 0
17.2676 27.057 -16.5367 0
16.3324 27.0105 -16.5386 0
18.3146 27.1072 -16.6123 0
18.2438 26.6655 -16.2677 0
18.1897 26.2435 -15.9069 0
16.3405 26.5824 -16.206 0
18.1037 25.8216 -15.5305 0
17.2257 26.1986 -15.8517 0
16.3128 26.1466 -15.8316 0
16.2575 25.6943 -15.4604 0
22.1476 26.672 -13.4639 0
21.6263 26.8314 -14.3012 0
23.3262 26.1705 -11.9063 0
22.7003 26.4418 -12.6321 0
22.1895 26.1047 -12.9866 0
22.3175 25.439 -12.7927 0
21.6534 25.7616 -13.3509 0
25.1182 25.6865 -11.2211 0
24.1856 25.9048 -11.5536 0
25.9314 26.0864 -9.68901 0
25.7936 25.6905 -10.5826 0
25.3237 25.1755 -10.8 0
25.2732 24.8146 -10.3903 0
24.4636 24.9365 -10.989 0
23.0442 25.1924 -12.2719 0
22.51 24.8028 -12.9202 0
23.5623 25.5489 -11.6922 0
23.7048 25.035 -11.6033 0
23.6943 24.6798 -11.371 0
22.5822 24.2173 -12.9409 0
21.9235 24.3037 -13.2585 0
23.6166 24.3411 -11.0205 0
23.1102 24.3215 -12.0661 0
22.4695 23.8834 -12.7136 0
22.3605 23.4808 -12.3995 0
21.8525 23.1565 -13.0165 0
17.0842 25.2594 -15.0779 0
16.1753 25.1921 -15.0656 0
18.7569 25.6362 -14.9069 0
18.0062 25.3446 -15.1097 0
17.9172 24.8767 -14.6097 0
18.7105 24.5314 -14.0217 0
17.8467 24.3534 -14.0378 0
20.1782 26.3775 -14.4684 0
19.4398 26.0376 -14.5957 0
20.9754 26.5635 -14.4908 0
20.963 26.0346 -14.0509 0
21.0363 25.3837 -13.6824 0
19.5191 24.7737 -13.9001 0
19.5314 24.0801 -13.5334 0
19.4154 25.4558 -14.2141 0
20.2629 25.1136 -13.7524 0
21.1411 24.6146 -13.4833 0
20.4183 23.5036 -13.4505 0
19.5049 23.3132 -13.2678 0
21.2621 23.7216 -13.524 0
21.2592 22.9834 -13.4309 0
21.1679 22.4317 -13.1752 0
16.0926 24.6847 -14.7196 0
17.7825 23.7162 -13.7954 0
16.9299 24.2334 -14.1779 0
16.015 24.1286 -14.4069 0
15.9026 23.5641 -14.1482 0
19.4 22.6036 -13.1421 0
18.6109 23.1442 -13.4849 0
21.0402 21.7884 -12.9205 0
20.2021 22.213 -13.0355 0
19.1763 21.9 -13.0977 0
18.8786 21.313 -12.844 0
18.1997 21.8188 -13.2872 0
16.7294 22.9636 -13.8794 0
15.7598 22.9959 -13.8968 0
17.7002 22.9852 -13.7887 0
17.4934 22.3715 -13.6333 0
17.2247 21.8077 -13.3984 0
15.4958 22.4187 -13.6897 0
16.8842 21.5112 -13.0094 0
16.2127 21.8211 -13.4392 0
15.1816 21.8485 -13.4986 0
14.8252 21.2682 -13.1764 0
25.9753 26.5215 -8.66971 0
25.6355 26.2626 -7.29643 0
25.4484 25.8838 -6.30713 0
27.196 25.2845 -5.81453 0
25.8119 25.5391 -5.98362 0
27.564 24.9313 -5.99984 0
27.9399 24.5364 -6.24643 0
26.4911 24.889 -6.02856 0
29.3342 24.1404 -6.75635 0
28.2302 24.1683 -6.75034 0
28.4592 23.7706 -7.21653 0
27.0437 24.1306 -6.54766 0
29.6126 23.3406 -7.05867 0
28.5773 23.2945 -7.5426 0
28.6236 22.8144 -7.86718 0
27.353 22.9876 -7.19788 0
29.5458 22.4436 -7.29571 0
28.5785 22.207 -8.02937 0
28.4834 21.614 -8.20811 0
27.3244 21.9954 -7.88836 0
15.4988 21.0071 -12.7085 0
14.4387 20.6276 -12.8881 0
17.5806 21.1398 -12.425 0
16.5252 21.3454 -12.5468 0
16.1499 20.8567 -12.2796 0
16.7755 20.7751 -11.8618 0
15.7459 20.3603 -12.0665 0
19.5865 21.0032 -12.2621 0
18.6187 20.9386 -12.2988 0
21.5221 22.0951 -12.1588 0
20.6715 21.2107 -12.2637 0
20.3268 20.988 -11.6721 0
20.865 21.7291 -11.036 0
19.9365 21.1618 -11.1202 0
17.7679 21.2004 -11.658 0
17.3742 21.0188 -11.1744 0
18.229 20.9701 -11.9342 0
18.8359 21.1301 -11.3996 0
19.4973 21.5198 -10.628 0
17.9954 21.4273 -10.3943 0
16.9349 20.9661 -10.6598 0
19.9715 22.3291 -9.88118 0
19.06 21.9133 -10.1143 0
18.622 21.8441 -9.70116 0
19.0965 22.3273 -9.0204 0
18.1648 21.7716 -9.34769 0
22.7783 23.5845 -11.2112 0
22.1263 23.0338 -11.9079 0
24.2026 24.2644 -10.1826 0
23.4129 24.0342 -10.5229 0
23.245 23.7845 -10.1153 0
23.8045 23.7879 -9.22415 0
23.098 23.596 -9.78362 0
25.353 25.2401 -9.45626 0
25.0499 24.5076 -9.88162 0
25.6484 25.9712 -9.04954 0
25.4953 25.8039 -8.35628 0
25.3008 25.6307 -7.6887 0
24.4784 24.1442 -8.65878 0
24.2252 23.9737 -8.20937 0
24.7639 24.3132 -9.27544 0
24.9452 24.8718 -8.16131 0
25.1984 25.2832 -7.08747 0
24.6359 24.4366 -7.20888 0
23.9189 23.9306 -7.84081 0
25.2465 25.0214 -6.70963 0
25.0467 25.1221 -6.51419 0
24.9922 25.0616 -6.41171 0
19.9426 22.8962 -8.72546 0
19.5724 22.6704 -8.2963 0
20.8171 22.8636 -9.70063 0
20.3749 22.9069 -9.19001 0
20.7799 23.2032 -8.49137 0
21.573 23.5272 -8.17882 0
21.2048 23.4551 -7.83426 0
21.6539 22.505 -10.8858 0
21.2741 22.6073 -10.3097 0
21.8946 22.6918 -11.3922 0
22.4143 23.0921 -10.3512 0
22.7771 23.5236 -9.35187 0
21.9719 23.5768 -8.50737 0
22.2777 23.9796 -7.56532 0
21.6246 23.2079 -9.33443 0
22.377 23.5412 -8.90626 0
23.1559 23.641 -8.39496 0
23.0933 24.334 -7.08832 0
22.8629 24.3176 -6.90533 0
23.5413 24.1266 -7.47523 0
24.0622 24.6659 -6.76357 0
25.1429 24.8431 -6.35429 0
20.0443 22.9389 -7.64223 0
19.2426 22.3839 -7.88348 0
21.6955 23.8458 -7.13249 0
20.8347 23.3718 -7.44853 0
20.5122 23.1854 -7.07973 0
21.1931 23.3463 -6.70575 0
20.3014 22.8371 -6.73729 0
23.8251 24.5566 -6.49359 0
22.5782 24.286 -6.71059 0
25.1379 24.8026 -6.18852 0
25.3284 24.446 -6.3132 0
25.5501 23.9684 -6.28591 0
22.2352 23.8403 -6.43817 0
22.1435 23.4677 -6.30985 0
22.3671 24.1458 -6.55946 0
23.88 23.8203 -6.33909 0
25.7139 23.3014 -6.44151 0
23.9625 22.9431 -6.58854 0
22.0961 23.0645 -6.31015 0
25.7596 22.8432 -6.72801 0
25.757 22.4693 -7.23922 0
25.7576 21.827 -7.77682 0
13.9299 20.0422 -12.5663 0
15.3237 20.163 -11.5672 0
14.5754 19.8862 -12.1824 0
13.4254 19.5308 -12.2204 0
13.0459 19.6705 -11.652 0
16.4657 21.1128 -10.2163 0
15.9488 20.4986 -10.8917 0
17.7081 21.7943 -8.97368 0
17.0507 21.6091 -9.57955 0
15.9755 21.34 -9.79932 0
15.6198 21.294 -9.3362 0
15.0875 20.8347 -9.94456 0
13.738 19.9226 -11.1353 0
12.7224 19.9939 -10.997 0
14.8939 20.1017 -11.068 0
14.4743 20.3052 -10.5389 0
14.0918 20.5118 -10.0002 0
12.4254 20.2711 -10.3243 0
13.6951 20.4254 -9.40458 0
13.0323 20.2908 -9.96006 0
11.7933 20.332 -9.821 0
11.2996 20.3439 -9.32661 0
18.8883 22.202 -7.60413 0
18.3225 21.9868 -8.28049 0
20.0565 22.4917 -6.48568 0
19.4997 22.3296 -7.08043 0
18.6158 21.9447 -7.54799 0
18.3013 21.7774 -7.33272 0
17.5932 21.7285 -7.81259 0
22.1087 22.4656 -6.59587 0
20.8665 22.5189 -6.30747 0
25.7203 21.1448 -8.12599 0
23.9351 21.8074 -7.74615 0
22.1857 21.6825 -7.21806 0
22.064 21.0879 -7.49383 0
20.7563 21.4075 -7.1837 0
18.99 21.7024 -7.04575 0
18.0211 21.5589 -7.20675 0
19.9189 22.0395 -6.70459 0
19.7704 21.6404 -6.79352 0
19.6347 21.1969 -7.29615 0
17.9786 21.1717 -7.16923 0
17.1118 21.3507 -7.38498 0
19.5774 20.9011 -7.9304 0
18.7318 21.1145 -7.70745 0
17.8909 20.9197 -7.91903 0
17.8759 20.3848 -8.58299 0
17.1151 20.4127 -8.01138 0
12.1569 20.1886 -9.05379 0
10.8426 20.4725 -8.79858 0
14.3475 20.635 -8.8753 0
13.2936 20.3673 -8.953 0
12.9578 20.2306 -8.69269 0
13.7391 20.3291 -8.31614 0
12.5558 20.0663 -8.40826 0
16.2192 21.5788 -8.76033 0
15.2654 21.1717 -8.87804 0
17.2719 21.7363 -8.6305 0
16.9081 21.6782 -8.24744 0
16.5502 21.5602 -7.95599 0
14.6449 20.9218 -8.096 0
14.3961 20.6897 -7.90266 0
14.9301 21.0578 -8.42391 0
15.547 21.4751 -8.01573 0
16.2626 21.5277 -7.5781 0
15.2807 20.7068 -7.69134 0
14.3152 20.0732 -7.97402 0
16.1496 21.2413 -7.49078 0
16.2813 20.4717 -7.53283 0
16.207 19.9098 -8.19428 0
10.3715 20.3925 -8.41954 0
12.1929 19.8252 -8.20996 0
11.2717 20.0395 -8.29294 0
10.0078 20.3145 -8.02291 0
9.6859 19.982 -7.72436 0
14.1349 19.6418 -8.10451 0
13.176 19.7471 -8.14776 0
16.0259 19.2751 -8.78026 0
15.0946 19.4179 -8.40691 0
13.9476 19.0553 -8.48351 0
13.7585 18.4422 -8.81869 0
12.8412 18.713 -8.44818 0
10.7248 19.408 -7.84042 0
9.44232 19.5814 -7.36871 0
11.942 19.4106 -8.09773 0
11.7893 18.9376 -8.12481 0
11.8697 18.4822 -8.13338 0
9.53419 19.0866 -7.24515 0
11.6684 17.9411 -8.42823 0
10.8322 18.4558 -7.68276 0
9.68616 18.5523 -7.17694 0
9.76086 18.0021 -7.45529 0
10.5924 17.306 -8.30603 0
9.77057 17.4706 -7.62742 0
12.3886 17.6457 -9.03986 0
11.4874 17.3971 -8.74699 0
11.2614 16.9838 -8.57468 0
11.9311 16.9017 -8.58935 0
10.9601 16.4505 -8.62945 0
14.6604 18.1892 -9.16277 0
13.486 17.9035 -9.1426 0
16.8621 19.1805 -9.1339 0
15.7827 18.6667 -9.17029 0
15.5547 18.0498 -9.31587 0
16.4391 17.936 -9.36681 0
15.3513 17.6104 -9.21259 0
13.0564 17.1643 -8.79981 0
12.8154 16.7343 -8.54976 0
13.3018 17.5123 -9.05097 0
14.2658 17.4463 -8.91159 0
15.1353 17.2445 -8.99601 0
13.8267 16.5002 -8.45908 0
12.6291 16.2929 -8.26734 0
16.0339 16.8525 -9.11525 0
14.9466 16.6923 -8.75129 0
14.7458 16.1462 -8.50121 0
15.6746 16.257 -8.31945 0
14.6086 16.0793 -7.9565 0
18.6171 20.2772 -8.94436 0
17.7647 19.8236 -9.14358 0
20.5455 20.5899 -8.03017 0
19.4918 20.5246 -8.42625 0
19.4348 19.9265 -8.67606 0
20.3516 19.4795 -8.29183 0
19.3438 19.3248 -8.79263 0
23.6736 20.6761 -8.05778 0
21.8979 20.5685 -7.70385 0
27.0772 20.7157 -8.07858 0
25.6048 20.6514 -8.11314 0
25.3747 20.0995 -7.98194 0
26.5755 19.7702 -7.79582 0
24.9766 19.5849 -7.81199 0
21.5303 19.5016 -7.80452 0
21.3999 19.0604 -7.68195 0
21.7144 19.9991 -7.75597 0
23.1695 19.4563 -7.83772 0
24.5135 19.1774 -7.61555 0
22.5545 18.6859 -7.40172 0
21.2751 18.6693 -7.50117 0
25.6635 18.9851 -7.38474 0
24.0328 18.7893 -7.43874 0
23.6684 18.3709 -7.33589 0
24.9143 18.1289 -7.27332 0
23.474 17.8865 -7.27507 0
16.8471 16.2745 -8.4625 0
16.656 16.263 -7.94449 0
17.1782 17.3278 -9.01305 0
16.9867 16.7463 -8.81223 0
18.0073 16.7886 -8.36897 0
19.0831 17.1882 -8.28164 0
19.0007 16.7042 -8.07962 0
17.5081 18.3696 -9.38462 0
17.3078 17.8444 -9.34004 0
17.6455 19.0762 -9.35625 0
18.4389 18.8773 -9.27201 0
19.276 18.693 -8.76098 0
19.1229 17.6778 -8.43281 0
20.0895 17.5163 -8.04646 0
18.2312 17.7613 -8.98121 0
19.2135 18.1671 -8.6547 0
20.1986 18.5116 -8.11431 0
21.1407 17.7331 -7.56496 0
21.1022 17.2236 -7.69625 0
21.1778 18.2292 -7.41581 0
22.2348 17.823 -7.24707 0
23.3368 17.3827 -7.24279 0
17.6984 16.1268 -7.50363 0
16.5315 16.1583 -7.36376 0
19.9996 16.5285 -7.87496 0
18.8709 16.2708 -7.72726 0
18.745 15.984 -7.24109 0
19.7752 15.65 -7.13543 0
18.6236 15.6061 -6.82633 0
22.0972 16.9166 -7.40909 0
21.0815 16.6999 -7.75181 0
24.5389 17.2341 -7.08444 0
23.2374 16.9884 -7.23177 0
23.1493 16.6044 -7.13552 0
24.2975 16.4485 -6.79232 0
23.1806 16.0466 -7.23252 0
21.0451 15.7413 -7.42186 0
20.9162 15.3782 -6.8196 0
21.1213 16.1071 -7.91476 0
22.217 15.7277 -7.76502 0
23.1743 15.4284 -7.21843 0
21.978 15.1428 -6.44557 0
20.7535 14.8744 -6.42608 0
24.186 15.3151 -6.60546 0
23.0747 15.1379 -6.66022 0
22.9715 14.9394 -6.14793 0
24.0051 14.7642 -5.78686 0
22.8385 14.5301 -5.73379 0
29.284 21.4337 -7.47515 0
28.296 21.0639 -8.14421 0
25.1351 15.0894 -5.4946 0
25.073 14.5498 -5.3579 0
25.3421 15.9363 -6.11779 0
25.2203 15.4342 -5.84504 0
26.2564 15.3163 -5.46553 0
27.3519 15.4033 -5.70635 0
27.1822 15.0005 -5.47218 0
25.6123 16.8042 -6.6823 0
25.4486 16.4282 -6.32983 0
25.9533 17.5174 -7.08554 0
25.7704 17.1727 -6.91583 0
26.8111 16.943 -6.5686 0
27.9661 17.094 -6.29448 0
27.773 16.6385 -6.24403 0
27.4716 15.8181 -5.93851 0
28.2965 15.653 -5.58331 0
26.4956 16.186 -6.0291 0
27.6042 16.2099 -6.10406 0
28.5069 16.5328 -5.68984 0
29.1483 16.011 -5.26422 0
29.054 15.4714 -5.36405 0
26.4402 18.2911 -7.21293 0
26.1537 17.8583 -7.22281 0
27.1126 19.1345 -7.40268 0
26.7657 18.7458 -7.18436 0
27.8555 18.4548 -6.96126 0
28.723 18.298 -6.41935 0
27.7726 20.0358 -7.81935 0
27.502 19.5244 -7.60327 0
28.032 20.5465 -7.99845 0
28.8293 20.402 -7.37691 0
28.4531 19.2539 -7.3703 0
28.1712 17.5292 -6.3069 0
27.2023 17.6842 -6.77859 0
26.0837 14.3097 -5.10356 0
24.9822 14.0715 -5.14686 0
28.0236 14.7149 -5.40732 0
27.0497 14.5542 -5.25729 0
27.0408 14.0453 -4.97042 0
27.9138 13.7211 -4.98833 0
27.0404 13.5378 -4.66387 0
28.9655 14.8699 -5.53993 0
28.674 13.8477 -5.53623 0
28.69 13.3466 -5.26918 0
28.8109 14.3875 -5.46449 0
29.4761 14.0564 -5.62882 0
29.4356 13.0384 -5.59899 0
28.7259 12.8669 -5.03971 0
30.1176 13.26 -5.91189 0
30.2305 12.7669 -5.93153 0
30.6 12.3792 -6.54128 0
30.2647 12.2448 -6.01431 0
30.7677 11.3588 -7.07719 0
9.67367 17.0342 -7.61334 0
10.7971 16.0854 -8.36137 0
10.1327 16.3021 -8.37413 0
9.74069 16.8419 -7.3049 0
9.79315 16.7124 -6.75549 0
12.4894 15.9412 -7.88422 0
11.5248 16.055 -8.11074 0
14.4891 15.801 -7.44802 0
13.5544 15.7983 -7.65675 0
12.6056 15.6726 -7.39327 0
12.6527 15.3699 -6.95121 0
11.8306 15.6017 -7.07382 0
10.3582 16.2712 -7.03419 0
9.7047 16.3992 -6.31335 0
10.942 16.1283 -7.63217 0
11.0797 15.9289 -7.08676 0
10.9697 15.6575 -6.52041 0
9.5122 16.0606 -5.84308 0
10.8625 15.2163 -6.11405 0
10.0709 15.6749 -5.97043 0
9.27233 15.6516 -5.46216 0
9.10613 15.3005 -5.02158 0
16.3997 15.735 -6.82772 0
15.3817 15.8148 -7.17888 0
18.4963 15.0983 -6.46829 0
17.4877 15.5453 -6.51971 0
16.295 15.2404 -6.4331 0
16.1951 14.7024 -6.03051 0
15.1936 14.8985 -6.30975 0
20.6127 14.4162 -5.9862 0
19.5012 14.5455 -6.50469 0
22.7299 14.0906 -5.48278 0
21.691 14.3108 -5.52067 0
20.5013 13.9361 -5.61695 0
20.3909 13.4613 -5.26733 0
19.311 13.5757 -5.77814 0
17.2564 14.4304 -5.89387 0
16.0754 14.1074 -5.77996 0
18.4155 14.592 -6.0726 0
18.3018 13.974 -5.86664 0
18.178 13.4583 -5.56625 0
16.0091 13.5598 -5.4647 0
15.0091 13.7566 -5.68145 0
18.0558 12.9277 -5.30111 0
17.0374 13.2514 -5.42013 0
15.8932 12.9756 -5.18877 0
15.7524 12.4245 -4.95275 0
14.7608 12.6497 -5.10044 0
9.73473 14.8937 -5.11886 0
8.92573 15.0131 -4.57437 0
11.6593 14.7108 -6.32299 0
10.6717 14.8059 -5.70639 0
10.4652 14.4251 -5.29214 0
11.2944 13.9411 -5.47263 0
10.255 14.0726 -4.90613 0
13.4571 15.1868 -6.79558 0
12.5628 14.9087 -6.61663 0
14.3908 15.4324 -6.97856 0
14.3011 15.0792 -6.57688 0
14.1848 14.4784 -6.2674 0
12.2635 13.8875 -6.0041 0
12.111 13.4473 -5.60808 0
12.4313 14.3447 -6.3486 0
13.198 14.033 -6.29272 0
14.0419 13.8022 -6.0896 0
12.9047 12.9834 -5.61537 0
11.9491 13.0103 -5.19025 0
13.9327 13.2524 -5.76145 0
13.7797 12.7407 -5.39198 0
13.6098 12.2325 -5.09298 0
8.9107 14.8688 -4.01552 0
10.0727 13.6868 -4.50216 0
9.51982 14.3369 -4.215 0
9.01916 14.7971 -3.35267 0
8.89205 14.4287 -2.93096 0
11.7821 12.5908 -4.75677 0
10.9572 13.1326 -4.6446 0
13.4205 11.8232 -4.6832 0
12.5735 12.1356 -4.78117 0
11.6243 12.1839 -4.33772 0
11.4826 11.7717 -3.95709 0
10.6374 12.3215 -3.81372 0
9.26579 13.6846 -3.27584 0
8.84415 14.0514 -2.50523 0
9.90313 13.2965 -4.07862 0
9.76636 12.9102 -3.65411 0
9.6164 12.5467 -3.24452 0
8.87131 13.6941 -2.15223 0
9.53618 12.2289 -2.84749 0
9.06668 12.9753 -2.52981 0
9.08211 13.3562 -1.7918 0
9.17319 12.9505 -1.542 0
24.8656 13.5399 -5.02294 0
23.7985 13.8626 -5.32201 0
26.9608 13.0154 -4.5965 0
25.9124 13.2467 -4.73868 0
24.7308 13.0036 -4.84198 0
24.6455 12.4184 -4.72313 0
23.5313 12.8104 -4.87727 0
28.7213 12.3643 -5.01735 0
27.9029 12.728 -4.69584 0
30.2574 11.7077 -6.11643 0
29.4649 12.018 -5.56545 0
28.6077 11.8278 -5.35249 0
28.4669 11.2855 -5.76907 0
27.6846 11.6589 -5.29895 0
25.8022 12.0873 -4.63302 0
24.6084 11.8003 -4.64826 0
26.9069 12.523 -4.62869 0
26.8537 11.9374 -4.78012 0
26.6679 11.3821 -5.3884 0
24.5829 11.201 -4.53818 0
23.3626 11.5791 -4.55965 0
26.5884 10.8089 -5.62778 0
25.7386 10.9477 -4.81207 0
24.5714 10.6585 -4.47318 0
24.4695 10.1053 -4.44353 0
23.2044 10.4446 -4.15258 0
30.781 10.7147 -6.94786 0
30.5576 11.2359 -6.58578 0
30.2192 9.65586 -7.51029 0
30.5158 10.1943 -7.23727 0
30.8368 10.0555 -6.95015 0
30.8996 9.40197 -6.9875 0
30.5803 9.98578 -6.67686 0
29.7582 9.19715 -7.65577 0
28.4246 8.37229 -7.78241 0
29.4615 8.13009 -7.77272 0
30.463 7.92346 -7.73135 0
30.8644 8.92202 -7.26114 0
31.1181 8.85628 -6.9655 0
30.524 9.03071 -7.5272 0
30.9562 8.43285 -7.5422 0
31.0078 7.82502 -7.4285 0
31.4032 8.34053 -6.91223 0
30.7527 8.84329 -6.68989 0
31.2673 7.78703 -7.1002 0
31.1558 7.73179 -6.57001 0
30.3599 7.67693 -5.90642 0
25.4947 9.82954 -5.12892 0
24.267 9.57377 -4.63577 0
27.4012 10.5074 -6.17147 0
26.484 10.1666 -5.85763 0
26.3203 9.60272 -5.92223 0
27.2211 9.35815 -6.05858 0
26.1806 9.01991 -5.65607 0
29.3293 10.9161 -6.01405 0
28.3522 10.7343 -6.15344 0
30.2603 11.1353 -6.21531 0
30.218 10.5526 -6.28765 0
30.1636 9.95088 -6.3455 0
28.2202 9.65936 -6.2125 0
28.1189 9.10421 -5.9891 0
28.2379 10.1774 -6.4311 0
29.1247 9.78599 -6.42302 0
30.0431 9.34326 -6.42078 0
28.97 8.68979 -5.9 0
27.8792 8.40925 -5.83851 0
29.9593 8.80488 -6.08265 0
29.8382 8.22188 -5.77096 0
29.4363 7.60017 -5.52497 0
24.0031 9.02132 -4.78989 0
22.8908 9.33846 -4.08957 0
25.8191 8.44459 -5.79251 0
24.8992 8.75057 -5.52332 0
23.6237 8.49304 -4.983 0
23.2291 7.95361 -4.7957 0
22.2707 8.33407 -4.07494 0
27.5538 7.72632 -5.79215 0
26.7042 8.07814 -5.84546 0
28.3101 7.37505 -5.49631 0
27.1194 7.10313 -5.53732 0
25.8552 6.77665 -5.60987 0
24.0536 7.57566 -5.47306 0
22.8154 7.41914 -4.6525 0
25.4309 7.78351 -5.88509 0
25.0007 7.16975 -5.62189 0
24.5332 6.57179 -5.30472 0
22.3677 6.95252 -4.49574 0
21.4667 7.38104 -4.03353 0
23.221 6.54522 -4.75106 0
21.9068 6.56428 -3.97765 0
20.4373 6.69485 -3.08332 0
9.09529 12.2394 -1.95915 0
9.34063 12.4904 -1.42593 0
10.3104 11.5647 -3.13223 0
9.46282 11.9247 -2.43367 0
9.47472 11.5655 -2.16309 0
10.1301 10.8772 -2.4408 0
9.50575 11.2285 -1.8692 0
12.2747 11.3158 -4.08469 0
11.3413 11.3534 -3.68885 0
14.3908 11.6554 -4.4913 0
13.232 11.3715 -4.39514 0
13.0862 10.9349 -4.1382 0
14.0196 10.7874 -3.88076 0
12.9145 10.5217 -3.83759 0
11.1014 10.5575 -3.14446 0
11.0386 10.1681 -2.87432 0
11.1994 10.9538 -3.42011 0
11.9873 10.4948 -3.52898 0
12.7491 10.0906 -3.56925 0
11.7583 9.67187 -3.02296 0
10.9794 9.76623 -2.64896 0
13.6583 9.97047 -3.25834 0
12.5851 9.67218 -3.30943 0
12.4206 9.26181 -3.06082 0
13.3081 9.14191 -2.75481 0
12.237 8.82052 -2.84127 0
16.7308 12.1342 -4.85738 0
15.5939 11.9026 -4.64244 0
19.0437 12.5981 -5.17681 0
17.8833 12.337 -5.099 0
17.7161 11.7876 -4.82937 0
18.7191 11.4041 -4.85505 0
17.5646 11.2943 -4.47813 0
21.4807 13.3386 -4.75286 0
20.2614 12.9702 -4.99119 0
22.6291 13.6103 -5.09774 0
22.4997 13.0811 -4.83778 0
22.3542 12.5124 -4.69631 0
19.947 11.7579 -4.78966 0
19.824 11.2295 -4.5966 0
20.1128 12.392 -4.89413 0
21.1922 12.1879 -4.55593 0
22.2573 11.8862 -4.55034 0
20.9383 11.0896 -4.23083 0
19.6522 10.7018 -4.33625 0
22.1487 11.3248 -4.36215 0
22.029 10.7861 -4.16281 0
21.851 10.3107 -3.99557 0
14.3245 9.41788 -2.74973 0
14.1301 8.97146 -2.54093 0
14.705 10.1631 -3.40219 0
14.5118 9.77896 -3.07694 0
15.329 9.35512 -3.25631 0
16.4841 9.40584 -3.57476 0
16.2136 9.06458 -3.29104 0
15.1465 10.9643 -4.05625 0
14.9348 10.5885 -3.67633 0
15.3745 11.4368 -4.31462 0
16.3509 11.1541 -4.19443 0
17.3366 10.8082 -4.21008 0
16.7905 9.89943 -3.68992 0
17.847 9.62829 -3.57818 0
15.8363 10.241 -3.66926 0
17.0649 10.343 -3.93348 0
18.3468 10.4061 -4.27917 0
19.1951 9.86818 -3.75469 0
18.9232 9.36053 -3.62437 0
19.4401 10.2481 -4.15345 0
20.5312 10.1512 -3.94284 0
21.6447 9.80817 -3.94313 0
14.8973 8.63839 -2.61047 0
13.9319 8.51846 -2.32131 0
17.2259 8.90305 -3.1635 0
15.9577 8.74441 -2.92181 0
15.671 8.3309 -2.69886 0
16.5673 8.03466 -2.80001 0
15.402 7.88853 -2.47742 0
20.036 9.03663 -3.78532 0
18.5934 9.00514 -3.42093 0
21.4179 9.22953 -3.92882 0
21.1274 8.69923 -3.9127 0
20.8233 8.23514 -3.7521 0
17.8874 8.15271 -3.08311 0
17.4827 7.74175 -2.84195 0
18.257 8.60507 -3.22272 0
19.3678 8.17374 -3.38943 0
20.4645 7.76136 -3.62744 0
18.4538 7.50039 -2.72037 0
17.1187 7.29502 -2.58163 0
19.9746 7.46424 -3.24954 0
19.4495 7.17518 -2.72894 0
18.9128 6.69669 -2.4108 0
9.32224 12.0721 -1.26033 0
9.42624 10.8744 -1.64482 0
8.99769 11.4774 -1.5242 0
9.28516 11.6468 -1.13444 0
9.32148 11.2233 -1.02103 0
10.9416 9.34408 -2.45377 0
10.1272 10.1661 -1.926 0
12.0447 8.3525 -2.63701 0
11.5538 8.80866 -2.59897 0
10.9376 9.02473 -2.12684 0
10.9134 8.72771 -1.74223 0
10.1847 9.4631 -1.43622 0
9.03747 10.7537 -1.10433 0
9.34005 10.8586 -0.809316 0
9.43877 10.5334 -1.42384 0
9.51519 10.165 -1.21585 0
9.50923 9.76578 -0.99092 0
9.27513 10.5579 -0.517461 0
9.44725 9.31702 -0.754835 0
9.19529 10.0033 -0.643242 0
9.31144 10.21 -0.261501 0
9.30433 9.82793 -0.0230238 0
13.7319 8.0718 -2.21634 0
12.9149 8.20982 -2.37243 0
15.0784 7.34292 -2.43251 0
14.4338 7.75411 -2.26708 0
13.518 7.61 -2.12482 0
13.2675 7.19856 -1.91369 0
12.637 7.51096 -1.88083 0
16.668 6.83027 -2.32794 0
15.8953 7.06601 -2.4507 0
17.4863 6.52625 -2.21927 0
16.0976 6.33575 -2.10966 0
14.9748 6.06974 -2.03728 0
13.8298 6.73308 -2.1436 0
13.0081 6.80193 -1.68187 0
14.7096 6.71635 -2.53344 0
14.3614 6.27751 -2.25573 0
14.0079 5.9645 -1.75997 0
12.717 6.50911 -1.30863 0
12.1613 6.81436 -1.38009 0
13.1936 6.1317 -1.28165 0
12.3845 6.25389 -0.879974 0
11.5695 6.37486 -0.602498 0
9.33559 9.17127 -0.142249 0
9.33029 9.42197 0.184662 0
10.1823 8.64667 -0.913617 0
9.45838 8.88214 -0.506797 0
9.56932 8.48445 -0.260993 0
10.0111 7.8628 -0.42983 0
9.45536 8.03342 -0.127824 0
11.4031 8.18224 -1.86949 0
10.8714 8.40954 -1.36651 0
11.887 7.9332 -2.38723 0
11.8294 7.69666 -1.98337 0
11.7625 7.45966 -1.58206 0
10.6324 7.75482 -0.708351 0
10.2434 7.26253 -0.633837 0
10.7907 8.09284 -1.00342 0
11.225 7.63374 -1.11685 0
11.5624 7.15167 -1.31901 0
10.5792 6.82363 -0.800563 0
9.83716 6.79085 -0.549526 0
11.3479 6.8562 -1.04952 0
11.0502 6.62878 -0.709189 0
10.7498 6.45456 -0.3249 0
9.37782 9.0358 0.390915 0
9.41559 7.70412 0.0383728 0
9.32497 8.36282 0.236335 0
9.34284 8.67256 0.541968 0
9.33783 8.42226 0.75536 0
9.68789 6.73519 -0.197235 0
9.57892 7.13997 -0.133903 0
10.108 6.5586 -0.0842941 0
9.5683 6.71741 0.171783 0
9.42286 7.12778 0.578099 0
9.24577 7.84945 0.617439 0
9.33816 8.28975 1.01695 0
9.3545 7.47814 0.247422 0
9.31016 7.46682 0.578509 0
9.30983 7.50097 0.939292 0
9.31819 8.29063 1.35482 0
9.25417 7.87678 1.30224 0
9.17421 8.27408 1.70087 0
11.1923 59.2074 -29.8565 0
11.1217 58.181 -29.5898 0
11.6425 57.9593 -28.6028 0
11.3825 57.365 -28.0335 0
11.161 56.9208 -28.4938 0
11.1657 56.7959 -27.4632 0
11.2003 56.0704 -27.0559 0
11.6794 55.8624 -26.1131 0
11.4656 55.5765 -25.4565 0
11.4783 54.4915 -23.3021 0
11.1752 54.0366 -22.8205 0
11.3558 54.4359 -24.385 0
11.9838 55.4188 -24.421 0
11.8891 54.8502 -23.8776 0
10.7146 52.2817 -21.5882 0
11.3491 52.2056 -20.7358 0
10.7252 52.9468 -22.0131 0
10.8781 53.533 -22.4422 0
13.8288 60.4386 -34.0015 0
13.9575 61.1658 -34.1742 0
14.4134 60.1938 -33.6877 0
14.4086 59.5896 -33.3075 0
15.136 59.3808 -32.9732 0
15.3476 58.7291 -32.4869 0
15.4619 57.9918 -32.0896 0
16.0835 57.9199 -31.7475 0
16.7135 57.8883 -31.4183 0
16.3169 56.5816 -30.918 0
16.8519 57.2834 -30.9321 0
18.0708 53.9312 -28.927 0
18.7372 53.9141 -28.6028 0
17.3912 55.2297 -29.9968 0
16.988 56.6555 -30.4783 0
17.2244 55.9181 -30.2813 0
18.1849 54.4167 -29.4358 0
18.1309 55.1754 -29.7775 0
18.4435 53.6984 -27.9295 0
18.4665 53.0674 -26.0443 0
18.7108 53.417 -26.832 0
19.0501 53.697 -27.5656 0
19.0013 53.3289 -25.4077 0
18.8831 52.8098 -24.8297 0
19.5064 52.025 -23.6764 0
19.5388 52.7199 -24.2613 0
19.5364 51.2914 -23.1488 0
19.5344 50.6062 -22.5433 0
20.1398 50.4587 -21.6213 0
20.1216 49.8403 -20.8667 0
20.1251 49.1555 -20.1312 0
17.0216 41.4686 -10.7308 0
17.1869 41.3964 -10.8013 0
16.7007 41.534 -10.6556 0
16.2887 41.5536 -10.6764 0
15.727 41.792 -10.8559 0
14.9469 42.4344 -11.2118 0
14.5417 43.1075 -12.0163 0
14.1554 43.9356 -12.8029 0
14.02 44.5255 -13.4692 0
12.9269 50.0968 -18.3327 0
12.9447 49.5087 -18.0204 0
12.9835 50.6852 -18.7715 0
11.809 51.6284 -20.4487 0
12.2045 51.0947 -20.1263 0
12.8609 51.1854 -19.1641 0
13.2951 45.3545 -14.9582 0
13.8881 45.088 -14.0504 0
13.3373 45.8673 -15.2928 0
13.3536 46.3991 -15.5957 0
13.3809 46.9635 -15.8527 0
12.8385 48.3918 -17.416 0
13.4512 47.5129 -16.1449 0
13.4767 48.0979 -16.4173 0
12.9628 48.9265 -17.7635 0
17.2809 39.2755 -9.42233 0
17.4148 39.0163 -9.07767 0
17.0037 39.8758 -10.2036 0
17.1325 39.5229 -9.79 0
16.7025 40.6794 -11.0817 0
16.8975 40.316 -10.6733 0
17.4308 41.1553 -10.7464 0
17.6433 40.9093 -10.5396 0
17.7018 38.7428 -8.80287 0
18.9622 33.0841 -7.325 0
19.2966 33.1311 -7.88864 0
19.6218 33.1757 -8.39101 0
18.6703 32.5713 -8.49719 0
19.0329 32.4435 -8.79768 0
19.4918 32.1604 -8.95142 0
18.8253 37.883 -7.34913 0
18.9228 37.8734 -6.82409 0
17.7021 37.4557 -6.96963 0
17.7757 37.3336 -6.75604 0
18.3515 38.2358 -8.14691 0
18.6269 38.0194 -7.76809 0
18.0573 38.4702 -8.51425 0
18.625 33.3552 -6.95323 0
18.3187 33.7408 -6.74412 0
17.9931 34.1319 -6.69631 0
17.7254 34.5918 -6.53489 0
17.2388 35.4149 -6.55888 0
18.3088 35.9319 -6.26387 0
17.4592 35.0386 -6.52033 0
18.1324 36.3578 -6.22927 0
17.9581 36.788 -6.36075 0
17.8005 37.1884 -6.51188 0
19.2321 30.922 -8.86622 0
19.4611 30.6838 -8.48642 0
19.8431 31.8623 -8.91276 0
20.1122 31.6688 -8.7056 0
19.5378 30.5232 -7.57035 0
18.5754 30.0385 -7.70964 0
18.6545 29.8887 -6.6399 0
18.5947 30.0866 -5.47603 0
17.7204 29.5263 -5.70617 0
17.5631 30.0841 -4.43366 0
17.5259 30.4687 -3.22468 0
16.768 29.7657 -3.4874 0
17.644 29.0407 -1.60598 0
18.0034 28.5034 -1.62611 0
17.3069 29.3722 -1.85449 0
16.95 29.6622 -2.42989 0
17.2409 27.9633 -1.84068 0
17.352 21.347 -2.50479 0
17.3887 20.9026 -2.21474 0
17.7304 23.2389 -2.14154 0
17.859 22.7665 -2.22155 0
17.5478 23.6976 -1.89564 0
17.2548 21.8677 -2.53628 0
17.1454 22.369 -2.54122 0
17.2463 24.9495 -1.36593 0
17.3719 24.5541 -1.49656 0
17.1433 25.4381 -1.43045 0
17.6669 27.0582 -1.57067 0
17.9025 26.4966 -1.61843 0
17.447 27.5436 -1.65712 0
17.0257 25.922 -1.65293 0
17.3726 24.1129 -1.48931 0
17.4345 20.4935 -1.93201 0
17.4637 20.0881 -1.60389 0
17.4487 19.6812 -1.23756 0
17.4557 12.8959 -0.105532 0
17.2391 12.5831 0.185604 0
16.9547 13.0561 -0.0627057 0
17.3471 14.0316 -0.0922994 0
17.1396 13.5181 -0.0683744 0
17.3395 15.3073 -0.0580269 0
17.1045 14.782 0.0657148 0
17.4946 15.8512 -0.13161 0
16.8378 14.2274 -0.00767483 0
17.2436 17.6214 -0.451478 0
17.1845 17.1279 -0.32599 0
17.4445 19.2106 -1.00481 0
16.6497 17.7061 -0.650267 0
17.2944 18.1917 -0.498966 0
17.378 18.7085 -0.73284 0
17.635 16.4525 -0.16342 0
17.7505 16.9998 -0.210097 0
16.5423 12.3112 0.278657 0
11.3274 60.45 -29.9312 0
10.9657 61.1062 -30.8174 0
11.1333 62.1703 -31.3599 0
11.5985 63.2707 -31.4912 0
12.4619 64.298 -31.4717 0
12.24 65.8588 -31.9642 0
12.3485 64.7691 -32.2118 0
12.3931 67.5842 -30.28 0
12.6711 66.4612 -30.6639 0
11.9614 68.01 -31.2036 0
13.9349 63.53 -33.7244 0
14.4145 62.7365 -33.8571 0
14.2181 61.9917 -33.9823 0
12.1254 70.3816 -31.6451 0
11.8096 69.3155 -31.7937 0
11.6168 70.2383 -31.3691 0
11.6306 69.019 -33.4143 0
11.6116 70.1533 -33.3562 0
11.3203 70.6689 -32.3579 0
13.7551 64.3372 -33.7695 0
12.6018 66.8518 -33.5119 0
11.847 68.1867 -32.0006 0
11.9328 67.8647 -33.4663 0
13.5294 65.4125 -33.9575 0
19.8779 8.96758 6.12572 0
20.2647 8.54784 6.46263 0
19.6743 9.47176 5.34355 0
19.7543 9.25878 5.72669 0
19.5425 9.57078 4.92736 0
20.3279 9.3417 4.4105 0
20.1253 9.26212 3.92135 0
19.1997 9.46542 3.96883 0
19.0565 9.34047 3.42447 0
19.8594 9.20401 2.99132 0
18.1756 9.4344 2.34651 0
18.2166 9.70524 1.94584 0
18.9824 9.43024 2.53294 0
19.8152 9.29168 2.5769 0
18.3135 10.1939 1.5762 0
18.3824 10.6431 1.20768 0
17.6729 10.856 1.21045 0
17.7218 11.2624 0.894518 0
17.0359 11.5739 1.0449 0
17.0217 11.936 0.74719 0
17.0226 12.2812 0.482564 0
21.476 8.16615 6.41362 0
22.928 6.97648 7.78003 0
23.1066 6.2838 8.05352 0
22.6532 7.65746 7.41565 0
22.1211 7.98615 6.94506 0
22.2572 4.87631 7.89756 0
22.2044 4.24673 7.83751 0
23.164 5.58522 8.03973 0
22.3008 5.52768 7.94225 0
22.1688 3.59747 7.77153 0
21.1679 3.73736 8.00244 0
22.1099 2.35369 7.64359 0
21.043 2.66364 8.24499 0
22.1338 2.96939 7.72534 0
20.9889 2.18768 8.42172 0
20.9046 1.70756 8.42951 0
20.8198 1.34724 8.55406 0
20.721 1.17436 8.80264 0
18.8973 1.16286 10.9332 0
17.7528 1.49573 11.1964 0
19.1116 1.39304 10.5124 0
19.1923 1.45222 10.044 0
19.1801 1.38282 9.53505 0
19.292 1.3953 9.16306 0
20.5898 0.983151 9.03214 0
16.455 0.790164 13.8177 0
16.3163 0.302827 14.2161 0
15.3107 0.252062 14.2522 0
15.1918 -0.175694 14.7226 0
16.6653 1.73201 13.1058 0
16.5783 1.36448 13.4943 0
17.6147 1.1892 12.1916 0
17.568 1.06947 12.7146 0
17.6666 1.38121 11.6904 0
15.1036 -0.439917 15.2643 0
14.9912 -0.806856 15.7511 0
17.0612 -5.58803 11.2262 0
17.8876 -5.8462 10.3336 0
14.9092 -1.1509 16.3123 0
14.8219 -1.33102 16.9768 0
