#!ascii - generated by CreateLabelFiles project 
6611 12737
13.0868 28.9517 -17.2185 0
15.5035 28.9191 -17.4603 0
14.6577 28.8798 -17.4218 0
14.6224 28.3885 -17.2722 0
15.4567 27.931 -17.1415 0
14.6502 27.9107 -17.0353 0
13.1381 27.9464 -16.7223 0
13.0125 27.484 -16.7163 0
13.1456 28.4393 -16.9102 0
13.9018 27.8864 -16.9068 0
14.6817 27.4596 -16.8284 0
13.814 27.0213 -16.6388 0
12.9119 27.0335 -16.6589 0
15.5019 27.0503 -16.6349 0
14.7 27.0244 -16.6329 0
14.7055 26.5891 -16.3843 0
15.4973 26.1805 -15.9548 0
14.7038 26.157 -16.0466 0
10.1194 26.494 -14.908 0
10.1044 26.0197 -14.6536 0
10.1371 27.4975 -15.4019 0
10.1283 26.994 -15.1244 0
10.9561 26.342 -15.664 0
11.633 26.1996 -16.0833 0
11.7778 25.6617 -15.9139 0
10.2762 28.4332 -15.6629 0
10.1325 27.9687 -15.6417 0
10.3577 28.9031 -15.6436 0
10.7771 28.3372 -16.1242 0
11.2443 27.7629 -16.5607 0
11.4566 26.7095 -16.3072 0
12.2804 26.0546 -16.3636 0
10.764 27.3546 -16.0435 0
11.3536 27.2524 -16.4195 0
12.108 27.1425 -16.5412 0
13.0119 25.9862 -16.4635 0
13.0372 25.4276 -16.3407 0
12.9455 26.5226 -16.5683 0
13.8534 26.0764 -16.2125 0
14.6341 25.605 -15.8882 0
10.9665 25.3825 -15.1045 0
10.2679 25.7608 -14.3666 0
12.5405 24.9381 -16.0671 0
11.881 25.1428 -15.6786 0
11.7836 24.6418 -15.2342 0
12.3829 23.9038 -15.1235 0
11.4489 24.2577 -14.7203 0
13.7762 24.8967 -16.0472 0
13.1416 24.8821 -16.1493 0
15.3465 25.1218 -15.408 0
14.5213 24.976 -15.8276 0
14.4152 24.3761 -15.6233 0
15.1562 23.9742 -14.8845 0
14.3152 23.7411 -15.3558 0
13.0142 23.7828 -15.3076 0
12.8272 23.2142 -14.8902 0
13.1033 24.2981 -15.8592 0
13.6181 23.6941 -15.465 0
14.1729 23.1532 -15.0371 0
13.2313 22.5557 -14.6437 0
12.56 22.7422 -14.3092 0
14.8613 22.8186 -14.2935 0
13.9905 22.5545 -14.6867 0
13.6941 22.0574 -14.2391 0
14.2654 21.7346 -13.6196 0
13.3744 21.5532 -13.7147 0
16.6406 28.751 -2.24009 0
17.0161 28.4216 -2.00377 0
15.9142 29.0911 -3.84872 0
16.122 29.0908 -2.59347 0
15.4666 28.0552 -3.09176 0
14.2114 27.3532 -4.65523 0
14.6309 27.2534 -3.57558 0
16.0532 28.5491 -6.20122 0
15.9459 28.7069 -5.11932 0
15.9829 28.9596 -8.46305 0
16.0115 28.6358 -7.33763 0
15.2165 28.0455 -7.42088 0
14.2391 28.1374 -8.37651 0
14.1668 27.8512 -7.38225 0
14.2325 27.1292 -5.68437 0
13.5176 26.5362 -5.80441 0
15.0943 27.7548 -5.56182 0
14.1522 27.4567 -6.51328 0
13.2465 27.5672 -7.35091 0
12.6919 26.4422 -6.72864 0
12.6908 26.3277 -5.88494 0
12.5074 27.4496 -8.20397 0
12.5369 27.0075 -7.4879 0
11.8282 26.5665 -7.5879 0
11.1823 26.4287 -8.36573 0
11.0367 26.3238 -7.61204 0
16.0148 28.7303 -9.77099 0
16.2849 28.6208 -9.43055 0
15.3016 29.0025 -9.96736 0
15.7081 28.8537 -9.97871 0
15.0915 28.2956 -10.4089 0
14.1123 27.864 -10.6024 0
14.6402 27.4773 -10.3531 0
14.1802 29.7164 -9.61105 0
14.7286 29.3095 -9.77687 0
13.682 30.1658 -9.3509 0
12.9495 29.5072 -9.66433 0
12.3513 28.9359 -10.2627 0
13.4786 28.3581 -10.7377 0
12.951 27.7231 -10.8967 0
14.0394 28.8229 -10.2689 0
12.9007 28.622 -10.5005 0
11.7576 28.3415 -10.7518 0
11.7698 27.5279 -11.2648 0
12.4459 27.23 -11.2096 0
11.1262 27.6475 -11.1777 0
10.8105 27.1908 -11.8797 0
10.5853 26.8173 -12.7947 0
11.233 26.5824 -9.13509 0
10.6357 26.0732 -9.21291 0
12.766 27.2188 -9.03624 0
11.9441 26.9692 -9.05941 0
11.4523 26.3411 -9.9668 0
11.4667 26.256 -10.7114 0
10.8432 25.7464 -10.851 0
14.7621 27.6402 -9.30446 0
13.7665 27.4033 -9.14898 0
15.5216 28.1583 -9.53176 0
14.8585 27.4654 -9.9867 0
13.821 27.1144 -10.317 0
12.0714 26.7143 -10.4617 0
11.3337 26.3883 -11.4144 0
12.9874 26.9746 -9.78598 0
12.7797 27.1286 -10.3185 0
12.6132 27.141 -10.766 0
11.1817 26.6792 -12.1561 0
10.6991 25.9944 -12.3758 0
11.6886 27.0351 -11.5819 0
10.9149 26.7652 -12.557 0
10.4342 26.2387 -13.4189 0
10.6356 25.124 -10.0755 0
10.2278 25.3815 -9.25397 0
10.3244 25.0207 -11.7672 0
10.4783 25.0652 -10.9335 0
10.3402 24.3028 -10.9984 0
9.96892 23.4723 -12.0435 0
10.085 23.5819 -11.1117 0
10.1777 25.4314 -13.2624 0
10.2194 25.2389 -12.5055 0
10.2784 25.5544 -13.9526 0
10.4716 24.8049 -14.0979 0
10.9857 23.9186 -14.1227 0
10.1727 23.4908 -12.8348 0
10.6737 22.5315 -12.696 0
10.2167 24.4082 -12.6459 0
10.6366 23.6397 -13.5464 0
11.768 23.0162 -13.9645 0
11.7834 21.7944 -13.1615 0
11.1393 21.5157 -12.5784 0
12.2167 22.279 -13.7304 0
12.6008 21.5998 -13.5066 0
12.9999 20.9219 -13.2651 0
16.2163 27.6944 -2.18319 0
13.6654 26.8949 -3.94113 0
15.0687 27.1613 -2.86643 0
15.3492 26.9884 -2.36347 0
14.3619 26.5384 -2.74885 0
15.5573 26.6923 -2.09382 0
11.9649 26.0488 -5.95816 0
12.7366 26.3527 -5.03193 0
10.2556 26.0152 -7.68795 0
11.1763 25.8774 -6.85309 0
11.2752 25.7003 -6.07499 0
10.6155 25.3001 -6.20425 0
11.374 25.6618 -5.25122 0
13.1019 26.3842 -3.56592 0
13.3974 26.086 -3.10787 0
12.824 26.5705 -4.18218 0
12.1107 26.0587 -4.3452 0
11.427 25.5601 -4.48895 0
12.5186 25.5982 -3.29749 0
13.6086 25.7521 -2.77382 0
10.7288 25.1391 -4.63094 0
11.5213 25.383 -3.9033 0
11.678 25.1455 -3.46226 0
10.9158 24.7243 -3.61624 0
11.841 24.8482 -3.09641 0
9.76002 24.6762 -9.31397 0
9.91805 25.4658 -8.50442 0
9.91535 22.781 -11.1338 0
9.77079 23.7786 -10.2182 0
9.23351 24.0788 -9.43493 0
8.78569 23.4171 -9.56381 0
8.7497 24.3118 -8.7417 0
11.6163 20.6506 -12.4338 0
10.6124 21.568 -11.842 0
13.483 20.4827 -12.8788 0
12.5364 20.3118 -12.8226 0
11.9966 19.8752 -12.3334 0
12.4557 19.5842 -12.0542 0
11.5883 20.1337 -11.6221 0
9.52567 22.3309 -10.2471 0
8.9962 22.7029 -9.59623 0
10.2327 21.9016 -10.9752 0
10.6725 21.3033 -10.9051 0
11.2574 20.7949 -10.8261 0
9.19922 21.7696 -9.73255 0
8.59316 22.9244 -9.02076 0
11.8577 20.4071 -10.651 0
10.5415 21.0348 -10.2193 0
9.78466 21.0968 -9.69433 0
10.4231 20.5851 -9.6296 0
9.1506 21.0313 -9.17583 0
10.0495 24.5318 -4.203 0
10.2018 24.2871 -3.75508 0
10.0781 24.8147 -5.49892 0
10.0038 24.7121 -4.76259 0
9.32537 24.3314 -4.86595 0
8.68825 24.1387 -5.6646 0
8.73862 23.9 -4.98562 0
9.85955 24.9632 -7.1255 0
10.0287 24.8769 -6.30607 0
9.66088 25.4243 -7.81018 0
9.10551 24.8327 -7.9242 0
8.79902 24.2724 -8.03474 0
8.80869 24.1838 -6.46621 0
8.32768 23.6931 -6.59075 0
9.54874 24.4974 -6.37013 0
9.00633 24.1045 -7.28565 0
8.62349 23.6301 -8.2207 0
8.17705 22.9027 -7.64484 0
8.32441 23.0444 -6.73167 0
8.32189 22.9 -8.39396 0
8.4497 21.8291 -8.5026 0
9.00974 21.3044 -8.46686 0
9.5723 23.8594 -3.90091 0
10.3733 23.9865 -3.37442 0
8.31614 23.45 -5.12838 0
8.84823 23.6836 -4.48707 0
9.08527 23.3616 -3.99623 0
8.60344 22.7843 -4.13071 0
9.29585 22.9907 -3.54021 0
8.57626 22.3161 -6.86477 0
8.35639 23.038 -5.9355 0
9.70962 20.9451 -8.40422 0
8.9457 21.5286 -7.76348 0
8.77399 21.4762 -7.13925 0
9.22744 20.8287 -7.38143 0
8.60607 21.3419 -6.60727 0
8.28524 22.4824 -4.86561 0
8.26641 22.0147 -4.55296 0
8.25087 22.8423 -5.33952 0
8.28677 21.9783 -5.67268 0
8.33762 20.9596 -6.32165 0
8.15127 21.0113 -5.26117 0
8.3294 21.4912 -4.29997 0
8.73692 20.0621 -6.75472 0
8.20184 20.5096 -6.12161 0
8.44915 19.9807 -6.05224 0
9.03022 18.935 -6.66379 0
8.60829 19.3627 -6.14261 0
16.8245 23.3307 -2.31774 0
16.9954 22.8945 -2.49401 0
16.5118 21.542 -2.73509 0
16.2677 22.4217 -2.69489 0
15.6405 21.6446 -2.95633 0
15.7044 21.1674 -2.64192 0
15.3267 22.3956 -2.75127 0
15.502 22.0145 -2.90295 0
14.7745 21.5835 -3.17678 0
13.8891 21.5189 -3.41005 0
14.1025 20.969 -3.30433 0
16.1073 24.9599 -1.21915 0
16.2636 24.5521 -1.35718 0
16.6365 26.9523 -1.77172 0
15.719 26.3434 -1.89028 0
15.9768 25.4539 -1.43274 0
15.0132 24.9147 -1.70295 0
15.8571 25.9471 -1.67528 0
14.7486 25.846 -2.21683 0
13.9217 24.9221 -2.22364 0
14.1186 24.3747 -1.96734 0
13.7676 25.3598 -2.50079 0
12.8735 24.8981 -2.66112 0
12.0424 24.4575 -2.78167 0
13.5999 21.8897 -3.0484 0
12.9103 21.4277 -3.3509 0
15.005 22.7844 -2.26512 0
14.3178 22.3334 -2.69011 0
13.3156 22.2718 -2.6695 0
13.0448 22.6908 -2.5262 0
12.2767 22.258 -2.72632 0
16.5972 23.7391 -1.88411 0
15.7764 23.241 -2.03707 0
16.4026 24.147 -1.50045 0
15.3806 23.9857 -1.59492 0
13.7315 23.1182 -2.11433 0
12.7684 23.0989 -2.3998 0
14.7033 23.1572 -1.82859 0
14.5205 23.502 -1.77946 0
14.3281 23.8458 -1.73363 0
12.5149 23.5585 -2.44069 0
11.7721 23.1401 -2.58159 0
13.2761 23.9232 -2.12095 0
12.2459 24.0288 -2.48958 0
11.2967 24.0303 -2.91588 0
11.9225 21.3328 -3.27266 0
12.1621 20.8083 -3.28434 0
11.2272 22.2538 -2.71057 0
11.5669 21.7908 -2.97188 0
11.0099 21.1749 -3.2176 0
10.0851 20.9593 -3.16722 0
10.2248 20.4351 -3.31343 0
10.7782 23.1766 -2.71091 0
11.0165 22.7167 -2.68784 0
10.5745 23.5986 -2.99534 0
9.96344 23.1224 -3.06862 0
9.49635 22.5675 -3.05655 0
9.89583 21.5029 -2.96486 0
9.49437 20.6479 -3.80483 0
10.3709 22.1814 -2.73869 0
9.66416 22.0453 -2.77081 0
8.96987 21.8338 -3.13452 0
8.91088 20.2378 -4.67052 0
8.88675 19.5969 -4.76189 0
8.82082 20.9419 -4.528 0
8.44064 19.711 -5.43088 0
8.62258 18.6945 -6.20248 0
16.6033 20.6423 -2.108 0
16.6658 19.7838 -1.47601 0
15.0561 20.5694 -2.73704 0
15.7509 20.7081 -2.29586 0
13.3765 20.3625 -3.23292 0
14.3269 20.4191 -3.17743 0
14.424 19.9911 -2.93938 0
13.6144 19.5376 -2.83459 0
14.5221 19.5837 -2.70602 0
15.8478 19.8245 -1.67934 0
15.9255 19.3356 -1.49886 0
15.8033 20.2747 -1.99776 0
15.2065 19.7176 -2.19632 0
14.5484 19.1671 -2.35763 0
15.291 18.7742 -1.62672 0
16.0412 18.7944 -1.42456 0
13.736 18.6882 -2.13394 0
14.5433 18.7158 -1.93872 0
14.5151 18.2489 -1.59845 0
13.6668 17.7895 -1.40959 0
14.4463 17.78 -1.2735 0
11.4324 20.1765 -3.29478 0
12.3976 20.3131 -3.26933 0
9.59509 19.5962 -3.97491 0
10.3927 19.9871 -3.34809 0
10.5542 19.626 -3.21692 0
9.82464 18.9041 -3.56502 0
10.7094 19.2673 -3.05421 0
8.17143 18.6386 -5.27513 0
8.8258 19.1777 -4.60655 0
9.19827 17.8543 -6.87383 0
8.69263 18.2536 -6.17904 0
8.73876 17.8591 -6.01167 0
9.23381 17.1973 -6.50461 0
8.66905 17.5049 -5.66753 0
8.93011 18.445 -4.13078 0
9.01136 18.1366 -3.78037 0
8.88794 18.7735 -4.43857 0
8.15761 17.9224 -4.70192 0
8.59951 17.1606 -5.28368 0
8.45079 17.3607 -3.95447 0
9.1428 17.8524 -3.42862 0
8.98072 16.495 -5.73804 0
8.37079 16.8094 -4.88012 0
8.45546 16.5761 -4.40035 0
8.63842 15.8477 -4.8603 0
8.4566 16.3753 -3.87836 0
12.8498 17.7845 -1.57475 0
12.8067 17.3294 -1.25904 0
12.8921 18.6546 -2.309 0
12.8746 18.2267 -1.93726 0
11.9955 17.7659 -1.82095 0
11.0721 17.7523 -2.06212 0
11.0201 17.4538 -1.55794 0
12.6866 19.4969 -2.9547 0
12.787 19.0883 -2.65062 0
12.5345 19.8964 -3.11506 0
11.7357 19.3913 -3.00867 0
10.8301 18.8491 -2.88831 0
11.021 18.0929 -2.39005 0
10.2789 17.528 -2.39766 0
11.9697 18.5355 -2.51643 0
10.969 18.4137 -2.70503 0
10.0687 18.1708 -3.04524 0
9.46869 17.2664 -2.73545 0
9.64529 17.01 -2.31332 0
9.29637 17.5691 -3.08761 0
8.82696 16.875 -3.21379 0
8.45036 16.1624 -3.40705 0
11.8846 16.9907 -1.02563 0
12.7351 16.8699 -0.965753 0
10.3383 16.9521 -1.42984 0
10.9495 17.1331 -1.0661 0
10.9894 16.6291 -0.719507 0
10.4839 16.0079 -0.736939 0
11.0087 16.1729 -0.404623 0
9.14335 16.3443 -2.40095 0
9.79201 16.7045 -1.87004 0
8.59914 15.479 -3.7927 0
8.49008 15.9083 -2.95653 0
8.70073 15.6197 -2.56324 0
8.73179 15.0726 -2.72583 0
8.90059 15.2841 -2.15561 0
10.0203 15.8335 -1.13148 0
10.0955 15.4259 -0.904235 0
9.91246 16.2746 -1.47913 0
9.47257 15.582 -1.61342 0
9.06185 14.9484 -1.77691 0
9.67839 14.8192 -1.09763 0
10.1858 15.0333 -0.741602 0
8.7726 14.3524 -1.92471 0
9.20025 14.5768 -1.49502 0
9.43529 14.2333 -1.18915 0
9.24261 13.6431 -1.27102 0
9.52657 13.8227 -0.927879 0
16.7395 12.69 -0.0157118 0
16.4571 13.2573 -0.00409563 0
15.964 13.4165 0.0786815 0
15.7772 12.938 0.0519759 0
16.7994 15.5318 -0.218456 0
16.6012 15.0038 -0.105687 0
16.1308 13.9394 0.0366724 0
15.4957 13.6414 0.23607 0
16.3546 14.4835 0.0377762 0
15.862 14.6648 -0.0472325 0
15.0234 13.8688 0.440192 0
14.8672 13.3542 0.461641 0
15.319 14.8486 -0.0199647 0
15.1593 14.3536 0.204621 0
14.4859 14.0466 0.510736 0
13.9142 14.1323 0.368745 0
13.8379 13.6446 0.548651 0
16.7689 18.7688 -1.17217 0
15.9766 17.7709 -0.981266 0
15.881 17.3021 -0.694208 0
16.0489 18.2717 -1.24275 0
15.2171 17.7851 -1.11149 0
14.3508 17.3218 -0.928923 0
13.9812 14.6198 0.154988 0
13.3159 14.204 0.235939 0
15.4359 15.3254 -0.224303 0
14.6862 15.0012 0.0033487 0
14.0195 15.0973 -0.03143 0
14.075 15.5573 -0.232352 0
13.3626 15.1514 -0.0921001 0
16.9445 16.129 -0.221329 0
16.2147 15.7235 -0.286997 0
17.0707 16.7018 -0.247711 0
16.4518 16.8252 -0.350859 0
14.8373 15.9792 -0.293085 0
14.1164 16.0092 -0.327074 0
15.5388 15.8765 -0.286554 0
15.638 16.418 -0.290796 0
15.7459 16.8601 -0.457055 0
14.1729 16.4564 -0.397084 0
13.3889 16.048 -0.315458 0
15.0044 16.8812 -0.504116 0
14.2559 16.8858 -0.615778 0
13.5089 16.8796 -0.779132 0
12.6849 14.2486 0.128787 0
12.6907 13.7836 0.281576 0
12.6617 15.1917 -0.110944 0
12.6842 14.7241 -0.012298 0
12.0676 14.2577 -0.0423599 0
11.4053 14.2806 -0.169131 0
11.4687 13.8114 -0.0383264 0
12.6526 16.0572 -0.406832 0
12.6483 15.6349 -0.228908 0
12.6998 16.451 -0.680903 0
11.8656 16.1162 -0.407414 0
11.1299 15.7109 -0.340391 0
11.34 14.7714 -0.226554 0
10.8433 14.2293 -0.216247 0
11.9877 15.2141 -0.205684 0
11.2574 15.2451 -0.290681 0
10.7183 15.1474 -0.505756 0
10.2563 14.1809 -0.268415 0
10.364 13.7146 -0.142847 0
10.2395 14.6144 -0.517232 0
9.85039 14.019 -0.575139 0
9.6921 13.3528 -0.810688 0
16.0489 12.3779 0.04612 0
15.172 12.6518 0.208874 0
15.5747 12.4657 0.00479082 0
15.4292 12.0359 0.194511 0
14.9049 11.7929 0.608372 0
15.3206 11.618 0.558323 0
14.2399 13.0206 0.574098 0
14.7309 12.8302 0.42293 0
13.2234 13.2229 0.466454 0
13.7626 13.1364 0.559809 0
13.6505 12.6074 0.548066 0
13.084 12.2274 0.655364 0
13.5688 12.1134 0.679445 0
14.4733 11.9595 0.721014 0
14.346 11.5483 0.991161 0
14.5801 12.3724 0.496439 0
14.0238 12.0474 0.742347 0
13.4624 11.6728 0.838295 0
13.7771 11.1588 1.08121 0
14.1894 11.1093 1.21707 0
12.8684 11.3364 0.957006 0
13.3404 11.2069 0.972085 0
13.2001 10.7413 1.18344 0
12.6226 10.5556 1.47296 0
13.0603 10.2793 1.49254 0
12.1207 13.3737 0.311031 0
12.6716 13.3 0.379972 0
11.0155 13.3182 0.077068 0
11.5284 13.3752 0.167731 0
11.5512 12.9506 0.335542 0
11.0515 12.4811 0.35282 0
11.4923 12.5281 0.463312 0
10.1218 13.0804 -0.321101 0
10.4715 13.2571 0.00188467 0
9.59011 12.6963 -1.07263 0
9.84432 12.8789 -0.705964 0
9.91812 12.3771 -0.655021 0
9.65162 11.758 -0.92164 0
9.97767 11.8888 -0.611116 0
10.5533 12.4196 0.241847 0
10.5201 12.0338 0.407362 0
10.5198 12.838 0.142183 0
10.2625 12.1486 -0.196538 0
9.92484 11.5608 -0.358746 0
10.1112 11.4833 0.311972 0
10.4055 11.696 0.648222 0
9.58657 11.07 -0.449552 0
9.8277 11.2655 -0.0426642 0
9.72167 10.9584 0.254767 0
9.51973 10.4312 0.112798 0
9.6424 10.6383 0.530194 0
12.172 10.8196 1.47887 0
12.0648 10.489 1.78131 0
12.3672 11.5572 1.00642 0
12.2518 11.1504 1.20446 0
11.6739 10.9978 1.49299 0
11.2 11.0719 1.41944 0
11.1593 10.7336 1.65208 0
12.5426 12.3908 0.601296 0
12.4617 11.9394 0.763782 0
12.6231 12.8389 0.479103 0
11.995 12.5121 0.548715 0
11.3993 12.1443 0.64124 0
11.2352 11.4101 1.17549 0
10.6999 11.1227 1.34869 0
11.8174 11.7259 0.983468 0
11.3021 11.7776 0.908869 0
10.8023 11.7978 0.834943 0
10.291 10.9985 1.12091 0
10.2933 10.6477 1.33015 0
10.2929 11.3648 0.91384 0
9.90983 10.837 0.864318 0
9.61579 10.2967 0.76736 0
11.5474 10.3685 1.96187 0
11.9595 10.2541 2.05154 0
10.6733 10.4693 1.75911 0
11.1329 10.4293 1.85695 0
11.0615 10.1796 2.0958 0
10.639 9.97592 2.18983 0
10.9652 10.0756 2.39568 0
9.91021 10.1407 1.2904 0
10.2969 10.3108 1.52769 0
9.47099 9.69603 0.550566 0
9.65907 9.92735 0.943613 0
9.68699 9.60823 1.13212 0
9.46661 9.09899 0.944764 0
9.69289 9.37837 1.35829 0
10.3666 9.71421 1.90369 0
10.3304 9.55194 2.1522 0
10.3127 9.99371 1.70944 0
9.99156 9.54624 1.68103 0
9.76097 9.12354 1.5397 0
10.0103 9.19262 2.12357 0
10.2991 9.42676 2.40637 0
9.39238 8.76565 1.44657 0
9.67445 9.0084 1.81201 0
9.56749 8.94366 2.10334 0
9.13305 8.68656 2.0853 0
9.53879 8.86144 2.33708 0
10.9271 61.8691 -31.7363 0
11.3908 64.0343 -32.247 0
10.7314 63.0174 -32.1803 0
11.4636 62.0166 -32.7423 0
12.1352 61.9029 -33.3871 0
12.0979 67.139 -31.6045 0
12.2652 65.9583 -32.3267 0
12.4382 65.9804 -32.979 0
12.7971 64.7126 -32.9455 0
12.1588 62.923 -33.3543 0
12.8278 61.8638 -33.8688 0
12.1441 63.9659 -32.7691 0
12.5919 63.8184 -33.0712 0
13.3651 63.6882 -33.4897 0
13.5924 61.9256 -34.0274 0
13.8241 62.7714 -33.8423 0
11.777 70.4311 -32.704 0
11.7043 69.32 -32.6808 0
12.0469 67.3121 -32.9555 0
13.0381 65.8421 -33.5018 0
11.7758 68.2411 -32.7858 0
18.7949 9.30458 6.16336 0
17.839 9.60482 6.23298 0
18.0267 9.33065 6.58762 0
17.8521 9.82662 5.858 0
16.937 9.83681 6.2908 0
18.7381 9.73614 5.40311 0
17.8108 9.96916 5.41563 0
17.6758 9.95483 4.91156 0
16.8994 10.1599 5.35317 0
18.4608 9.73695 4.43768 0
17.5748 9.90831 4.39735 0
19.3878 9.56122 4.44313 0
17.4648 9.7916 3.82208 0
16.773 10.0416 4.32168 0
18.9921 9.42164 2.98432 0
18.1982 9.50034 3.31999 0
17.4025 9.67753 3.24683 0
17.4025 9.59693 2.72104 0
16.7206 9.8341 3.18885 0
17.406 9.55993 2.21853 0
17.4989 9.9603 1.84518 0
16.8069 9.99252 2.29019 0
17.5919 10.4419 1.4943 0
16.9513 10.7845 1.61873 0
16.0483 9.98618 6.25029 0
16.2163 9.92896 6.75225 0
16.0492 10.2952 5.26489 0
16.0477 10.1703 5.75655 0
15.3186 9.88774 5.99301 0
14.6467 9.82994 5.75523 0
14.719 9.80321 6.27845 0
16.0198 10.1313 4.22127 0
16.0316 10.227 4.74527 0
16.0601 9.93375 3.0949 0
16.0382 10.0323 3.65668 0
15.4386 10.0665 4.00921 0
14.8638 9.99643 3.80185 0
14.8269 10.1732 4.33363 0
14.7261 10.1546 5.3326 0
14.0752 10.0047 5.52099 0
15.4065 10.3371 5.07505 0
14.7851 10.3449 4.87817 0
14.2597 10.1642 4.60945 0
13.5094 10.1087 5.28172 0
13.4913 9.97671 5.75424 0
13.7321 9.98161 4.34512 0
13.6353 10.0593 4.81772 0
13.0403 9.98626 4.96791 0
12.5722 9.90991 4.65152 0
12.5262 9.96262 5.14627 0
16.2159 10.2341 2.24985 0
16.1357 10.0597 2.65047 0
16.3371 10.9066 1.55557 0
16.2865 10.4955 1.86712 0
15.6563 10.1806 1.99763 0
15.1036 10.1756 1.80061 0
15.0378 9.98219 2.19904 0
16.3734 11.6217 0.890454 0
16.3644 11.2891 1.24152 0
16.382 11.9426 0.551912 0
15.7703 11.517 0.652939 0
15.182 11.1932 0.883077 0
15.1479 10.3865 1.42893 0
14.5847 10.3389 1.80253 0
15.7472 10.7934 1.28785 0
15.1675 10.7905 1.1516 0
14.6153 10.9503 1.19903 0
14.0355 10.4684 1.80931 0
14.0151 10.2478 2.14681 0
14.055 10.6846 1.47083 0
13.5096 10.2824 1.64084 0
12.9559 9.96636 1.81758 0
12.6902 10.0096 4.22045 0
12.1685 9.87606 4.33788 0
13.7997 9.89934 3.83888 0
13.2678 10.0128 4.06862 0
12.7972 10.0923 3.79605 0
12.8499 9.9664 3.32054 0
12.325 10.0948 3.56495 0
14.9203 9.92985 3.22176 0
14.3687 9.90477 3.57026 0
15.5139 9.90193 2.86666 0
14.9736 9.86368 2.64877 0
14.4794 9.94298 2.55959 0
13.3896 9.81432 3.09509 0
12.9027 9.81531 2.85572 0
13.8607 9.81823 3.34823 0
13.9196 9.91652 2.91728 0
13.9718 10.0902 2.52636 0
12.9402 9.77214 2.44919 0
12.4122 9.87683 2.71131 0
13.4804 9.99588 2.29912 0
12.9464 9.86235 2.12908 0
12.4205 10.0066 2.07203 0
11.7832 9.77065 4.01036 0
11.6849 9.72 4.44637 0
11.8497 10.0508 3.35283 0
11.8195 9.90991 3.66956 0
11.3602 9.65609 3.73064 0
10.9749 9.4746 3.4441 0
10.9762 9.32893 3.74442 0
11.883 10.0536 2.65738 0
11.8807 10.0379 2.98904 0
11.8771 10.0717 2.33092 0
11.3794 10.0363 2.52081 0
10.889 9.98763 2.69902 0
10.9693 9.64698 3.1871 0
10.6044 9.30409 3.15864 0
11.4005 9.94483 3.13946 0
10.9313 9.83557 2.95262 0
10.5556 9.66273 2.69706 0
10.2629 9.1376 2.87035 0
10.2131 9.021 3.09096 0
10.262 9.28933 2.64834 0
9.91336 8.98883 2.59821 0
9.50987 8.7505 2.53515 0
19.5849 8.45524 6.80698 0
20.819 8.0489 6.74698 0
17.4626 9.4254 7.03394 0
18.4137 8.86934 6.87734 0
18.9045 8.43522 7.16092 0
18.2089 8.47437 7.53036 0
19.4133 8.01359 7.41468 0
21.8122 7.3113 7.46909 0
22.1265 6.78268 7.88191 0
21.3903 7.76233 7.13221 0
20.5968 7.43609 7.21476 0
19.8101 7.46493 7.5579 0
21.2049 6.64143 7.91097 0
22.2572 6.18719 7.95171 0
18.9441 7.57656 7.96054 0
20.0737 6.98853 7.76103 0
20.2536 6.54103 8.00143 0
19.3283 6.69957 8.36726 0
20.3406 6.07214 8.25124 0
21.3611 5.56667 8.21007 0
20.3881 5.62117 8.51457 0
21.231 4.35554 7.98724 0
19.3868 5.7584 8.57879 0
20.318 5.06655 8.46994 0
20.2204 4.51809 8.43934 0
19.1234 4.66955 8.61464 0
20.0836 3.92895 8.4092 0
21.0851 3.15694 8.0448 0
19.9202 3.39641 8.33024 0
18.7103 3.61602 8.48387 0
19.8258 2.90069 8.46221 0
19.6625 2.39478 8.40711 0
18.3371 2.62146 8.35936 0
19.5726 1.95439 8.43863 0
15.7204 10.0032 7.08419 0
16.5658 9.90362 7.18126 0
14.2252 9.9303 6.58333 0
14.9214 10.0104 6.87693 0
15.1773 9.93156 7.31164 0
14.547 9.60937 7.3697 0
15.3566 9.56821 7.57195 0
12.9871 10.0118 6.00595 0
13.5504 9.90295 6.26631 0
12.0782 9.94893 5.34944 0
12.5322 10.0011 5.67995 0
12.5353 9.89562 6.15971 0
12.0904 9.67624 6.21657 0
12.5879 9.70308 6.56113 0
13.8398 9.70527 7.17085 0
13.96 9.35658 7.42091 0
13.7058 9.95484 6.8089 0
13.1596 9.73877 6.90687 0
12.6553 9.53171 6.96459 0
13.3733 9.15212 7.48093 0
14.0553 9.18037 7.83641 0
12.1467 9.33977 6.96688 0
12.7081 9.26649 7.27147 0
12.7746 8.95969 7.53651 0
12.1949 8.81432 7.53122 0
12.7671 8.81821 7.89897 0
11.1949 9.59879 4.55064 0
11.62 9.73282 4.93707 0
10.5862 8.99892 3.7481 0
10.9471 9.24231 4.10436 0
10.7988 9.32509 4.57865 0
10.3982 9.00652 4.52532 0
10.7855 9.22056 4.99129 0
9.7986 8.71941 3.00866 0
10.1752 8.87139 3.34507 0
9.20826 8.35167 2.35488 0
9.46714 8.54276 2.68588 0
9.49658 8.24725 2.82102 0
9.26703 7.73019 2.60877 0
9.42072 8.07087 3.04787 0
10.1028 8.62408 3.99015 0
9.91232 8.63099 4.43688 0
10.1648 8.70455 3.64159 0
9.71914 8.38622 3.47785 0
9.47659 7.84959 3.28841 0
9.57042 8.07947 4.16104 0
9.85968 8.45053 4.81258 0
9.39343 7.32394 3.07412 0
9.42148 7.68216 3.58169 0
9.35683 7.53389 3.88939 0
9.67817 7.19581 3.60827 0
9.25638 7.36492 4.18053 0
11.6376 8.91674 7.2384 0
11.6047 8.71208 7.5259 0
11.6494 9.32057 6.61914 0
11.6327 9.16216 6.96765 0
11.2209 8.88614 6.87665 0
10.9813 8.56934 6.34327 0
10.9063 8.50043 6.67827 0
11.6615 9.59581 5.86738 0
11.655 9.466 6.25346 0
11.6504 9.74883 5.44708 0
11.2537 9.36426 5.42438 0
10.8517 9.01369 5.39307 0
11.0572 8.65746 5.99317 0
10.7003 8.22882 5.8027 0
11.3626 9.0595 6.13162 0
10.9883 8.83227 5.7124 0
10.4535 8.6518 5.29567 0
10.0577 7.9608 5.34957 0
10.2443 7.68445 5.53815 0
9.86358 8.21978 5.12625 0
9.35036 7.6487 4.79974 0
9.04976 7.1251 4.46009 0
11.0613 8.59511 7.50052 0
11.5215 8.55592 7.81626 0
10.5586 8.10295 6.43711 0
10.8398 8.36094 6.98273 0
10.7818 8.21171 7.29822 0
10.4589 7.79344 7.05687 0
10.6577 7.93595 7.45048 0
9.72804 7.1364 5.19639 0
10.1779 7.61574 5.83268 0
9.50314 6.70958 4.07368 0
9.09663 6.89308 4.67782 0
9.49124 6.69453 4.79172 0
10.0629 6.21642 4.30961 0
9.86871 6.47875 4.89885 0
10.3307 7.33022 6.34933 0
10.2036 7.14333 6.5819 0
10.3516 7.49062 6.06662 0
10.1434 6.78958 5.60369 0
10.0832 6.27569 5.00992 0
10.0887 6.40533 5.90817 0
9.98361 6.93113 6.77965 0
10.461 5.64399 4.42217 0
10.3231 6.06582 5.0822 0
10.2228 5.83372 5.13163 0
10.5774 5.17613 4.40577 0
10.0257 5.5666 5.0862 0
17.2661 3.31129 8.27722 0
17.0625 2.85901 8.27519 0
17.6641 4.29702 8.23022 0
17.4522 3.805 8.32308 0
16.2921 3.97308 8.24182 0
15.5376 4.56375 8.28906 0
15.3221 4.12161 8.4043 0
18.1346 5.41189 8.31457 0
17.8835 4.82332 8.26581 0
18.3736 6.43133 8.69887 0
18.3062 5.9485 8.40493 0
17.1458 6.0602 8.36904 0
16.0985 6.5675 8.66421 0
16.0287 6.07469 8.50657 0
15.7244 5.04071 8.27903 0
14.7831 5.07932 8.41615 0
16.7078 4.94522 8.14638 0
15.8573 5.54006 8.3822 0
15.0148 6.0053 8.60528 0
13.9908 5.51814 8.63813 0
13.8871 5.18831 8.98449 0
14.1369 6.34755 8.80888 0
14.0883 5.95398 8.73471 0
13.2011 5.82215 8.72694 0
12.4457 5.94119 8.56967 0
12.498 5.60807 8.70098 0
18.2314 7.26858 8.54041 0
18.3565 6.87674 8.73882 0
17.7651 8.07285 8.03872 0
18.0379 7.65444 8.30346 0
17.0552 7.6661 8.43269 0
15.9498 8.03812 8.37306 0
16.0528 7.67136 8.53686 0
17.1252 8.86939 7.56915 0
17.4991 8.50669 7.85831 0
16.8616 9.46272 7.43062 0
16.2034 9.4016 7.73901 0
15.5482 9.10344 7.80661 0
15.851 8.43195 8.24617 0
15.0255 8.44335 8.46885 0
16.6625 8.45951 8.03841 0
15.7074 8.85334 8.13472 0
14.8496 9.1326 8.11637 0
14.1617 8.84786 8.60205 0
14.1541 8.44955 8.65923 0
14.1385 9.11904 8.36595 0
13.4377 8.92069 8.33865 0
12.7053 8.70164 8.24738 0
12.4958 6.36227 8.55846 0
11.7021 6.11585 8.42416 0
14.1794 6.81232 8.91662 0
13.2985 6.62388 8.79857 0
12.5239 6.81046 8.54046 0
12.5676 7.22718 8.54126 0
11.8077 6.98635 8.27997 0
16.1511 6.98046 8.76378 0
15.125 6.94706 8.86345 0
17.2699 6.94242 8.80535 0
16.125 7.3219 8.67628 0
15.124 7.67909 8.73491 0
13.3418 7.4699 8.85569 0
12.6185 7.60939 8.46133 0
14.1806 7.24679 8.985 0
14.1904 7.63233 8.90961 0
14.1739 8.05702 8.77405 0
12.64 8.00479 8.35602 0
11.9375 7.74446 8.13625 0
13.3696 8.26778 8.57689 0
12.6627 8.39646 8.36985 0
12.0272 8.50134 8.13634 0
10.9921 6.32375 8.47347 0
11.0164 5.87714 8.45121 0
11.1816 7.14455 8.10634 0
11.0759 6.74563 8.3079 0
10.3568 6.52181 8.43278 0
10.0099 6.50884 7.91693 0
9.92155 6.10979 8.15242 0
11.3591 7.86647 7.95124 0
11.2692 7.51903 8.01956 0
11.4176 8.23177 7.93199 0
10.8419 7.98712 7.76004 0
10.4663 7.67717 7.62863 0
10.1555 6.95832 7.79462 0
9.66987 6.44824 7.42209 0
10.623 7.31034 7.94652 0
10.3083 7.36016 7.75817 0
10.0119 7.31962 7.49232 0
9.45165 6.28089 6.88139 0
9.3123 5.78775 6.73155 0
9.70359 6.66488 6.94902 0
9.62022 5.87117 5.98836 0
9.83479 5.25949 5.04497 0
15.8808 3.06253 8.25045 0
16.9467 2.49789 8.35119 0
14.4051 4.25578 8.72319 0
15.1163 3.66987 8.43569 0
14.9472 3.27791 8.48598 0
14.059 3.45262 8.84577 0
14.8491 2.9725 8.65671 0
13.0403 5.19034 9.33995 0
13.7295 4.82683 9.23836 0
11.822 5.40558 8.70844 0
12.4882 5.3009 8.96246 0
12.3415 4.93596 9.20431 0
11.6391 4.60042 8.91344 0
12.185 4.52247 9.35147 0
13.3545 3.94773 9.38646 0
13.1591 3.54705 9.39791 0
13.539 4.37689 9.30626 0
12.7042 4.34604 9.59804 0
11.9584 4.08852 9.41776 0
12.2928 3.47845 9.60385 0
12.9704 3.14629 9.42249 0
11.1326 3.71813 9.0275 0
11.7198 3.67233 9.49865 0
11.5141 3.28513 9.54623 0
10.7144 2.84361 9.16765 0
11.3275 2.92654 9.66172 0
10.399 5.64926 8.42486 0
11.1073 5.47383 8.44962 0
9.60531 5.61396 7.52422 0
10.0098 5.68793 8.12189 0
10.0669 5.2048 7.95029 0
9.56768 4.70418 7.336 0
10.0107 4.70787 7.75788 0
9.33442 5.14953 5.89472 0
9.23226 5.38309 6.66214 0
10.6887 4.56631 4.36756 0
9.79187 4.88257 4.96951 0
9.77918 4.48195 4.88807 0
10.7129 3.71607 4.01166 0
9.93783 4.01133 4.75467 0
9.47721 4.48645 6.55587 0
9.48052 3.99008 6.36873 0
9.31919 4.98248 6.71096 0
9.509 4.25441 5.66382 0
10.1297 3.53033 4.64871 0
9.59732 3.29049 5.25313 0
9.2728 3.54117 6.28028 0
10.9067 2.69082 4.06922 0
10.0512 3.03923 4.45295 0
10.0083 2.56109 4.24088 0
10.9556 1.85594 3.58044 0
10.2209 2.12484 4.21807 0
10.0804 2.76389 8.59173 0
9.89333 2.30171 8.72276 0
10.5378 3.69683 8.46024 0
10.274 3.24725 8.50838 0
9.63357 2.75964 8.10269 0
9.22009 2.77399 7.66734 0
9.13268 2.2209 7.65706 0
11.1245 4.59076 8.31064 0
10.8703 4.14813 8.40597 0
11.1558 5.07436 8.45186 0
10.4802 4.66749 8.04755 0
9.92848 4.19801 7.57653 0
9.37844 3.28857 7.66622 0
9.27475 2.76466 7.00152 0
10.074 3.71634 8.00366 0
9.65153 3.76148 7.62362 0
9.32393 3.71519 7.08305 0
9.29513 2.63725 6.18657 0
9.44893 2.18931 6.20028 0
9.13369 3.09154 6.20798 0
9.68575 2.39792 5.10808 0
10.4755 1.72067 4.31234 0
9.27007 1.75287 8.30601 0
9.71209 1.88944 8.90788 0
9.23236 1.59622 6.85641 0
9.07481 1.68677 7.67558 0
9.05756 1.18197 7.72067 0
9.24547 0.647703 7.02046 0
9.05543 0.741698 7.80627 0
9.91766 1.53575 5.28115 0
9.49709 1.61718 6.1564 0
11.5312 1.12636 3.9191 0
10.6659 1.33253 4.51763 0
10.7807 0.921234 4.67958 0
11.9097 0.263838 4.07716 0
10.9686 0.488041 4.75993 0
9.68552 0.675874 6.25395 0
9.75417 0.248922 6.39683 0
9.55257 1.08797 6.13034 0
10.1442 0.679878 5.49933 0
11.1538 0.0836578 4.87735 0
10.506 -0.0745597 5.78647 0
9.94969 -0.10566 6.5465 0
12.2308 -0.574749 4.1363 0
11.3193 -0.326085 4.93023 0
11.5242 -0.678321 5.08007 0
12.7203 -1.22407 4.38571 0
11.8011 -0.972234 5.25435 0
19.4545 1.63574 8.54281 0
18.0545 1.8539 10.2693 0
18 1.77335 9.23815 0
19.3573 1.45708 8.7912 0
18.1091 1.9183 8.51997 0
14.4015 0.663351 13.8269 0
14.3028 0.222121 14.2496 0
16.7065 1.94337 12.0017 0
16.6834 1.81155 12.5422 0
15.6979 2.1265 12.8031 0
14.6725 2.33437 12.4556 0
14.6357 2.09136 12.8615 0
14.5068 1.1557 13.4583 0
13.4672 1.02466 13.4467 0
15.5572 1.30989 13.5226 0
14.5829 1.64357 13.1487 0
13.5327 1.92385 12.7983 0
12.4215 1.3415 13.1114 0
12.4147 0.905791 13.462 0
12.4637 2.01377 12.4105 0
12.4274 1.77532 12.7679 0
11.5689 1.29157 12.4917 0
10.6244 1.12137 11.9416 0
10.7238 0.799568 12.2373 0
16.8053 1.99535 10.9729 0
16.7317 1.93596 11.4734 0
16.8545 2.00988 9.91886 0
16.8593 2.04595 10.4538 0
15.7959 2.30076 10.6908 0
14.864 2.5822 10.4207 0
14.8233 2.55364 10.9567 0
16.8781 2.15269 8.97137 0
16.8514 2.05192 9.41906 0
16.9259 2.26313 8.62965 0
15.7982 2.55336 8.74751 0
14.8473 2.69635 9.01146 0
14.8496 2.48543 9.91565 0
13.8745 2.71083 10.2046 0
15.7893 2.24962 9.64114 0
14.8414 2.45372 9.41414 0
13.9135 2.78491 9.3482 0
12.8781 2.82513 10.0582 0
12.8191 2.74245 10.4528 0
12.9332 2.94884 9.76257 0
12.0425 2.90266 9.88744 0
11.1455 2.65112 9.8578 0
10.534 1.45527 11.6415 0
9.87279 0.900712 11.2686 0
12.5145 2.19869 12.0525 0
11.4983 1.84353 11.8518 0
10.5049 1.69278 11.3182 0
10.485 1.90447 11.0028 0
9.81784 1.48743 10.654 0
14.7087 2.40492 11.9726 0
13.6321 2.34836 12.0544 0
15.7399 2.2815 11.7519 0
14.7437 2.43714 11.4625 0
13.7808 2.5258 11.1048 0
11.5626 2.17232 11.124 0
10.5672 2.06934 10.6836 0
12.5947 2.31623 11.6423 0
12.6953 2.39531 11.1971 0
12.7717 2.54221 10.796 0
10.7239 2.19774 10.3507 0
9.82571 1.88892 10.0867 0
11.798 2.46615 10.4125 0
10.9166 2.40217 10.0935 0
10.3332 2.08918 9.49893 0
9.523 0.37063 10.3895 0
9.5576 0.130771 10.7425 0
9.42234 0.895313 9.803 0
9.50919 0.643897 10.0681 0
9.40012 -0.39009 9.35609 0
9.74724 -0.512923 8.50604 0
9.74739 -0.777914 8.8154 0
9.31801 1.40574 9.36787 0
9.27784 1.19896 9.60147 0
9.55455 1.48288 9.07134 0
8.96998 0.878271 8.56353 0
9.09877 0.332296 7.91388 0
9.51121 -0.308131 8.2286 0
9.8007 -0.691816 7.70899 0
9.21034 0.162429 8.84684 0
9.26779 -0.0264622 8.04162 0
9.39892 -0.151591 7.29167 0
10.2432 -0.853921 6.84704 0
10.5041 -1.06477 7.10309 0
10.0748 -0.463429 6.70609 0
10.857 -0.812575 6.07768 0
11.9377 -1.37229 5.38712 0
13.3694 0.116017 14.2141 0
14.2476 0.0120089 14.8383 0
14.1691 -0.254331 15.3916 0
13.291 -0.459743 15.2904 0
14.0913 -0.761979 15.8519 0
11.6102 0.483243 13.1506 0
12.4211 0.434967 13.8068 0
10.1568 0.260078 11.8255 0
10.7979 0.433059 12.5294 0
10.8337 0.047592 12.837 0
10.406 -0.423846 12.3959 0
10.9036 -0.360304 13.1708 0
12.4247 -0.373687 14.66 0
12.3921 -0.725511 15.1453 0
12.4255 -0.0419883 14.1562 0
11.6729 -0.409414 13.8641 0
10.9587 -0.81985 13.5223 0
11.6788 -1.3019 14.6885 0
12.3693 -1.27625 15.51 0
10.7889 -1.26696 13.0204 0
11.0569 -1.32487 13.8621 0
11.1348 -1.81812 14.2332 0
11.3161 -2.25461 13.6729 0
11.6406 -2.2157 14.5364 0
9.81011 -0.573064 10.0303 0
9.8039 -0.0276361 11.0295 0
10.2437 -1.2396 8.25448 0
9.9381 -1.10571 9.12065 0
10.2695 -1.14749 9.40479 0
10.8246 -1.72143 8.8251 0
10.6808 -1.23778 9.69665 0
11.2513 -1.50364 6.38857 0
10.8188 -1.30678 7.30437 0
13.2572 -1.79991 4.69599 0
12.1882 -1.6731 5.53831 0
12.4594 -1.93406 5.71362 0
13.9123 -2.13253 5.12132 0
12.8248 -2.05032 5.96753 0
11.3637 -1.82792 7.86744 0
11.7447 -1.93495 8.19927 0
11.0241 -1.6534 7.54841 0
11.9096 -1.92108 6.8448 0
13.2305 -2.0849 6.29224 0
12.7375 -2.06477 7.56547 0
12.1154 -2.11598 8.54243 0
14.6513 -2.35631 5.76052 0
13.5946 -2.19938 6.66314 0
13.9559 -2.41732 7.04061 0
15.3391 -2.81718 6.54488 0
14.3563 -2.62906 7.41831 0
11.2855 -2.14219 12.829 0
11.6103 -2.66875 13.126 0
10.6716 -1.2256 12.1964 0
10.9598 -1.65939 12.5135 0
11.6569 -2.06966 11.9191 0
12.1124 -1.99083 11.0376 0
12.3917 -2.45554 11.3872 0
10.217 -0.554236 11.5731 0
10.3883 -0.868779 11.8864 0
9.94631 -0.336175 11.2933 0
10.4611 -0.819625 10.6 0
11.0317 -1.34098 9.99738 0
11.7495 -1.75261 10.6477 0
12.4744 -2.22819 10.1439 0
11.0538 -1.28306 11.2314 0
11.4641 -1.44997 10.2916 0
11.646 -1.9212 9.44674 0
12.94 -2.42295 9.24562 0
13.366 -2.61887 9.69669 0
12.5258 -2.27215 8.88232 0
13.5488 -2.48598 8.30967 0
14.7632 -2.88433 7.8717 0
12.2854 -3.04193 12.6617 0
11.974 -3.19604 13.5301 0
13.2259 -2.81569 10.9428 0
12.6716 -2.95457 11.7605 0
12.9729 -3.41299 12.2602 0
13.8154 -3.85886 11.8262 0
13.2875 -3.91699 12.7707 0
14.4065 -2.98072 9.25837 0
13.7907 -2.77266 10.122 0
16.1465 -3.31341 7.4252 0
15.1818 -3.13966 8.34592 0
15.5163 -3.51759 8.76719 0
16.8004 -4.00961 8.29405 0
15.7884 -3.99258 9.12474 0
14.3479 -3.83474 10.8711 0
14.6833 -4.30539 11.3809 0
14.0695 -3.29605 10.4966 0
15.015 -3.91666 10.0029 0
16.0564 -4.48536 9.53789 0
15.7329 -4.73715 10.9894 0
15.0296 -4.78167 11.8902 0
17.1787 -5.22163 9.11905 0
16.4455 -4.77742 10.0597 0
16.8062 -5.12569 10.6043 0
14.0051 -1.17513 16.358 0
12.4211 -1.82775 15.8279 0
12.2774 -2.20952 15.2951 0
12.2014 -2.56586 14.8735 0
12.3833 -3.7434 13.9702 0
13.0179 -4.13762 13.6048 0
13.5861 -4.56748 13.2318 0
13.1986 -17.4086 -4.12023 0
13.8705 -18.9955 -1.71187 0
13.3845 -18.1851 -2.63657 0
13.6087 -19.4921 -1.19234 0
13.3962 -19.7507 -0.570249 0
13.0875 -18.9035 -1.44193 0
13.7037 -20.6435 0.251774 0
13.2451 -19.9024 0.231659 0
13.5501 -21.6285 0.480946 0
13.1859 -21.5466 0.742319 0
12.8921 -19.9373 0.584393 0
12.798 -19.1672 0.150179 0
12.7223 -21.337 0.788408 0
12.992 -20.6725 0.888116 0
12.4716 -19.7767 0.723419 0
11.9734 -19.5048 0.69037 0
11.953 -18.8721 0.500776 0
11.9982 -20.0567 0.843043 0
11.5692 -19.1006 0.999001 0
12.4619 -21.9675 0.694742 0
12.2636 -21.0107 0.805681 0
11.8486 -20.4068 0.759292 0
11.631 -20.7087 0.571274 0
11.456 -19.851 1.00045 0
11.8356 -21.4273 0.231372 0
11.4666 -20.7202 0.148296 0
12.2629 -22.0127 0.281387 0
11.3662 -20.4199 -0.4927 0
11.0453 -19.9833 0.030306 0
11.3084 -20.0168 -1.2483 0
10.6349 -19.7976 -1.54023 0
11.1123 -18.5438 1.21005 0
11.1025 -18.1247 1.09606 0
11.0403 -19.2296 1.15724 0
11.1023 -18.9182 1.26313 0
10.6311 -18.0666 1.44892 0
10.0965 -17.5782 1.59802 0
10.0879 -17.2066 1.49053 0
10.5483 -19.2787 -0.107345 0
10.7962 -19.2385 0.570118 0
9.92949 -19.5538 -1.90692 0
10.2337 -19.437 -0.993298 0
9.98906 -18.7984 -0.329554 0
9.37865 -18.3105 -0.483903 0
9.63032 -18.2733 0.446253 0
9.99008 -17.8928 1.40996 0
9.41783 -17.2191 1.60477 0
10.5015 -18.7648 1.2195 0
9.88809 -18.2381 1.20657 0
9.0602 -17.7243 0.910349 0
8.64826 -16.8343 1.58843 0
8.65531 -16.442 1.52134 0
8.19216 -17.264 0.782118 0
8.45991 -17.062 1.23196 0
7.79825 -16.4834 1.653 0
7.00858 -16.1151 1.88307 0
6.88223 -15.7832 1.71793 0
7.08061 -16.5045 2.0885 0
6.38038 -15.8003 2.60592 0
8.13521 -17.5328 0.506233 0
7.65171 -16.9957 1.26482 0
7.07941 -16.7867 2.02871 0
7.00787 -17.1806 2.00505 0
6.3443 -16.7133 2.95571 0
8.98084 -18.5256 -1.43672 0
8.5426 -18.0354 -0.452688 0
9.21154 -19.2085 -2.27197 0
8.49329 -18.7841 -2.47225 0
8.17034 -19.3265 -3.2826 0
7.78287 -18.6728 -2.27404 0
7.48959 -17.5919 0.78115 0
6.73501 -17.6837 1.85545 0
7.84222 -17.7877 -0.0633296 0
7.52199 -18.2148 -0.824634 0
7.02875 -18.7006 -1.75123 0
6.43572 -18.1519 1.46761 0
6.03829 -17.8084 2.91714 0
6.83627 -19.3608 -2.55275 0
6.72064 -18.666 -0.542091 0
6.46199 -18.7333 1.00914 0
6.26513 -19.5804 0.259458 0
6.20114 -18.7585 2.39533 0
6.27369 -20.2967 -2.35887 0
6.30965 -20.5029 -0.669085 0
7.44846 -20.1545 -3.64935 0
6.84619 -20.2549 -3.17456 0
8.02734 -19.8213 -3.96174 0
6.20359 -20.2343 1.37047 0
5.89262 -15.4404 3.47741 0
5.81227 -14.9617 3.1497 0
5.98212 -16.4043 4.05178 0
5.97822 -15.9149 3.84073 0
5.51947 -14.936 4.49207 0
5.65371 -14.4159 5.32614 0
5.42542 -13.9262 4.73615 0
6.24678 -17.6353 4.1932 0
5.93233 -16.9494 4.04466 0
6.38935 -18.6404 3.69936 0
6.31663 -18.079 3.96359 0
6.40057 -17.3369 5.40082 0
6.67789 -16.9898 6.27528 0
6.43865 -16.0164 6.3542 0
5.83481 -14.9378 5.7128 0
6.06133 -13.7869 6.01727 0
5.76918 -15.9371 5.28746 0
6.14035 -15.3576 6.23812 0
6.58566 -14.8214 6.91548 0
6.73831 -13.1944 6.36492 0
6.55358 -12.4732 5.96884 0
7.30367 -14.5606 7.02996 0
6.9134 -13.8825 6.7376 0
7.42963 -12.7532 6.42236 0
8.41366 -12.4565 5.9788 0
8.11994 -11.7185 5.68717 0
6.62523 -20.1152 3.13637 0
6.34333 -19.2852 3.34273 0
6.96851 -20.075 4.5304 0
7.47321 -19.1452 5.61323 0
9.77292 -19.3706 6.44258 0
9.6382 -18.57 6.77634 0
13.7989 -17.1557 6.01182 0
9.13143 -13.1982 6.04141 0
9.73937 -12.2175 5.36686 0
7.75167 -15.3906 7.20196 0
8.3163 -14.3164 6.80126 0
9.78117 -13.9661 6.15202 0
10.4719 -14.656 6.25574 0
11.2491 -13.8303 5.30631 0
6.80374 -17.794 6.04366 0
7.05601 -16.6738 6.96299 0
6.55108 -18.5368 4.8698 0
7.12972 -18.4184 5.77604 0
7.77266 -18.2602 6.85597 0
9.42826 -15.889 6.99031 0
11.1765 -15.3772 6.29235 0
8.03607 -16.3716 7.09798 0
8.5607 -17.2246 7.01872 0
9.05717 -17.8808 6.99925 0
12.1034 -15.9199 6.19653 0
12.9871 -15.1381 5.22062 0
10.774 -17.3257 6.7694 0
13.0646 -16.437 6.09807 0
15.1794 -15.8733 5.11252 0
11.0782 -12.1024 4.7099 0
10.3724 -11.5635 4.26812 0
12.6078 -13.8557 4.42434 0
11.8417 -12.9289 4.63456 0
12.1519 -12.4202 3.38245 0
13.1435 -12.8595 1.78205 0
12.2658 -12.3549 1.83533 0
14.652 -15.0319 3.99507 0
13.5712 -14.5294 4.19877 0
17.159 -15.5989 3.76675 0
15.8942 -15.3875 3.8148 0
16.3572 -14.9059 2.43007 0
17.7755 -14.4153 0.968502 0
16.4843 -14.133 1.23789 0
14.1209 -13.2847 1.7128 0
14.0937 -13.1041 0.315889 0
13.8933 -13.9124 2.97082 0
15.2883 -13.7578 1.478 0
16.6531 -13.4358 0.018472 0
14.8487 -12.5531 -0.927194 0
13.9289 -12.6264 -0.930489 0
16.6725 -12.5256 -0.816124 0
15.9825 -12.4301 -0.969147 0
15.3729 -11.5829 -1.95235 0
17.4954 -12.5665 -0.677512 0
16.3946 -11.6513 -1.39512 0
18.7608 -15.0395 0.766726 0
18.3506 -13.4925 0.156138 0
18.1623 -16.2347 3.85564 0
18.7804 -15.9585 2.09333 0
12.2338 -16.359 -5.96683 0
12.6177 -17.1332 -4.42202 0
12.4181 -16.7984 -5.23658 0
11.7036 -16.07 -6.24236 0
11.172 -15.682 -6.48244 0
10.2257 -13.4354 -7.91229 0
9.68805 -10.8507 -9.13332 0
9.98457 -10.1494 -9.41578 0
11.0342 -6.94563 -9.97293 0
10.3071 -9.33292 -9.67757 0
10.1522 -8.6864 -9.58536 0
10.8956 -6.44262 -9.89023 0
11.5224 -5.55088 -10.0719 0
10.0044 -8.05828 -9.49296 0
10.4488 -7.30709 -9.68746 0
10.7825 -5.91296 -9.81028 0
10.6165 -5.39345 -9.70334 0
11.1357 -4.5678 -9.99737 0
12.4136 -3.21212 -10.2921 0
11.9214 -4.29031 -10.2795 0
11.6884 -3.81993 -10.3034 0
11.5038 -3.25531 -10.2447 0
11.5857 -2.76259 -9.75352 0
12.3301 -2.28838 -9.62415 0
12.8145 -17.7586 -2.89166 0
12.7494 -17.4557 -3.61315 0
12.606 -18.2352 -1.65707 0
12.7276 -18.0609 -2.28411 0
12.1915 -17.3391 -3.27179 0
11.4165 -16.9157 -3.71652 0
11.4631 -16.6256 -4.37792 0
12.2363 -18.2532 -0.332785 0
12.4584 -18.3263 -0.892822 0
11.4501 -17.8791 0.252102 0
11.8085 -18.099 -0.128632 0
11.6402 -17.384 -0.816311 0
10.777 -16.8939 -1.33311 0
11.0642 -16.9947 -1.83679 0
11.3389 -17.0599 -3.09448 0
10.6556 -16.4133 -4.12876 0
12.0332 -17.6139 -1.9593 0
11.2571 -17.0982 -2.40874 0
10.4378 -16.6 -2.84053 0
10.0131 -15.7665 -4.44815 0
10.2598 -15.4069 -4.96129 0
9.67063 -15.8554 -3.33969 0
9.85975 -15.8958 -3.85451 0
9.36555 -15.1238 -4.76432 0
8.80636 -14.147 -5.00811 0
9.02754 -13.7945 -5.48537 0
10.5181 -17.1852 0.953576 0
11.0007 -17.5409 0.582513 0
9.34264 -16.4175 1.35395 0
9.99876 -16.7741 1.19374 0
9.88043 -16.3226 0.790608 0
8.93037 -15.7598 0.292478 0
9.55614 -16.0491 -0.0434456 0
7.72817 -15.7479 1.50729 0
8.63056 -16.049 1.46841 0
6.19655 -15.0237 2.01697 0
6.79921 -15.4266 1.54297 0
6.92429 -14.946 1.22664 0
6.26713 -14.1661 1.20295 0
7.03507 -14.4616 0.907782 0
8.23302 -15.4689 0.496292 0
7.95644 -15.2125 -0.18997 0
8.48511 -15.7224 1.10245 0
7.62558 -14.9837 0.708236 0
6.86202 -14.2701 0.37714 0
7.13806 -14.5196 -0.563769 0
7.69821 -14.7869 -0.967655 0
6.06715 -13.6446 0.141966 0
6.6279 -14.157 -0.197699 0
6.41431 -13.8735 -0.887169 0
5.84662 -12.882 -1.04129 0
6.43592 -13.1787 -1.47024 0
8.56938 -14.1715 -4.57119 0
8.30946 -13.049 -5.24859 0
9.35391 -15.7612 -2.86905 0
8.88962 -15.0886 -3.83744 0
8.26817 -14.2171 -4.13096 0
7.95442 -14.2349 -3.57307 0
7.68824 -13.3734 -4.32698 0
10.3996 -16.662 -0.907736 0
9.85625 -16.4042 -1.84392 0
10.8932 -16.9375 0.01137 0
10.0537 -16.3558 -0.460712 0
9.18029 -15.7992 -0.917553 0
8.28191 -14.9712 -2.72636 0
7.60213 -14.1324 -3.00534 0
9.03672 -15.6988 -2.3209 0
8.71049 -15.4249 -1.82385 0
8.28931 -15.0909 -1.36538 0
7.15973 -13.8373 -2.51732 0
6.92369 -13.1547 -3.27374 0
7.42423 -14.3861 -1.76842 0
6.79088 -13.4939 -2.00837 0
6.31319 -12.5378 -2.14111 0
7.83355 -11.8482 -5.4096 0
7.88692 -11.6669 -5.9799 0
7.2277 -12.1509 -4.45153 0
7.61325 -11.9904 -4.89424 0
7.41813 -10.5378 -5.51429 0
7.16569 -9.36047 -5.55261 0
7.22369 -9.24477 -6.12437 0
6.47411 -11.9357 -3.42857 0
6.7996 -12.1104 -3.97338 0
6.05233 -11.3871 -2.24926 0
6.29316 -11.7235 -2.82837 0
6.24592 -10.7189 -3.49902 0
6.17967 -9.48595 -3.42542 0
6.30814 -9.6225 -4.03197 0
6.88635 -9.51956 -5.07843 0
6.87139 -8.25568 -5.61038 0
6.74352 -10.8004 -4.58567 0
6.49798 -9.63467 -4.61952 0
6.46972 -8.42767 -4.5078 0
6.87785 -6.99613 -5.42208 0
7.06978 -6.81342 -5.90034 0
6.37734 -7.12182 -4.37823 0
6.58986 -7.11467 -4.95237 0
6.77338 -5.66967 -5.2682 0
6.88219 -4.33468 -5.10391 0
7.1743 -4.17787 -5.5431 0
12.6795 -1.22496 -8.81291 0
13.6813 -0.439566 -8.28764 0
10.9402 -3.39007 -9.54251 0
11.7012 -2.18043 -9.26385 0
11.9948 -1.4709 -8.80176 0
11.3484 -1.81651 -8.65012 0
12.4269 -0.720414 -8.28032 0
10.1341 -6.23152 -9.50819 0
10.4504 -4.81479 -9.58442 0
9.65629 -8.6739 -9.25544 0
9.8633 -7.47266 -9.39901 0
9.66564 -6.81027 -9.36514 0
9.18539 -7.23562 -9.25599 0
9.48456 -6.02271 -9.25048 0
10.4838 -3.2093 -8.99223 0
10.7356 -2.14535 -8.62181 0
10.3302 -4.00199 -9.42846 0
9.83233 -4.66357 -9.23685 0
9.38303 -5.12514 -9.07877 0
10.2559 -2.49391 -8.5659 0
11.2256 -0.907573 -8.44272 0
9.0824 -5.44267 -8.82905 0
9.59456 -4.03815 -8.73127 0
9.88623 -2.78447 -8.408 0
9.5478 -2.98316 -8.20828 0
10.3426 -1.2892 -8.04978 0
9.38195 -11.482 -8.79219 0
9.49174 -10.0855 -9.07049 0
10.1976 -13.9238 -7.39093 0
9.74625 -12.7426 -8.10373 0
9.16182 -12.0342 -8.35355 0
9.11819 -12.4264 -7.7967 0
8.84326 -11.2044 -8.39396 0
11.2587 -16.1194 -5.82021 0
10.6894 -15.0422 -6.65018 0
12.0291 -16.7874 -4.74316 0
11.3753 -16.3672 -5.08429 0
10.7908 -15.7355 -5.35338 0
9.69508 -13.5391 -6.99276 0
9.11112 -12.7559 -7.16881 0
10.2081 -14.3031 -6.81395 0
10.2332 -14.6494 -6.19865 0
10.3229 -15.0671 -5.55047 0
9.17729 -13.1383 -6.55477 0
8.59827 -11.8983 -7.32515 0
9.86446 -14.3733 -5.74622 0
9.23752 -13.4292 -5.96928 0
8.5674 -12.4215 -6.24986 0
8.97212 -4.49942 -8.22646 0
9.2197 -3.14205 -7.99085 0
8.66259 -6.77108 -8.9135 0
8.81357 -5.71913 -8.52213 0
8.53988 -5.9437 -8.19759 0
8.18728 -7.33823 -8.18133 0
8.19698 -6.09813 -7.94093 0
9.01394 -8.48887 -9.04897 0
8.73069 -7.6739 -9.09071 0
9.29298 -9.30421 -9.01523 0
9.00393 -9.80245 -8.65485 0
8.71415 -10.2454 -8.27615 0
8.3393 -8.3578 -8.23036 0
8.02192 -8.59024 -7.91309 0
8.53031 -8.0428 -8.66451 0
8.54716 -9.27819 -8.21932 0
8.54574 -10.5706 -7.7998 0
7.89114 -9.79525 -7.58343 0
7.76473 -8.77238 -7.5098 0
8.22702 -10.8465 -7.46067 0
8.17381 -11.0897 -6.96118 0
8.03235 -11.357 -6.4679 0
8.90095 -3.30074 -7.71036 0
9.55149 -1.64222 -7.73039 0
7.94028 -6.25241 -7.56174 0
8.2873 -4.79579 -7.69534 0
8.581 -3.44056 -7.40182 0
8.36413 -3.59378 -7.02342 0
8.89164 -2.05424 -7.13415 0
7.54426 -8.98705 -7.0931 0
7.66888 -7.69037 -7.40864 0
7.45593 -10.296 -6.71714 0
7.31578 -9.14214 -6.66331 0
7.19239 -7.92294 -6.5927 0
7.91082 -5.04749 -6.89867 0
8.04941 -3.71838 -6.69765 0
7.75884 -6.37756 -7.15495 0
7.54608 -6.49185 -6.75204 0
7.29069 -6.63406 -6.34444 0
7.74226 -3.84141 -6.34885 0
8.20876 -2.38462 -6.52785 0
7.38587 -5.34388 -6.10565 0
7.46573 -4.00253 -5.94751 0
7.58624 -2.66372 -5.76417 0
12.8447 0.453449 -8.28275 0
13.4007 0.484268 -8.25391 0
14.2708 1.67048 -8.40958 0
11.8293 0.539537 -8.15646 0
12.3089 0.521937 -8.34474 0
10.9327 0.40234 -7.7256 0
11.3862 0.449179 -7.8968 0
12.4836 2.08067 -7.92374 0
12.9132 3.64958 -8.6086 0
13.4051 3.39709 -8.64748 0
14.2778 2.95916 -8.69452 0
13.2962 1.80368 -8.42845 0
13.831 3.1726 -8.73833 0
14.5581 4.30629 -8.79231 0
15.2907 4.93465 -8.68382 0
9.99085 0.0378762 -7.41419 0
10.4615 0.236315 -7.57945 0
9.28495 -0.512334 -6.92215 0
9.60917 -0.222765 -7.18778 0
10.7203 1.85246 -7.44537 0
11.3399 3.49344 -7.78898 0
11.5875 3.81228 -8.12347 0
8.59368 -0.992702 -6.24444 0
8.92684 -0.7968 -6.64062 0
8.02869 -1.30198 -5.46076 0
8.27976 -1.11671 -5.81041 0
9.05667 0.578661 -6.02703 0
9.80993 2.35591 -5.97968 0
10.2199 2.49163 -6.50063 0
11.2896 3.03573 -7.2296 0
12.1404 4.53792 -7.74102 0
9.91715 1.15402 -6.88184 0
10.7854 2.80733 -6.86777 0
11.8892 3.81975 -6.81856 0
12.752 5.11337 -7.51789 0
12.8141 5.37691 -8.02563 0
12.7016 4.29931 -6.57241 0
12.846 4.66047 -7.00624 0
13.5131 5.3449 -7.28285 0
14.646 5.21893 -6.96059 0
14.6487 5.51393 -7.36462 0
14.8095 4.78723 -8.66685 0
15.9854 5.53795 -7.84613 0
12.3924 3.80263 -8.5331 0
13.6304 4.4456 -8.68325 0
11.4891 2.29748 -7.77349 0
11.9765 3.85062 -8.34939 0
12.6065 4.71332 -8.62031 0
14.7717 5.26976 -8.46385 0
15.5642 5.49166 -7.82878 0
14.2064 4.91877 -8.78636 0
13.5946 5.05515 -8.89919 0
13.2026 5.2116 -8.48271 0
15.16 5.43673 -7.78946 0
16.5843 5.91604 -7.52268 0
13.8942 5.4991 -8.0266 0
14.7977 5.57665 -7.48096 0
16.0487 5.54861 -7.2505 0
17.9033 6.28157 -7.50431 0
18.2181 6.58949 -7.6107 0
17.4859 5.72186 -7.25997 0
17.6726 5.90213 -7.4096 0
19.1821 6.32347 -7.40734 0
20.3806 6.19584 -7.11539 0
20.5318 6.58586 -7.36679 0
21.8118 7.01275 -7.53463 0
22.9852 6.90543 -7.4994 0
5.17964 -14.0566 3.46042 0
5.64184 -14.5719 2.60222 0
5.43019 -12.9124 4.79142 0
5.14872 -13.5144 4.19451 0
4.85784 -13.1563 3.64359 0
4.84114 -12.2058 3.53632 0
4.72094 -12.8289 2.9176 0
6.90554 -11.5101 5.56482 0
6.17753 -12.1391 5.28671 0
8.66217 -11.0986 4.59251 0
7.75698 -11.2189 5.16517 0
7.28956 -10.9641 4.55754 0
7.62864 -10.1991 3.62246 0
6.73179 -10.6955 3.9946 0
5.34021 -11.6972 3.91638 0
5.07618 -11.1271 3.33694 0
5.66374 -12.0847 4.53748 0
5.87976 -11.2241 4.26063 0
6.33352 -10.1351 3.52026 0
5.48679 -9.81852 3.12679 0
4.89496 -10.5677 2.71428 0
6.79702 -9.05312 2.78605 0
6.13177 -9.38898 3.05645 0
5.92826 -8.71679 2.61658 0
6.50247 -7.67513 1.87554 0
5.78719 -8.11928 2.13262 0
10.737 -11.2654 2.80071 0
9.73687 -11.0633 3.8123 0
12.2934 -12.0455 0.316916 0
11.5567 -11.6738 1.62329 0
10.8971 -10.998 1.35185 0
11.044 -10.9112 -0.322188 0
10.0484 -10.712 0.735836 0
13.6275 -11.8428 -2.08143 0
13.0465 -12.3404 -1.05625 0
14.3754 -10.3793 -2.80222 0
13.6634 -10.8026 -3.50813 0
13.1774 -11.058 -3.88209 0
11.8238 -11.4146 -1.63788 0
11.2707 -10.8585 -2.00339 0
12.3819 -11.8713 -1.2899 0
12.399 -11.4082 -2.79459 0
10.9119 -10.2024 -2.23372 0
7.42385 -7.57601 1.29938 0
7.57324 -6.919 0.756308 0
7.70756 -9.25642 2.02589 0
7.46192 -8.42826 1.67337 0
8.49394 -7.83468 0.390411 0
9.2481 -8.16597 -0.607349 0
9.37577 -7.33839 -0.927165 0
8.17254 -10.5389 2.54928 0
7.78816 -9.99026 2.21011 0
9.03304 -10.7595 3.20209 0
8.93084 -10.7248 1.58166 0
9.37179 -10.335 0.17365 0
9.2368 -8.97337 -0.229684 0
9.99119 -8.47057 -1.53685 0
8.53145 -9.4551 1.06221 0
9.28119 -9.64278 -0.0392079 0
10.0428 -9.86228 -1.1272 0
10.782 -8.78339 -2.63518 0
10.8897 -8.02125 -2.86347 0
10.8012 -9.52401 -2.44669 0
8.68335 -6.30314 -0.422374 0
7.72448 -6.22562 0.270588 0
10.3836 -6.85677 -2.06341 0
9.53915 -6.55346 -1.24254 0
9.71285 -5.83061 -1.6174 0
10.6882 -5.71077 -3.21022 0
9.85418 -5.25949 -2.19258 0
11.1576 -7.33726 -3.11809 0
13.7691 -7.33295 -5.69554 0
11.5869 -6.23558 -4.07754 0
12.1139 -5.85409 -4.22956 0
11.437 -6.78394 -3.47083 0
12.7871 -6.92075 -4.65721 0
14.2983 -7.00621 -5.81411 0
13.8972 -6.24308 -4.87549 0
12.5217 -5.58961 -4.36288 0
16.0638 -7.07355 -6.38159 0
14.9718 -6.6546 -5.67586 0
15.6538 -6.25081 -5.51894 0
17.4088 -6.38928 -6.11435 0
16.2617 -5.77477 -5.5566 0
18.5337 -7.04699 -6.25015 0
19.1388 -6.72253 -6.19226 0
17.3255 -7.56038 -6.34852 0
17.9493 -7.27852 -6.26343 0
19.6736 -7.63384 -6.15031 0
21.1798 -8.18997 -5.37801 0
20.6955 -7.29847 -5.72403 0
19.6964 -6.4846 -5.93508 0
22.411 -8.73503 -4.49005 0
21.6093 -8.09923 -5.16396 0
22.1001 -7.96459 -4.85897 0
23.4129 -8.60519 -4.28305 0
22.6293 -7.90234 -4.633 0
23.1586 -9.25564 -3.94076 0
23.8021 -7.39185 0.90563 0
23.8456 -7.94933 -1.36241 0
24.108 -7.87512 -1.67945 0
